# .PCD v0.7 - Point Cloud Data file format
VERSION 0.7
FIELDS x y z intensity
SIZE 4 4 4 4
TYPE F F F F
COUNT 1 1 1 1
WIDTH 1683
HEIGHT 1
VIEWPOINT 0 0 0 1 0 0 0
POINTS 1683
DATA ascii
nan nan nan 0
2.466705 -2.820955 0.3015758 32
nan nan nan 0
2.43787 -2.788872 0.6679571 28
nan nan nan 0
64.37592 -41.39873 0.4406059 5
nan nan nan 0
4.202812 -3.96775 -0.03005443 39
2.483075 -2.809262 -0.04338266 16
64.53883 -41.45578 2.26202 16
nan nan nan 0
4.235285 -3.983215 0.09877209 23
2.508253 -2.827024 0.04569158 24
nan nan nan 0
nan nan nan 0
8.167245 -5.263937 -1.344522 17
11.65851 -7.655665 -1.31712 17
16.65148 -10.84889 -1.272195 9
nan nan nan 0
4.252446 -4.043986 -0.4402852 39
2.482317 -2.827031 -0.3040912 13
23.75233 -15.24953 -1.146877 34
11.94318 -9.326789 -0.7048072 38
4.201271 -3.958037 -0.3004084 16
2.517016 -2.837865 -0.2184062 9
46.26528 -29.93689 -0.9611912 15
nan nan nan 0
4.25948 -4.035322 -0.1699029 36
2.485441 -2.817887 -0.1285284 15
2.493399 -2.806363 -0.6736818 19
2.471579 -2.821796 -0.4176321 13
2.468204 -2.812047 0.1486883 30
nan nan nan 0
2.45032 -2.822012 0.300765 33
nan nan nan 0
2.424902 -2.793645 0.6670606 29
nan nan nan 0
nan nan nan 0
nan nan nan 0
4.185313 -3.978951 -0.03002825 38
2.466669 -2.810387 -0.04326572 17
64.58674 -41.80572 2.268803 13
nan nan nan 0
4.239498 -4.015168 0.09919968 23
2.49177 -2.82825 0.04556941 23
nan nan nan 0
nan nan nan 0
8.132202 -5.281634 -1.34177 17
11.59019 -7.668862 -1.312406 18
16.57596 -10.88231 -1.269314 11
13.08687 -10.39706 -1.165979 27
4.223905 -4.045007 -0.4387786 40
2.465895 -2.828156 -0.303277 14
23.74929 -15.36491 -1.149316 37
nan nan nan 0
4.180186 -3.965803 -0.299885 15
2.484038 -2.820379 -0.2163731 12
46.28614 -30.18011 -0.9638091 15
nan nan nan 0
4.248982 -4.053617 -0.1700487 37
2.469016 -2.819018 -0.1281829 14
2.477088 -2.807661 -0.6718972 18
2.455204 -2.822898 -0.4165139 12
2.455096 -2.816875 0.1484876 31
nan nan nan 0
2.437206 -2.826769 0.3003597 33
nan nan nan 0
2.408724 -2.794631 0.6652673 27
nan nan nan 0
64.47887 -42.10408 0.4433129 8
nan nan nan 0
4.167789 -3.990077 -0.03000207 39
2.450285 -2.811433 -0.04314879 16
64.67066 -42.18107 2.276914 13
nan nan nan 0
4.203757 -4.009234 0.09868658 22
2.478595 -2.833163 0.04550833 25
nan nan nan 0
nan nan nan 0
8.101278 -5.30186 -1.339706 17
11.52607 -7.684436 -1.308164 17
16.50457 -10.91809 -1.266754 10
13.02713 -10.42398 -1.163887 27
4.216935 -4.066651 -0.4395319 42
2.449496 -2.829202 -0.3024629 14
23.7583 -15.48863 -1.152365 31
nan nan nan 0
4.166317 -3.98037 -0.299885 16
2.461055 -2.813985 -0.2152114 11
46.51478 -30.56107 -0.9707901 17
nan nan nan 0
4.234807 -4.068423 -0.1700487 34
2.452613 -2.820069 -0.1278374 15
2.457563 -2.805176 -0.6692204 19
2.438851 -2.823921 -0.4153958 13
2.43872 -2.817862 0.1480863 31
nan nan nan 0
2.420853 -2.827677 0.299549 32
66.39164 -44.2841 9.794029 21
2.392569 -2.795537 0.6634742 28
nan nan nan 0
nan nan nan 0
nan nan nan 0
4.150237 -4.00113 -0.02997589 37
2.43719 -2.816184 -0.04309032 17
64.65668 -42.49438 2.281632 15
nan nan nan 0
4.178922 -4.013491 0.09843002 18
2.462144 -2.834239 0.04538616 23
nan nan nan 0
0.273658 -0.1841643 -0.07582346 9
8.06618 -5.31921 -1.336953 18
11.45785 -7.696881 -1.30345 17
16.42899 -10.95074 -1.263873 10
12.97513 -10.45687 -1.162492 27
4.209865 -4.088295 -0.4402852 46
2.433119 -2.830168 -0.3016487 14
23.72497 -15.58518 -1.153381 33
nan nan nan 0
4.130815 -3.974112 -0.2983149 16
2.43488 -2.803691 -0.2137592 11
46.40782 -30.72325 -0.9707901 15
nan nan nan 0
4.22058 -4.083181 -0.1700487 38
2.439494 -2.824826 -0.1276646 13
2.441308 -2.806305 -0.6674358 17
2.422522 -2.824864 -0.4142776 14
2.425619 -2.822564 0.1478857 33
nan nan nan 0
2.407746 -2.832309 0.2991437 38
65.97715 -44.3412 9.75564 17
2.376437 -2.796365 0.661681 22
nan nan nan 0
55.21088 -36.60543 0.3813114 12
nan nan nan 0
4.136245 -4.015593 -0.02997589 37
2.420839 -2.81708 -0.04297339 18
64.70381 -42.84951 2.288563 13
nan nan nan 0
4.143332 -4.007195 0.09791692 18
2.448976 -2.839026 0.04532507 26
nan nan nan 0
nan nan nan 0
8.035184 -5.339119 -1.334889 17
11.39792 -7.714521 -1.299678 17
16.36166 -10.98856 -1.261633 11
12.98115 -10.53667 -1.166328 25
4.188442 -4.095991 -0.4395319 47
2.419995 -2.834848 -0.3012416 13
nan nan nan 0
nan nan nan 0
4.127672 -3.998933 -0.2991 17
2.415315 -2.800819 -0.2128879 10
46.38763 -30.94331 -0.9726226 15
nan nan nan 0
4.20988 -4.101377 -0.1701944 39
2.423124 -2.825728 -0.1273191 13
2.425076 -2.807354 -0.6656512 17
2.406215 -2.825727 -0.4131594 14
2.409277 -2.823403 0.1474843 31
66.3316 -44.46205 4.644035 15
2.391427 -2.83307 0.298333 32
65.6617 -44.46272 9.731875 17
2.363495 -2.80088 0.6607844 25
nan nan nan 0
64.59573 -43.15188 0.4472006 18
nan nan nan 0
4.122203 -4.030006 -0.02997589 40
2.407751 -2.821706 -0.04291492 18
nan nan nan 0
nan nan nan 0
4.13648 -4.028612 0.09808795 22
2.432556 -2.839954 0.0452029 24
nan nan nan 0
nan nan nan 0
8.00003 -5.356123 -1.332137 16
11.3339 -7.729034 -1.295436 17
16.28187 -11.01765 -1.258433 11
12.90181 -10.5472 -1.162492 22
4.17767 -4.114086 -0.4399085 47
2.400435 -2.83186 -0.3000204 15
23.3828 -15.59524 -1.141998 23
19.18272 -15.52528 -1.14898 10
nan nan nan 0
2.392559 -2.794048 -0.2117262 12
46.34573 -31.14965 -0.9740188 15
nan nan nan 0
4.199104 -4.119549 -0.1703401 41
2.410012 -2.83036 -0.1271463 17
2.408866 -2.808325 -0.6638666 20
2.389932 -2.826511 -0.4120413 12
2.392958 -2.824163 0.147083 31
65.98572 -44.56483 4.630676 17
2.378328 -2.837576 0.2979276 31
65.33802 -44.577 9.706893 16
2.347397 -2.801562 0.6589913 21
nan nan nan 0
64.76826 -43.59485 0.4494469 26
56.47263 -46.27409 0 6
4.122358 -4.058406 -0.03008061 39
2.39466 -2.826274 -0.04285645 17
nan nan nan 0
56.51417 -46.17649 1.69346 11
4.118824 -4.039524 0.09800244 27
2.416161 -2.840802 0.04508073 25
nan nan nan 0
0.2797798 -0.1923643 -0.07835092 9
7.964857 -5.372947 -1.329384 16
11.27402 -7.746012 -1.291664 17
16.21857 -11.05756 -1.256512 9
12.83411 -10.56681 -1.159701 28
4.184517 -4.149715 -0.4421684 43
2.384129 -2.832586 -0.2992062 15
nan nan nan 0
19.10131 -15.57006 -1.14735 11
nan nan nan 0
2.363425 -2.779538 -0.2099836 11
46.31536 -31.36449 -0.9756767 15
nan nan nan 0
4.191808 -4.141209 -0.1706315 40
2.396896 -2.834934 -0.1269736 15
2.395864 -2.812966 -0.6629743 18
2.373672 -2.827217 -0.4109231 12
2.376665 -2.824844 0.1466817 33
65.64404 -44.66853 4.617606 17
2.362045 -2.83819 0.297117 33
64.96114 -44.653 9.673988 15
2.331323 -2.802166 0.6571981 23
nan nan nan 0
64.61155 -43.81786 0.4494181 11
56.08709 -46.28636 0 7
4.101067 -4.065728 -0.03002825 41
2.381567 -2.830785 -0.04279799 17
nan nan nan 0
nan nan nan 0
4.122478 -4.071447 0.09843002 31
2.399789 -2.84157 0.04495856 25
nan nan nan 0
nan nan nan 0
7.929662 -5.38959 -1.326632 17
11.21007 -7.759834 -1.287422 18
16.16342 -11.10281 -1.255232 11
12.77411 -10.59245 -1.157609 23
4.191167 -4.185442 -0.4444282 30
2.367847 -2.833234 -0.2983921 13
23.23199 -15.7301 -1.139965 17
18.96577 -15.57009 -1.142458 9
4.174283 -4.129757 -0.3056419 34
2.363352 -2.799227 -0.2108549 12
46.33776 -31.61612 -0.9784691 13
nan nan nan 0
4.187953 -4.166393 -0.1710687 41
2.380572 -2.83562 -0.1266281 15
2.379688 -2.81379 -0.6611897 19
2.360613 -2.831663 -0.410364 13
2.360395 -2.825445 0.1462804 35
65.32304 -44.78451 4.605989 15
2.345786 -2.838724 0.2963063 34
64.59272 -44.73258 9.642302 16
2.318401 -2.80649 0.6563015 24
nan nan nan 0
nan nan nan 0
55.77135 -46.35402 0 8
4.100999 -4.094154 -0.03013297 39
2.365272 -2.831398 -0.04268105 17
63.96712 -43.65858 2.283844 9
55.87867 -46.31155 1.684059 7
4.125959 -4.103444 0.0988576 37
2.383441 -2.842258 0.04483639 26
nan nan nan 0
0.2704022 -0.1889123 -0.07582346 10
7.89445 -5.406054 -1.32388 16
11.15024 -7.77615 -1.28365 18
16.09995 -11.14213 -1.253312 12
12.71025 -10.6146 -1.155167 24
9.91554 -9.975228 -1.059471 16
2.354766 -2.837642 -0.297985 16
23.2017 -15.82798 -1.141185 15
18.84201 -15.57892 -1.138266 12
4.181059 -4.165454 -0.3072121 37
2.353566 -2.80746 -0.2108549 10
46.34659 -31.8598 -0.9809997 14
nan nan nan 0
4.183973 -4.191602 -0.1715058 45
2.364271 -2.836227 -0.1262826 13
2.366693 -2.818307 -0.6602974 18
2.347552 -2.836054 -0.409805 13
2.347334 -2.829816 0.1460797 29
64.96505 -44.87327 4.591757 15
2.329552 -2.83918 0.2954956 36
64.20012 -44.79309 9.60696 15
2.302363 -2.806949 0.6545083 28
nan nan nan 0
63.62038 -43.79727 0.4446376 19
55.5287 -46.48102 0 16
4.128983 -4.150996 -0.03044713 47
2.345816 -2.828078 -0.04250565 18
63.6043 -43.7372 2.276324 14
55.6783 -46.47429 1.682899 14
4.171642 -4.177979 0.1003114 46
2.367119 -2.842867 0.04471422 26
nan nan nan 0
nan nan nan 0
7.859219 -5.422337 -1.321127 17
11.09044 -7.792144 -1.279879 18
16.06095 -11.19826 -1.253312 10
12.66549 -10.65248 -1.154469 23
9.82813 -9.956548 -1.053822 13
2.338521 -2.838143 -0.2971708 15
23.0969 -15.87493 -1.138746 14
18.776 -15.63501 -1.137567 10
4.194685 -4.208323 -0.3093055 39
2.34694 -2.819499 -0.2111453 12
46.38718 -32.12669 -0.9842284 14
38.56054 -32.34706 -1.167619 15
4.186903 -4.223935 -0.1722344 35
2.347995 -2.836754 -0.1259371 14
2.35055 -2.818985 -0.6585128 18
2.334489 -2.840388 -0.4092459 12
2.331101 -2.830271 0.1456784 35
64.56219 -44.92871 4.574331 15
2.316486 -2.843426 0.2950902 37
63.81194 -44.85426 9.572227 13
2.28635 -2.807331 0.6527151 30
nan nan nan 0
63.2206 -43.84814 0.4429098 16
55.54961 -46.82925 0 18
4.209308 -4.261456 -0.03115398 44
2.326411 -2.824657 -0.04233025 18
63.22939 -43.80528 2.268361 15
55.68026 -46.80666 1.687889 11
4.262601 -4.299047 0.1028769 44
2.350821 -2.843397 0.04459205 26
nan nan nan 0
nan nan nan 0
7.819903 -5.435617 -1.317687 15
11.0266 -7.80494 -1.275636 17
15.96868 -11.21699 -1.249151 9
12.58255 -10.65794 -1.150284 21
nan nan nan 0
2.3223 -2.838565 -0.2963566 15
23.02491 -15.94408 -1.137932 13
18.65625 -15.6459 -1.133608 13
4.208062 -4.251337 -0.3113989 23
2.337084 -2.827674 -0.2111453 11
46.43055 -32.3971 -0.9875444 14
nan nan nan 0
4.172133 -4.238523 -0.1722344 41
2.331745 -2.837202 -0.1255916 16
2.334432 -2.819585 -0.6567282 19
2.318289 -2.840811 -0.4081277 15
2.314893 -2.830646 0.1452771 32
64.13519 -44.9647 4.555163 15
2.30029 -2.843735 0.2942795 36
63.43221 -44.91901 9.538713 13
2.270363 -2.807635 0.650922 29
nan nan nan 0
62.84992 -43.91678 0.4413835 15
55.71742 -47.3044 0 9
2.76285 -2.815796 -0.02044644 18
2.310219 -2.825011 -0.04221332 20
62.86297 -43.87699 2.260693 15
55.82175 -47.25912 1.697173 12
4.233542 -4.299646 0.1025348 29
2.334548 -2.843848 0.04446988 25
nan nan nan 0
0.2723946 -0.1944757 -0.07708719 9
7.784647 -5.451526 -1.314934 16
10.96685 -7.820275 -1.271865 18
15.89276 -11.24673 -1.246271 12
12.5225 -10.68238 -1.148191 13
2.737975 -2.810717 -0.2933979 25
2.306105 -2.838908 -0.2955424 14
22.91175 -15.98435 -1.135087 15
18.59389 -15.70448 -1.133142 13
nan nan nan 0
2.320877 -2.828089 -0.2105645 11
46.3908 -32.61072 -0.9891151 16
nan nan nan 0
2.756834 -2.81944 -0.1138029 18
2.31552 -2.837572 -0.1252461 17
2.321456 -2.823912 -0.6558359 18
2.305236 -2.845021 -0.4075687 11
2.301855 -2.834826 0.1450764 33
63.77805 -45.04721 4.540931 15
2.287235 -2.847857 0.2938742 36
63.06089 -44.98742 9.506417 13
2.254402 -2.807862 0.6491288 28
nan nan nan 0
62.48363 -43.98625 0.439886 14
nan nan nan 0
2.732078 -2.803927 -0.02028936 31
2.290906 -2.8214 -0.04203792 17
62.48048 -43.93518 2.252435 14
55.83903 -47.60935 1.702744 11
2.74052 -2.801961 0.06636116 22
2.321453 -2.8481 0.0444088 25
nan nan nan 0
nan nan nan 0
7.74533 -5.464404 -1.311494 17
10.90309 -7.832386 -1.267622 18
15.82089 -11.27897 -1.24371 17
12.41703 -10.66753 -1.141913 10
2.717754 -2.809501 -0.292268 29
2.293059 -2.843057 -0.2951354 15
22.79858 -16.02402 -1.132241 14
18.48569 -15.72399 -1.129881 11
nan nan nan 0
2.304697 -2.828424 -0.2099836 12
46.36237 -32.83312 -0.9909476 16
24.90747 -21.34316 -0.7606177 8
2.733055 -2.814697 -0.1132201 27
2.296181 -2.833975 -0.1247278 17
2.305374 -2.824366 -0.6540514 18
2.289074 -2.845299 -0.4064505 13
2.285686 -2.835056 0.1446751 34
nan nan nan 0
2.271078 -2.848022 0.2930635 36
62.68181 -45.04799 9.472903 14
2.238467 -2.808012 0.6473356 27
nan nan nan 0
62.12578 -44.05949 0.4384461 14
4.359841 -3.756458 0 35
2.711849 -2.802662 -0.02021082 33
2.277912 -2.825482 -0.04197945 20
62.10242 -43.99413 2.244325 13
55.90385 -48.00262 1.709823 11
2.723759 -2.804335 0.06619013 25
2.305218 -2.848404 0.04428663 26
nan nan nan 0
nan nan nan 0
7.710055 -5.47994 -1.308742 16
10.83939 -7.844147 -1.26338 18
15.76926 -11.3254 -1.24275 48
12.3269 -10.66512 -1.13703 13
2.701026 -2.811776 -0.2915147 30
2.276903 -2.843255 -0.2943212 16
22.72619 -16.09196 -1.131428 16
18.41931 -15.77867 -1.129182 10
2.672894 -2.75664 -0.1991383 28
2.291675 -2.832567 -0.2096932 12
46.30853 -33.0383 -0.9922565 14
24.93499 -21.51814 -0.7637511 4
2.723213 -2.82422 -0.1132201 26
2.280021 -2.834177 -0.1243823 15
2.292409 -2.82857 -0.6531591 22
2.276033 -2.849385 -0.4058914 13
2.269543 -2.835207 0.1442738 37
44.2962 -31.7548 3.168923 10
2.254948 -2.848108 0.2922528 36
62.2468 -45.06572 9.430859 15
2.219511 -2.804223 0.6446459 32
nan nan nan 0
61.74784 -44.11623 0.4368622 12
4.342925 -3.768378 0 31
2.695124 -2.804897 -0.02015846 32
2.264916 -2.829509 -0.04192098 23
61.77761 -44.08872 2.238132 10
55.95903 -48.39036 1.71667 11
2.703547 -2.803026 0.06593358 24
2.28901 -2.84863 0.04416446 25
nan nan nan 0
nan nan nan 0
7.674766 -5.495296 -1.305989 16
10.77975 -7.858489 -1.259608 17
15.74177 -11.38915 -1.24371 73
12.25951 -10.68188 -1.13424 9
2.684315 -2.813968 -0.2907615 30
2.260773 -2.843374 -0.2935071 15
22.64955 -16.15669 -1.130411 12
18.35277 -15.83308 -1.128484 12
2.680563 -2.783945 -0.2004467 26
2.275533 -2.832757 -0.2091123 13
46.35938 -33.31936 -0.9958342 16
nan nan nan 0
2.69261 -2.812039 -0.1123458 27
2.267002 -2.838209 -0.1242096 16
2.276364 -2.82888 -0.6513745 18
2.25991 -2.849517 -0.4047732 14
2.253428 -2.83528 0.1438725 37
43.86537 -31.67839 3.145978 9
2.238846 -2.848116 0.2914422 36
61.8806 -45.13068 9.399173 13
2.206676 -2.808081 0.6437493 28
nan nan nan 0
61.39461 -44.1884 0.4354511 13
4.341043 -3.793382 0 29
2.678417 -2.80705 -0.0201061 30
2.248816 -2.82956 -0.04180405 19
61.41231 -44.1524 2.230464 10
55.98957 -48.75938 1.722821 11
2.686833 -2.805222 0.06576254 23
2.275939 -2.85269 0.04410337 27
nan nan nan 0
nan nan nan 0
7.639463 -5.510473 -1.303237 16
10.72015 -7.872512 -1.255837 21
15.67772 -11.4264 -1.24179 70
12.10967 -10.62593 -1.123777 9
2.67105 -2.8197 -0.2903849 30
2.247752 -2.847332 -0.2931 15
22.57272 -16.22108 -1.129395 13
18.28609 -15.88723 -1.127785 9
2.663931 -2.786064 -0.1999234 21
2.259418 -2.832869 -0.2085314 13
46.23064 -33.47218 -0.9955724 16
24.8782 -21.77399 -0.7666525 12
2.672451 -2.810551 -0.1119086 26
2.250882 -2.838265 -0.123864 17
2.26341 -2.832961 -0.6504822 18
2.243814 -2.849571 -0.4036551 14
2.240428 -2.839202 0.1436718 35
43.47195 -31.62579 3.125648 10
2.22583 -2.85198 0.2910368 37
61.6987 -45.32878 9.395517 15
2.196861 -2.815767 0.6437493 31
nan nan nan 0
61.27237 -44.42591 0.4356815 10
4.327775 -3.808511 0 31
2.661727 -2.80912 -0.02005374 31
2.235834 -2.833463 -0.04174558 26
nan nan nan 0
56.08961 -49.19183 1.731177 9
2.666693 -2.803712 0.06550599 22
2.259771 -2.85277 0.0439812 27
nan nan nan 0
nan nan nan 0
7.608158 -5.52838 -1.301173 17
10.66058 -7.886215 -1.252066 22
15.62969 -11.47515 -1.24115 57
12.01643 -10.61859 -1.118545 9
2.654362 -2.82174 -0.2896316 28
2.231663 -2.847307 -0.2922858 15
22.49168 -16.28221 -1.128175 14
18.17413 -15.90163 -1.124291 12
2.630134 -2.769989 -0.1980916 26
2.246423 -2.83682 -0.208241 12
nan nan nan 0
25.0533 -22.08213 -0.7744281 31
2.652335 -2.808955 -0.1114715 28
2.234791 -2.838244 -0.1235185 18
2.247404 -2.833127 -0.6486976 18
2.227745 -2.849548 -0.4025369 13
2.227429 -2.843068 0.1434712 36
43.32103 -31.74784 3.122744 7
2.209769 -2.851844 0.2902261 40
nan nan nan 0
2.187018 -2.823418 0.6437493 41
nan nan nan 0
nan nan nan 0
4.318197 -3.82691 0 35
2.645056 -2.811108 -0.02000138 32
2.222852 -2.83731 -0.04168711 22
43.42158 -31.68213 1.584741 7
56.12362 -49.56931 1.73756 11
2.650028 -2.805732 0.06533496 24
2.243629 -2.852772 0.04385903 26
nan nan nan 0
nan nan nan 0
7.57682 -5.546135 -1.299108 21
10.60504 -7.902569 -1.248766 18
15.58954 -11.52964 -1.24115 18
11.91222 -10.6008 -1.112267 7
2.637693 -2.823698 -0.2888783 31
2.218656 -2.851142 -0.2918787 16
22.41452 -16.3459 -1.127159 16
18.12226 -15.96827 -1.124524 9
2.623873 -2.782787 -0.1983533 25
2.233428 -2.840716 -0.2079506 12
46.3383 -34.04568 -1.00299 6
24.94242 -22.13959 -0.7733836 11
2.639097 -2.814549 -0.1113258 28
2.221798 -2.842086 -0.1233458 17
2.231424 -2.833216 -0.6469131 20
2.214744 -2.853377 -0.4019779 13
2.21443 -2.846878 0.1432705 35
43.02119 -31.75955 3.109093 11
2.196768 -2.855585 0.2898208 44
nan nan nan 0
2.174157 -2.827131 0.6428527 38
nan nan nan 0
61.45209 -45.21405 0.4391949 12
4.304812 -3.84196 0 33
2.628404 -2.813014 -0.01994902 32
2.209871 -2.841101 -0.04162864 21
nan nan nan 0
4.615238 -4.107383 0.1425143 35
2.629963 -2.804021 0.06507841 19
2.230586 -2.856641 0.04379795 26
nan nan nan 0
nan nan nan 0
7.541463 -5.560802 -1.296356 31
10.54951 -7.918634 -1.245466 17
nan nan nan 0
nan nan nan 0
2.621042 -2.825574 -0.288125 30
2.202609 -2.850972 -0.2910645 14
22.33719 -16.40926 -1.126143 13
4.530559 -4.022192 -0.2806651 16
2.60391 -2.78099 -0.1975682 25
2.220432 -2.844556 -0.2076601 12
46.29955 -34.2667 -1.004735 14
4.426357 -3.95869 -0.1369437 43
2.625852 -2.820085 -0.1111801 28
2.205748 -2.84192 -0.1230003 16
2.215471 -2.833228 -0.6451284 18
2.201743 -2.85715 -0.4014188 14
2.201431 -2.850632 0.1430698 40
42.68574 -31.74275 3.092829 11
2.183769 -2.859271 0.2894154 47
12.03357 -9.041696 1.843274 39
2.161296 -2.830788 0.6419561 39
nan nan nan 0
61.48671 -45.57117 0.4405771 9
4.295094 -3.860304 0 34
2.611771 -2.814838 -0.01989666 30
2.196891 -2.844836 -0.04157018 24
61.34019 -45.41292 2.250666 14
4.548743 -4.076778 0.1408895 32
2.613347 -2.805865 0.06490737 22
2.214486 -2.856498 0.04367578 28
nan nan nan 0
0.2707656 -0.204858 -0.07835092 9
7.510075 -5.578241 -1.294292 28
10.494 -7.934405 -1.242166 19
nan nan nan 0
4.483414 -4.047714 -0.4195852 38
2.604412 -2.827368 -0.2873718 29
2.189617 -2.854685 -0.2906575 16
22.26773 -16.47822 -1.125533 13
4.479247 -4.004705 -0.278336 15
2.590789 -2.786404 -0.1973065 21
2.207438 -2.848339 -0.2073697 12
46.28387 -34.50578 -1.007004 14
4.39765 -3.96074 -0.1364795 28
2.60921 -2.821891 -0.1108886 28
2.19277 -2.845639 -0.1228275 20
2.199545 -2.833163 -0.6433439 18
2.185731 -2.856917 -0.4003006 13
2.191467 -2.858299 0.1430698 44
42.41087 -31.76888 3.080921 10
2.17077 -2.8629 0.2890101 48
12.01381 -9.092626 1.845102 36
2.151402 -2.838315 0.6419561 61
nan nan nan 0
61.45948 -45.88423 0.4415275 13
4.285302 -3.878628 0 33
2.595156 -2.816581 -0.0198443 33
2.186947 -2.852487 -0.04157018 30
60.98898 -45.48336 2.243588 15
4.449113 -4.015628 0.1382203 22
2.593359 -2.803955 0.06465083 20
2.201458 -2.860244 0.04361469 32
nan nan nan 0
nan nan nan 0
7.474688 -5.592564 -1.29154 29
10.44248 -7.952902 -1.239338 18
15.35249 -11.60503 -1.231868 9
4.454492 -4.049922 -0.41819 39
2.5878 -2.829081 -0.2866185 30
2.173613 -2.854372 -0.2898433 21
22.14197 -16.5051 -1.122077 12
4.372418 -3.936798 -0.272513 15
2.574275 -2.78809 -0.1967832 20
2.191406 -2.848106 -0.2067888 13
46.2311 -34.71816 -1.008487 14
4.339355 -3.935782 -0.1350868 34
2.595965 -2.827299 -0.1107429 28
2.179794 -2.849303 -0.1226548 31
2.186645 -2.836922 -0.6424515 18
2.172746 -2.860568 -0.3997415 16
2.178457 -2.861951 0.1428692 60
60.35513 -45.53728 4.396876 13
2.166745 -2.878433 0.2898208 41
11.9662 -9.122477 1.842664 35
2.129676 -2.830067 0.6383698 234
nan nan nan 0
nan nan nan 0
4.275434 -3.89693 0 34
2.578562 -2.818241 -0.01979194 31
2.173954 -2.856121 -0.04151171 42
60.63003 -45.5459 2.236215 15
4.390668 -3.990803 0.1368276 25
2.576795 -2.805623 0.06447979 23
2.185401 -2.859957 0.04349252 42
nan nan nan 0
nan nan nan 0
7.443251 -5.609686 -1.289475 26
10.387 -7.968107 -1.236038 18
15.26424 -11.62229 -1.228028 10
4.440328 -4.065447 -0.41819 41
2.571208 -2.830712 -0.2858652 30
2.163636 -2.861942 -0.2898433 36
22.08422 -16.58229 -1.122077 15
4.303133 -3.901731 -0.2690193 16
2.551037 -2.782332 -0.1957365 21
2.160282 -2.82794 -0.2047558 16
46.24121 -34.97884 -1.011367 15
4.355124 -3.977865 -0.1360152 32
2.579349 -2.828954 -0.1104515 28
2.166818 -2.85291 -0.122482 38
2.173745 -2.840626 -0.6415592 20
2.159762 -2.864163 -0.3991825 24
2.168453 -2.869538 0.1428692 49
60.02491 -45.61782 4.384387 15
2.162638 -2.893972 0.2906315 30
11.95397 -9.179296 1.845711 40
2.143285 -2.869047 0.6455424 250
nan nan nan 0
60.24883 -45.63899 0.4351056 20
4.261805 -3.91183 0 25
2.561988 -2.81982 -0.01973958 32
2.163972 -2.863691 -0.04151171 45
60.27936 -45.61252 2.229137 14
4.373023 -4.00273 0.1367116 23
2.560252 -2.80721 0.06430876 19
2.175405 -2.867568 0.04349252 42
nan nan nan 0
nan nan nan 0
7.407838 -5.623664 -1.286723 28
10.33548 -7.986064 -1.233209 19
15.24338 -11.69068 -1.229628 10
4.40777 -4.064022 -0.4164461 39
2.554636 -2.832262 -0.285112 30
2.153633 -2.869477 -0.2898433 45
21.9744 -16.62011 -1.119434 14
4.341139 -3.96386 -0.2722801 15
2.53123 -2.780138 -0.1949514 22
2.171469 -2.863335 -0.2067888 21
46.30574 -35.28242 -1.015468 12
4.330173 -3.982895 -0.1356671 30
2.562753 -2.830527 -0.1101601 26
2.156846 -2.860456 -0.122482 41
2.160845 -2.844275 -0.640667 18
2.143808 -2.86372 -0.3980643 30
2.158424 -2.87709 0.1428692 42
59.66712 -45.67538 4.369866 14
2.161412 -2.913525 0.2918475 21
nan nan nan 0
2.142029 -2.888379 0.6482322 252
nan nan nan 0
59.93015 -45.72771 0.4339537 16
4.251797 -3.930075 0 28
2.548782 -2.825032 -0.0197134 32
2.150968 -2.867224 -0.04145324 40
59.94885 -45.69239 2.222796 9
4.322258 -3.984104 0.135551 23
2.543729 -2.808716 0.06413772 23
2.165382 -2.875144 0.04349252 40
nan nan nan 0
nan nan nan 0
7.376356 -5.640471 -1.284659 28
10.28396 -8.003758 -1.230381 21
15.15903 -11.71028 -1.226107 10
4.349683 -4.03867 -0.4122607 34
2.538085 -2.833731 -0.2843587 30
2.143604 -2.876977 -0.2898433 35
21.88843 -16.67553 -1.118011 15
4.253723 -3.911401 -0.2676218 17
2.508122 -2.774136 -0.1939047 22
2.131497 -2.830976 -0.2038845 22
46.29731 -35.5321 -1.017999 10
4.312575 -3.99459 -0.135551 30
2.546178 -2.832019 -0.1098686 27
2.140871 -2.859958 -0.1221365 33
2.147948 -2.847868 -0.6397747 24
2.136756 -2.875178 -0.3986234 19
2.14539 -2.880595 0.1426685 23
11.99819 -9.256783 0.8794333 26
2.163024 -2.937121 0.2934689 18
nan nan nan 0
2.140663 -2.907736 0.650922 255
nan nan nan 0
59.5204 -45.74469 0.4321394 8
4.260017 -3.965326 0 29
2.532236 -2.826461 -0.01966104 33
2.137966 -2.8707 -0.04139477 17
59.52734 -45.70053 2.213064 8
4.286337 -3.97877 0.1348547 25
2.527226 -2.810141 0.06396669 19
2.155332 -2.882685 0.04349252 30
nan nan nan 0
nan nan nan 0
7.344846 -5.657126 -1.282594 27
10.23245 -8.021192 -1.227553 18
11.95116 -9.300416 -0.9687881 12
4.291827 -4.012962 -0.4080753 33
2.521555 -2.835119 -0.2836054 30
2.139463 -2.892464 -0.2906575 15
nan nan nan 0
4.254706 -3.939794 -0.2685534 17
2.488421 -2.771723 -0.1931197 22
2.166338 -2.898438 -0.208241 18
12.00922 -9.288724 -0.2643167 6
4.294949 -4.006211 -0.135435 31
2.529623 -2.83343 -0.1095772 26
2.139799 -2.87946 -0.1226548 14
2.137994 -2.855349 -0.6397747 33
2.132594 -2.890625 -0.3997415 12
2.141249 -2.89611 0.1430698 15
11.96186 -9.295546 0.8791429 39
2.164498 -2.960765 0.2950902 18
nan nan nan 0
2.139189 -2.927118 0.6536118 255
nan nan nan 0
11.97267 -9.273939 0.08699808 20
4.264395 -3.997263 0 30
2.515711 -2.827808 -0.01960868 32
2.133865 -2.886195 -0.04151171 10
11.96853 -9.26078 0.445326 30
4.254158 -3.976647 0.1342744 28
2.514074 -2.815215 0.06388117 21
2.14823 -2.89421 0.04355361 16
nan nan nan 0
nan nan nan 0
7.309395 -5.670597 -1.279842 26
10.18094 -8.038363 -1.224724 20
11.89898 -9.326694 -0.9671879 44
4.255999 -4.00741 -0.4059826 35
2.505047 -2.836426 -0.2828521 30
2.13524 -2.907957 -0.2914716 9
nan nan nan 0
4.25189 -3.964837 -0.2692522 17
2.47541 -2.776664 -0.192858 22
2.141366 -2.885917 -0.2067888 13
11.90572 -9.27531 -0.2627459 45
4.280939 -4.021179 -0.135435 35
2.51309 -2.834759 -0.1092858 25
2.141576 -2.903014 -0.1233458 8
2.128013 -2.862794 -0.6397747 36
2.12835 -2.906078 -0.4008597 7
2.148827 -2.927759 0.1442738 14
nan nan nan 0
2.162912 -2.980416 0.2963063 23
nan nan nan 0
2.140487 -2.950512 0.6571981 255
nan nan nan 0
11.94811 -9.321823 0.08705567 38
4.261327 -4.022417 0 29
2.502517 -2.832824 -0.0195825 32
2.14149 -2.917836 -0.04186251 8
11.95585 -9.317857 0.4460633 21
4.251174 -4.001747 0.1346226 30
2.497601 -2.81649 0.06371014 22
2.152914 -2.921838 0.04385903 13
nan nan nan 0
nan nan nan 0
7.277844 -5.686936 -1.277778 28
10.12944 -8.055272 -1.221896 19
nan nan nan 0
4.249226 -4.029103 -0.4066802 35
2.48856 -2.837652 -0.2820989 29
2.133863 -2.927488 -0.2926929 6
11.91501 -9.279351 -0.6128736 106
4.205245 -3.948895 -0.2671559 17
2.459087 -2.777807 -0.1923346 20
nan nan nan 0
11.94408 -9.372337 -0.2643167 8
4.266876 -4.036098 -0.135435 32
2.496579 -2.836009 -0.1089943 24
2.143215 -2.926616 -0.1240368 6
2.118007 -2.870205 -0.6397747 32
2.12694 -2.925559 -0.4025369 7
2.150337 -2.951411 0.1450764 14
58.25506 -45.89859 4.312941 13
2.164122 -3.00414 0.2979276 22
57.54786 -45.78242 9.024425 13
2.141648 -2.97395 0.6607844 255
nan nan nan 0
nan nan nan 0
4.269011 -4.05793 0 31
2.486022 -2.834021 -0.01953015 29
2.140106 -2.93743 -0.04203792 8
nan nan nan 0
4.248066 -4.026876 0.1349708 32
2.484452 -2.821438 0.06362462 21
2.157431 -2.949533 0.04416446 12
nan nan nan 0
nan nan nan 0
7.246268 -5.703124 -1.275713 28
10.07794 -8.07192 -1.219067 20
13.70095 -10.89332 -1.120171 10
4.22431 -4.033581 -0.4056339 41
2.472095 -2.838798 -0.2813456 28
2.132377 -2.947045 -0.2939141 6
11.94939 -9.373279 -0.6163293 23
4.213216 -3.984133 -0.2685534 17
2.446081 -2.782622 -0.1920729 21
2.132927 -2.916931 -0.2079506 6
nan nan nan 0
4.252761 -4.050967 -0.135435 35
2.480089 -2.837177 -0.1087029 28
2.141783 -2.946218 -0.1245551 8
2.107975 -2.877581 -0.6397747 26
2.125419 -2.945066 -0.4042142 7
2.157552 -2.983215 0.1462804 16
57.90288 -45.94963 4.29871 13
2.17387 -3.040083 0.300765 18
nan nan nan 0
2.142672 -2.997432 0.6643708 255
nan nan nan 0
nan nan nan 0
4.229529 -4.048613 0 29
2.46955 -2.835138 -0.01947779 32
2.141535 -2.961105 -0.04227179 8
nan nan nan 0
4.2376 -4.045129 0.1350868 29
2.46801 -2.822563 0.06345358 22
2.16178 -2.977296 0.04446988 13
nan nan nan 0
nan nan nan 0
7.210785 -5.716086 -1.272961 25
10.02645 -8.088306 -1.216239 19
14.03684 -11.24038 -1.150896 17
4.220994 -4.05867 -0.4066802 42
2.455652 -2.839864 -0.2805924 31
2.13368 -2.970678 -0.2955424 8
nan nan nan 0
4.173957 -3.974714 -0.266923 16
2.433071 -2.78738 -0.1918113 19
2.137363 -2.944578 -0.2094027 8
nan nan nan 0
4.238595 -4.065787 -0.135435 38
2.463622 -2.838265 -0.1084115 29
2.14024 -2.965846 -0.1250733 9
2.097918 -2.884922 -0.6397747 27
2.120901 -2.960555 -0.4053323 8
2.155848 -3.002916 0.1468824 16
57.54326 -45.99255 4.283898 14
2.174759 -3.063926 0.3023864 17
56.88697 -45.90882 8.970802 9
2.143557 -3.020957 0.6679571 245
nan nan nan 0
nan nan nan 0
4.200967 -4.049476 0 27
2.4531 -2.836175 -0.01942543 32
2.145734 -2.98889 -0.04256412 10
nan nan nan 0
4.205431 -4.042583 0.1345066 32
2.454867 -2.827384 0.06336807 20
2.163044 -3.001064 0.04471422 15
nan nan nan 0
0.2596458 -0.2111958 -0.07708719 10
7.1753 -5.728871 -1.270209 26
9.974966 -8.104433 -1.21341 21
13.8227 -11.1484 -1.136494 28
4.213969 -4.080316 -0.4073778 43
2.439232 -2.84085 -0.2798391 30
2.134845 -2.994356 -0.2971708 12
nan nan nan 0
nan nan nan 0
2.41679 -2.788307 -0.1912879 21
2.13872 -2.968237 -0.2105645 9
nan nan nan 0
4.224377 -4.080558 -0.135435 38
2.450438 -2.84306 -0.1082658 26
2.14149 -2.989565 -0.1257643 12
2.087835 -2.892227 -0.6397747 14
2.12492 -2.988208 -0.4081277 12
2.1685 -3.043006 0.1484876 15
57.14906 -46.00535 4.266471 10
nan nan nan 0
56.53765 -45.95374 8.940944 14
2.144304 -3.044525 0.6715435 244
nan nan nan 0
nan nan nan 0
4.161685 -4.039745 0 26
2.436673 -2.837131 -0.01937306 32
2.155556 -3.024893 -0.04297339 9
nan nan nan 0
4.180515 -4.046811 0.1341584 32
2.438457 -2.828361 0.06319703 21
2.167072 -3.028948 0.04501965 13
nan nan nan 0
nan nan nan 0
7.139814 -5.741478 -1.267457 28
9.923493 -8.120296 -1.210582 19
13.76433 -11.18086 -1.134894 37
4.206845 -4.101964 -0.4080753 46
2.422836 -2.841755 -0.2790858 30
2.141615 -3.026223 -0.2996133 9
nan nan nan 0
4.160483 -4.017629 -0.2678547 17
2.403786 -2.79294 -0.1910262 23
2.128346 -2.975685 -0.2105645 9
46.22462 -37.30563 -1.036149 10
4.206523 -4.091794 -0.1353189 42
2.434003 -2.843999 -0.1079743 28
2.13682 -3.005175 -0.1261098 10
2.092025 -2.919513 -0.6442361 10
2.125913 -3.011861 -0.410364 10
2.157864 -3.050557 0.1484876 16
nan nan nan 0
10.99081 -15.75672 1.559357 44
56.20792 -46.01251 8.914132 11
2.147725 -3.07217 0.6760264 227
nan nan nan 0
nan nan nan 0
4.143981 -4.050754 0 25
2.42027 -2.838008 -0.01932071 31
2.150747 -3.040571 -0.04309032 9
nan nan nan 0
4.155622 -4.050915 0.1338102 34
2.422071 -2.829257 0.063026 21
2.165153 -3.048735 0.0452029 13
nan nan nan 0
nan nan nan 0
7.108178 -5.757022 -1.265392 28
9.875875 -8.139066 -1.208225 18
13.67886 -11.19094 -1.131053 43
4.203181 -4.127103 -0.4091217 48
2.409682 -2.846388 -0.2787092 33
2.153906 -3.066338 -0.30287 8
21.22763 -17.12963 -1.108254 11
4.167924 -4.053012 -0.2692522 17
2.39078 -2.797517 -0.1907646 21
2.12083 -2.98717 -0.2108549 9
nan nan nan 0
4.192214 -4.106453 -0.1353189 42
2.417592 -2.844858 -0.1076829 27
2.149321 -3.04531 -0.1274919 9
2.084667 -2.930811 -0.6451284 11
2.129611 -3.039631 -0.4131594 10
2.161527 -3.078535 0.1494909 14
56.50557 -46.14118 4.242365 9
10.94709 -15.81138 1.560979 9
55.87848 -46.06954 8.887321 12
2.145382 -3.091785 0.6787162 215
nan nan nan 0
nan nan nan 0
4.129816 -4.065194 0 31
2.40389 -2.838804 -0.01926835 31
2.16879 -3.08902 -0.04367499 9
nan nan nan 0
4.141457 -4.065396 0.1338102 36
2.408944 -2.833884 0.06294048 21
2.171746 -3.080817 0.04556941 14
nan nan nan 0
nan nan nan 0
7.07268 -5.769287 -1.26264 25
9.824414 -8.154424 -1.205396 19
13.62816 -11.2291 -1.130093 41
4.181653 -4.134739 -0.4084241 54
2.396525 -2.850964 -0.2783326 31
2.140345 -3.069745 -0.3024629 10
21.09016 -17.14062 -1.104189 12
4.153751 -4.067537 -0.2692522 21
2.374543 -2.798227 -0.1902412 20
2.133345 -3.02723 -0.2131784 8
43.36721 -35.50275 -0.9775965 7
4.192094 -4.135098 -0.1357831 45
2.397983 -2.841815 -0.1072458 30
2.161567 -3.085569 -0.1288739 10
2.094245 -2.966232 -0.6513745 11
2.152956 -3.096048 -0.4198684 10
10.96183 -15.76824 0.7697278 28
56.18609 -46.20816 4.230458 10
nan nan nan 0
55.81661 -46.34674 8.903165 13
2.145713 -3.115476 0.6823025 180
nan nan nan 0
56.39138 -46.2288 0.4197564 7
4.115601 -4.079585 0 33
2.387535 -2.839521 -0.01921599 33
2.152289 -3.08836 -0.04355806 8
nan nan nan 0
4.145021 -4.097393 0.1343905 37
2.392591 -2.834631 0.06276945 23
2.169561 -3.10068 0.04575267 12
nan nan nan 0
nan nan nan 0
7.041013 -5.784515 -1.260576 28
9.776788 -8.172712 -1.203039 19
13.5812 -11.27023 -1.129453 37
4.191944 -4.173938 -0.4108656 46
2.383366 -2.855483 -0.2779559 31
nan nan nan 0
21.06886 -17.24578 -1.106222 11
4.196447 -4.138103 -0.2729788 29
2.35833 -2.798859 -0.1897178 18
nan nan nan 0
45.82757 -37.78445 -1.036062 6
4.188276 -4.160271 -0.1361313 44
2.381633 -2.842504 -0.1069543 30
2.156477 -3.101309 -0.1292194 6
2.097967 -2.993689 -0.6558359 11
2.13087 -3.087171 -0.4176321 8
10.92941 -15.83931 0.771333 11
55.84377 -46.25437 4.216808 11
nan nan nan 0
55.91719 -46.76094 8.94521 15
2.126515 -3.110752 0.6796128 17
nan nan nan 0
56.04844 -46.27575 0.4184029 9
4.108415 -4.100989 0 36
2.371204 -2.840159 -0.01916363 31
nan nan nan 0
nan nan nan 0
4.130693 -4.111837 0.1343905 42
2.376263 -2.8353 0.06259841 20
nan nan nan 0
nan nan nan 0
nan nan nan 0
7.009326 -5.799593 -1.258511 27
9.725346 -8.187564 -1.200211 18
13.42306 -11.21841 -1.119531 42
4.166779 -4.177954 -0.4098193 27
2.367025 -2.856104 -0.2772026 31
nan nan nan 0
20.93914 -17.26203 -1.102563 15
4.196158 -4.166798 -0.2739105 38
2.342141 -2.799412 -0.1891945 20
nan nan nan 0
nan nan nan 0
4.184335 -4.185467 -0.1364795 42
2.368501 -2.846956 -0.1068086 29
10.88672 -15.81292 -0.6623358 15
2.104325 -3.025251 -0.6611897 11
5.395747 -7.89114 -1.071195 26
nan nan nan 0
55.6858 -46.45221 4.217098 16
nan nan nan 0
55.98518 -47.15084 8.98238 14
nan nan nan 0
nan nan nan 0
55.70971 -46.32409 0.4170782 9
4.132877 -4.154284 0 56
2.354897 -2.840717 -0.01911127 31
nan nan nan 0
55.73752 -46.29793 2.13668 9
nan nan nan 0
2.35996 -2.835889 0.06242738 21
nan nan nan 0
nan nan nan 0
nan nan nan 0
6.97762 -5.814521 -1.256447 27
9.673918 -8.202158 -1.197382 20
13.3189 -11.21059 -1.11409 43
10.4226 -10.52007 -1.032745 13
2.353875 -2.860497 -0.276826 29
6.643041 -9.76498 -0.9615307 16
20.84415 -17.3063 -1.100733 14
4.178055 -4.177889 -0.2736776 43
2.329166 -2.803728 -0.1889328 22
8.257712 -12.01006 -0.8457431 20
45.39392 -37.96237 -1.032223 6
4.201405 -4.231964 -0.1375239 38
2.352187 -2.847497 -0.1065172 32
11.39226 -16.672 -0.6967136 13
2.107699 -3.052841 -0.6656512 12
5.362593 -7.901701 -1.070077 26
nan nan nan 0
55.76793 -46.85178 4.235686 16
nan nan nan 0
56.0322 -47.52573 9.016503 7
nan nan nan 0
nan nan nan 0
55.60517 -46.56641 0.4175101 17
4.223804 -4.27536 0 45
2.341791 -2.845057 -0.01908509 32
nan nan nan 0
55.67525 -46.57558 2.140514 14
nan nan nan 0
2.343681 -2.836399 0.06225635 22
nan nan nan 0
nan nan nan 0
nan nan nan 0
6.945894 -5.829298 -1.254383 27
9.626294 -8.219722 -1.195025 18
13.22258 -11.20864 -1.10929 49
nan nan nan 0
2.337571 -2.860971 -0.2760727 30
6.600554 -9.775715 -0.9603095 12
20.73762 -17.3405 -1.098294 10
4.184569 -4.213705 -0.2750751 42
2.31619 -2.807988 -0.1886711 20
8.243861 -12.08005 -0.8486474 16
43.26499 -36.43969 -0.9866717 29
4.186606 -4.246604 -0.1375239 44
2.335898 -2.847958 -0.1062258 30
11.2583 -16.59999 -0.6920493 13
2.110906 -3.08049 -0.6701127 12
5.323885 -7.903882 -1.067841 23
nan nan nan 0
55.8365 -47.24281 4.253402 17
nan nan nan 0
56.09238 -47.9144 9.053063 10
nan nan nan 0
nan nan nan 0
55.68691 -46.96651 0.4193532 12
2.758746 -2.81289 0 22
2.325521 -2.845469 -0.01903273 34
nan nan nan 0
55.74932 -46.96927 2.149656 13
2.754858 -2.801218 0.09028999 18
2.327427 -2.836829 0.06208531 21
nan nan nan 0
nan nan nan 0
nan nan nan 0
6.914151 -5.843925 -1.252319 24
9.574889 -8.233809 -1.192197 22
13.13782 -11.21586 -1.105449 50
2.735347 -2.801567 -0.2710039 28
2.321292 -2.861366 -0.2753195 30
6.552529 -9.77799 -0.9582741 12
20.60435 -17.35166 -1.094432 13
4.215442 -4.274502 -0.2781031 37
2.303212 -2.812191 -0.1884094 22
8.196049 -12.10049 -0.8480665 14
43.17947 -36.62606 -0.9876316 14
2.758567 -2.818593 -0.09063815 23
2.322788 -2.852218 -0.10608 29
11.14729 -16.56041 -0.688767 10
2.119468 -3.116343 -0.6763587 12
5.299022 -7.926549 -1.0684 17
48.82005 -72.94418 3.523772 8
55.86883 -47.60577 4.268505 14
nan nan nan 0
56.14302 -48.29761 9.088406 11
nan nan nan 0
nan nan nan 0
4.344443 -3.69689 0.03262788 28
2.727969 -2.801021 0 30
2.312426 -2.849685 -0.01900655 34
7.814898 -11.66839 -0.1637666 21
55.80988 -47.35434 2.158356 12
2.724098 -2.789371 0.08959366 33
2.308044 -2.833304 0.06182877 23
nan nan nan 0
nan nan nan 0
nan nan nan 0
6.88239 -5.8584 -1.250254 27
9.52727 -8.250897 -1.18984 22
13.00776 -11.18361 -1.097768 44
2.725551 -2.811098 -0.2710039 33
2.308164 -2.865567 -0.2749428 30
6.496296 -9.767596 -0.9550174 11
20.57033 -17.44609 -1.095855 14
2.742762 -2.801641 -0.1809766 15
2.290234 -2.816339 -0.1881478 20
8.145411 -12.11659 -0.8471953 10
43.10458 -36.82201 -0.9888533 14
2.727798 -2.806707 -0.08994183 33
2.309678 -2.856421 -0.1059343 30
7.823542 -11.7078 -0.4854365 9
2.116817 -3.135967 -0.6790355 11
5.257598 -7.924289 -1.065605 17
48.44627 -72.93519 3.515144 9
55.94855 -48.01177 4.287383 13
nan nan nan 0
56.1879 -48.6785 9.123139 8
nan nan nan 0
nan nan nan 0
4.35811 -3.734781 0.03282946 20
2.714698 -2.806934 0 31
2.29933 -2.853845 -0.01898037 33
7.78795 -11.71642 -0.164059 9
55.85703 -47.73067 2.166614 12
2.714345 -2.798863 0.08959366 34
2.288714 -2.829678 0.06157221 24
nan nan nan 0
nan nan nan 0
0.2817074 -0.2450725 -0.08719698 9
6.850613 -5.872725 -1.24819 26
9.479647 -8.267751 -1.187483 18
12.88186 -11.15385 -1.090407 45
2.698417 -2.802637 -0.26926 36
2.291924 -2.865816 -0.2741896 30
6.357917 -9.632119 -0.9395483 17
20.48651 -17.49832 -1.094635 14
2.725999 -2.804039 -0.1805108 21
2.274119 -2.816543 -0.1876244 18
nan nan nan 0
43.12739 -37.10265 -0.9923438 13
2.70062 -2.798237 -0.08936156 32
2.293439 -2.856668 -0.1056429 28
7.782626 -11.73504 -0.4854365 10
3.597828 -5.377072 -1.166228 19
5.224444 -7.93429 -1.064487 18
48.07866 -72.93282 3.506917 10
56.01101 -48.40585 4.305099 15
nan nan nan 0
56.2682 -49.09291 9.163965 17
nan nan nan 0
nan nan nan 0
4.329894 -3.736918 0.03271427 26
2.701418 -2.812788 0 30
2.283111 -2.854041 -0.01892801 32
7.75526 -11.75606 -0.1642344 8
55.93633 -48.13725 2.176199 13
2.690681 -2.793925 0.08912945 34
2.272565 -2.829851 0.06140118 25
nan nan nan 0
nan nan nan 0
0.2476592 -0.2178764 -0.07582346 10
6.815069 -5.883667 -1.245438 29
9.428281 -8.281091 -1.184654 20
12.85037 -11.20531 -1.091047 45
2.678272 -2.801229 -0.2682136 35
2.27571 -2.865986 -0.2734363 29
6.326984 -9.658424 -0.9399554 12
20.44045 -17.58276 -1.095448 13
2.705782 -2.802762 -0.179812 22
2.258031 -2.816669 -0.187101 20
7.77142 -11.73606 -0.8166997 10
42.9296 -37.19405 -0.9907731 15
2.701217 -2.818468 -0.08970972 30
2.28034 -2.860746 -0.1054972 26
7.741615 -11.76214 -0.4854365 9
3.570882 -5.377296 -1.163551 26
5.185855 -7.935835 -1.06225 19
47.68978 -72.89535 3.497084 12
nan nan nan 0
nan nan nan 0
56.32019 -49.48555 9.200525 15
nan nan nan 0
nan nan nan 0
nan nan nan 0
2.681226 -2.811351 0 29
2.270027 -2.858077 -0.01890183 34
nan nan nan 0
56.02858 -48.55804 2.186374 11
2.673999 -2.796079 0.08889734 32
2.256444 -2.829946 0.06123015 25
nan nan nan 0
nan nan nan 0
0.2468971 -0.2187396 -0.07582346 10
6.783271 -5.897678 -1.243373 27
9.380669 -8.297469 -1.182297 20
12.79618 -11.23693 -1.089767 49
2.668478 -2.81056 -0.2682136 36
2.259522 -2.866078 -0.272683 32
6.333944 -9.743141 -0.9460616 8
20.34874 -17.62784 -1.093822 12
2.689066 -2.804983 -0.1793462 22
2.245078 -2.820626 -0.1868394 20
7.730407 -11.76311 -0.8166997 10
nan nan nan 0
2.684466 -2.820642 -0.08947761 30
2.264141 -2.860847 -0.1052058 28
10.70469 -16.39222 -0.675465 30
3.546681 -5.381508 -1.161767 25
5.150019 -7.941378 -1.060573 18
47.39423 -72.9985 3.494074 11
4.422099 -3.882633 0.3400979 27
nan nan nan 0
56.3887 -49.8956 9.240133 14
nan nan nan 0
nan nan nan 0
nan nan nan 0
2.664516 -2.813436 0 30
2.253848 -2.858128 -0.01884947 33
nan nan nan 0
56.04702 -48.91763 2.193747 12
2.657334 -2.79815 0.08866523 31
2.240349 -2.829963 0.06105911 24
nan nan nan 0
nan nan nan 0
0.2497981 -0.2227567 -0.07708719 10
6.751459 -5.91154 -1.241309 27
9.321901 -8.303689 -1.178526 20
12.75687 -11.28153 -1.089767 45
2.655227 -2.81623 -0.2678649 33
2.243362 -2.866092 -0.2719298 30
6.2756 -9.727491 -0.9423978 9
20.28332 -17.69548 -1.093619 13
2.668921 -2.803505 -0.1786474 21
2.22903 -2.820607 -0.186316 21
nan nan nan 0
nan nan nan 0
2.671169 -2.826364 -0.08936156 33
2.251055 -2.864802 -0.1050601 29
10.65827 -16.44626 -0.676156 26
3.530564 -5.397974 -1.162659 27
5.114208 -7.946766 -1.058896 17
47.5071 -73.73469 3.521364 11
4.404777 -3.894743 0.3398075 34
nan nan nan 0
56.45504 -50.30671 9.27974 12
nan nan nan 0
nan nan nan 0
nan nan nan 0
2.647825 -2.815438 0 30
2.237697 -2.858101 -0.01879711 34
nan nan nan 0
56.12745 -49.33401 2.203626 12
2.640688 -2.800139 0.08843312 34
2.22737 -2.833834 0.06097359 23
nan nan nan 0
nan nan nan 0
0.2526739 -0.2267966 -0.07835092 9
6.72335 -5.928524 -1.239933 26
9.255793 -8.302954 -1.173812 23
nan nan nan 0
2.638559 -2.818202 -0.2671673 36
2.230287 -2.869967 -0.2715531 32
6.228182 -9.728347 -0.9403625 8
20.23644 -17.77936 -1.094432 44
2.64882 -2.801921 -0.1779487 26
2.216091 -2.824441 -0.1860543 22
7.916441 -12.23175 -0.8454526 11
41.97238 -37.14136 -0.9775965 11
2.654442 -2.828384 -0.08912945 31
2.234897 -2.864758 -0.1047686 27
10.6089 -16.49598 -0.6766742 13
3.50635 -5.402008 -1.160874 27
5.078422 -7.952003 -1.057219 17
nan nan nan 0
4.379962 -3.900146 0.3389362 39
nan nan nan 0
56.5155 -50.71558 9.318739 14
nan nan nan 0
nan nan nan 0
nan nan nan 0
2.631152 -2.817358 0 30
2.224641 -2.861946 -0.01877093 33
6.787869 -10.60788 -0.1468111 23
56.14202 -49.69525 2.210999 11
2.624061 -2.802046 0.08820102 32
2.211317 -2.833706 0.06080256 21
nan nan nan 0
nan nan nan 0
nan nan nan 0
6.691499 -5.9421 -1.237869 29
9.219363 -8.328542 -1.172869 19
nan nan nan 0
2.62191 -2.820093 -0.2664697 34
2.214169 -2.869837 -0.2707999 28
6.183505 -9.733198 -0.9387341 9
20.18922 -17.86312 -1.095245 25
2.628762 -2.800231 -0.1772499 21
2.203151 -2.828219 -0.1857926 21
7.857522 -12.23411 -0.84371 9
nan nan nan 0
2.637733 -2.830322 -0.08889734 34
2.221825 -2.868589 -0.1046229 28
6.789316 -10.63466 -0.4348198 5
3.484812 -5.410076 -1.159982 24
5.045319 -7.961285 -1.0561 19
47.38726 -74.68893 3.551062 11
4.362602 -3.912082 0.3386458 40
nan nan nan 0
56.58115 -51.13214 9.358955 12
nan nan nan 0
nan nan nan 0
4.312516 -3.85519 0.03308864 34
2.614498 -2.819197 0 29
2.208531 -2.861774 -0.01871857 33
6.721339 -10.58507 -0.146168 7
4.57014 -4.080812 0.179605 17
2.607452 -2.803871 0.08796891 31
2.198352 -2.837454 0.06071704 20
49.83779 -78.21974 1.132699 10
nan nan nan 0
0.243819 -0.2221655 -0.07582346 11
6.663329 -5.958822 -1.236493 28
4.504905 -4.101832 -0.573235 16
4.448444 -4.022417 -0.3821385 116
2.60528 -2.821901 -0.2657722 34
2.201108 -2.873589 -0.2704232 32
6.141524 -9.742072 -0.9375128 8
nan nan nan 0
2.612156 -2.802087 -0.1767841 18
2.18716 -2.82799 -0.1852693 21
6.803946 -10.67418 -0.7342165 6
4.397964 -3.953448 -0.1025329 43
2.617647 -2.828511 -0.08854917 30
2.205709 -2.8684 -0.1043315 28
6.730774 -10.62452 -0.4334378 5
3.463259 -5.41806 -1.15909 26
5.00957 -7.966224 -1.054423 18
47.18481 -74.94689 3.555476 5
4.367458 -3.943997 0.3400979 38
nan nan nan 0
56.64091 -51.54643 9.398563 12
nan nan nan 0
nan nan nan 0
4.291595 -3.863536 0.03303105 32
2.597863 -2.820953 0 28
2.19549 -2.865495 -0.01869239 34
6.697666 -10.62962 -0.1464603 8
4.529832 -4.073371 0.1785728 38
2.590863 -2.805614 0.0877368 30
2.182342 -2.837183 0.06054601 22
49.54308 -78.35943 1.13221 13
nan nan nan 0
nan nan nan 0
6.631443 -5.972111 -1.234428 28
4.483215 -4.110811 -0.5722921 35
4.419607 -4.024495 -0.3808582 113
2.588669 -2.823628 -0.2650746 34
2.191063 -2.881254 -0.2704232 32
6.096918 -9.746546 -0.9358845 8
4.417927 -3.970125 -0.2400676 110
2.592175 -2.800198 -0.1760854 21
2.171198 -2.827684 -0.1847459 18
6.710649 -10.60925 -0.7281174 8
4.373008 -3.95872 -0.1022711 46
2.597605 -2.826594 -0.08820102 29
2.192653 -2.872108 -0.1041858 29
6.685673 -10.63525 -0.4329195 7
3.439062 -5.421803 -1.157305 25
4.976478 -7.97523 -1.053305 17
nan nan nan 0
4.364752 -3.969282 0.3409692 42
nan nan nan 0
56.72042 -51.98189 9.441827 14
nan nan nan 0
nan nan nan 0
4.374476 -3.965714 0.03377979 37
2.581249 -2.822628 0 30
2.182449 -2.86916 -0.01866621 34
6.671117 -10.6699 -0.1466942 7
4.500756 -4.075754 0.1779829 32
2.574293 -2.807276 0.08750469 31
2.169392 -2.840808 0.06046049 24
49.39678 -78.73518 1.135143 9
nan nan nan 0
nan nan nan 0
6.599544 -5.985247 -1.232364 27
4.454199 -4.112939 -0.5704065 43
4.376087 -4.012945 -0.3782979 112
2.572078 -2.825274 -0.264377 34
2.177991 -2.884904 -0.2700466 34
6.054981 -9.755063 -0.9346632 8
4.39292 -3.975476 -0.2394577 114
2.575621 -2.801878 -0.1756195 22
2.155264 -2.8273 -0.1842226 17
6.694788 -10.66644 -0.7304409 7
4.348071 -3.963867 -0.1020093 47
2.58098 -2.828263 -0.08796891 29
2.17658 -2.871775 -0.1038943 32
6.645866 -10.65428 -0.4327468 7
3.417499 -5.429609 -1.156413 24
4.943382 -7.9841 -1.052187 20
63.002 -101.641 4.801368 12
4.354555 -3.987862 0.3412597 41
nan nan nan 0
56.83768 -52.45552 9.491793 12
nan nan nan 0
nan nan nan 0
4.353216 -3.974225 0.0337222 39
2.564654 -2.824221 0 28
2.169409 -2.87277 -0.01864003 38
nan nan nan 0
4.416278 -4.027519 0.1751812 35
2.557743 -2.808856 0.08727258 30
2.159463 -2.848364 0.06046049 29
49.06351 -78.81375 1.133799 9
nan nan nan 0
0.2414791 -0.2247065 -0.07582346 9
6.571293 -6.001573 -1.230988 27
4.447112 -4.135236 -0.5713493 41
4.332702 -4.001141 -0.3757375 116
2.555508 -2.826837 -0.2636794 35
2.167907 -2.892489 -0.2700466 38
6.013059 -9.763406 -0.933442 8
4.364233 -3.977339 -0.2386446 118
2.559087 -2.803478 -0.1751537 18
2.121292 -2.802943 -0.1821291 22
6.660151 -10.69398 -0.7307313 8
4.32315 -3.968889 -0.1017475 46
2.564375 -2.82985 -0.0877368 28
2.160537 -2.871365 -0.1036029 37
10.08287 -16.2961 -0.6611265 57
3.393319 -5.433155 -1.154628 22
4.910285 -7.992837 -1.051069 20
53.03692 -86.23351 4.064548 14
4.358971 -4.019941 0.3427118 33
nan nan nan 0
56.9996 -52.97454 9.549682 11
nan nan nan 0
nan nan nan 0
4.32458 -3.975874 0.033607 43
2.548079 -2.825733 0 29
2.159368 -2.880325 -0.01864003 41
nan nan nan 0
4.380087 -4.022648 0.1742965 36
2.541214 -2.810356 0.08704048 30
2.152512 -2.85988 0.06054601 30
48.82751 -79.04835 1.134715 8
nan nan nan 0
nan nan nan 0
6.532068 -6.007723 -1.227547 28
4.414468 -4.133738 -0.5689923 43
4.300425 -3.999266 -0.3741372 119
2.538957 -2.82832 -0.2629819 34
2.154823 -2.896037 -0.26967 38
5.968556 -9.767322 -0.9318137 10
4.320851 -3.965554 -0.2370184 119
2.542572 -2.804996 -0.1746878 19
2.13847 -2.846271 -0.1844842 27
7.611344 -12.31841 -0.8402249 11
4.305596 -3.980565 -0.1016603 45
2.547791 -2.831356 -0.08750469 30
2.153489 -2.882895 -0.1037486 36
10.05467 -16.37805 -0.6630268 31
3.371745 -5.440783 -1.153736 22
4.874604 -7.997196 -1.049392 19
52.56644 -86.14089 4.051505 13
4.359554 -4.048706 0.3438736 38
nan nan nan 0
57.05349 -53.39698 9.589898 11
nan nan nan 0
nan nan nan 0
4.295988 -3.977373 0.03349181 45
2.531526 -2.827164 0 30
2.140351 -2.875808 -0.01856149 38
16.56146 -27.13224 -0.3712667 5
4.332968 -4.007402 0.1729693 34
2.524705 -2.811774 0.08680837 29
2.145506 -2.871383 0.06063152 29
nan nan nan 0
nan nan nan 0
0.243481 -0.2296446 -0.07708719 10
6.536505 -6.054028 -1.232364 17
4.407261 -4.155946 -0.5699351 44
4.268212 -3.997216 -0.372537 118
2.522428 -2.829722 -0.2622843 32
2.141741 -2.899529 -0.2692933 32
5.926681 -9.775308 -0.9305924 9
4.314327 -3.987386 -0.237425 117
2.526079 -2.806433 -0.174222 18
2.137472 -2.86573 -0.1852693 32
7.555262 -12.32362 -0.8387727 11
4.28435 -3.988764 -0.1014857 46
2.531227 -2.832781 -0.08727258 31
2.149363 -2.898426 -0.10404 31
9.974054 -16.37463 -0.661472 31
3.347586 -5.444134 -1.151951 25
4.841522 -8.005656 -1.048273 19
52.23956 -86.28114 4.049499 15
4.35999 -4.077523 0.3450353 35
nan nan nan 0
57.03651 -53.75578 9.618537 15
nan nan nan 0
nan nan nan 0
4.267437 -3.97872 0.03337662 45
2.514993 -2.828513 0 30
2.136238 -2.891307 -0.01861385 35
16.41228 -27.10007 -0.3700389 33
4.30065 -4.005489 0.172232 35
2.511547 -2.81684 0.08669231 31
2.138447 -2.882871 0.06071704 28
48.17836 -79.22923 1.132455 11
nan nan nan 0
nan nan nan 0
4.467917 -4.169566 -0.8435948 35
4.280739 -4.065144 -0.5553214 41
4.246968 -4.005251 -0.3718969 117
2.505919 -2.831043 -0.2615868 33
2.140445 -2.919055 -0.2704232 25
5.882256 -9.77885 -0.9289641 9
4.300382 -4.002421 -0.237425 123
2.512937 -2.811511 -0.1739891 21
2.136364 -2.885217 -0.1860543 32
7.517383 -12.35845 -0.8393535 11
4.263101 -3.996863 -0.1013112 49
2.518004 -2.837862 -0.08715653 31
2.142193 -2.909937 -0.1041858 26
9.898751 -16.37941 -0.6602627 26
3.326003 -5.451583 -1.151059 24
4.805886 -8.009722 -1.046596 20
nan nan nan 0
4.39301 -4.137163 0.3488109 43
nan nan nan 0
57.01411 -54.11169 9.646567 13
nan nan nan 0
nan nan nan 0
4.253522 -3.993592 0.03337662 46
2.501794 -2.833529 0 31
2.143863 -2.922945 -0.01877093 27
16.35362 -27.2172 -0.3708574 18
4.275696 -4.010231 0.1717897 37
2.495068 -2.818108 0.0864602 31
2.14022 -2.906426 0.06105911 20
47.96607 -79.50394 1.133982 15
nan nan nan 0
0.2418718 -0.2313388 -0.07708719 9
4.442501 -4.174971 -0.8415305 42
4.25212 -4.066313 -0.5534357 41
4.222097 -4.009753 -0.3709368 121
2.489433 -2.832283 -0.2608892 35
