# .PCD v0.7 - Point Cloud Data file format
VERSION 0.7
FIELDS x y z intensity
SIZE 4 4 4 4
TYPE F F F F
COUNT 1 1 1 1
WIDTH 1671
HEIGHT 1
VIEWPOINT 0 0 0 1 0 0 0
POINTS 1671
DATA ascii
-3.005693 2.412372 -0.288125 18
-2.484332 2.39131 -0.278445 9
-34.16039 18.08571 -1.571111 77
-29.18112 19.08337 -1.624131 66
-3.040839 2.417404 -0.2014934 31
-2.52195 2.403442 -0.2003993 8
nan nan nan 0
-29.80258 19.64592 -0.827813 29
-3.056475 2.443714 -0.1129286 17
-2.525193 2.419949 -0.1195452 8
-2.47746 2.356918 -0.6130059 10
-2.470558 2.383907 -0.381851 9
-2.554719 2.460277 0.1408626 11
-50.37878 27.05305 3.324885 14
-2.560205 2.492177 0.2873887 13
nan nan nan 0
-2.622014 2.553438 0.6598879 16
nan nan nan 0
-39.86683 21.32901 0.2601879 22
nan nan nan 0
-3.053427 2.45007 -0.02028936 21
-2.520584 2.427389 -0.0404593 8
-41.7789 22.3236 1.396436 16
-34.72423 22.94222 0.9653369 7
-3.084988 2.465828 0.06687427 18
-2.557581 2.453821 0.04282059 9
nan nan nan 0
nan nan nan 0
-9.248531 4.959042 -1.452552 26
-14.06489 7.696634 -1.514642 82
-23.67894 12.84662 -1.725384 10
-20.47461 13.63629 -1.717404 9
-2.985627 2.41344 -0.2869951 18
-2.49026 2.413865 -0.2800733 6
-33.93398 18.11781 -1.56359 99
-29.02258 19.12466 -1.619007 62
-3.016797 2.415514 -0.2004467 28
-2.506353 2.405307 -0.1998184 8
-34.09273 18.36329 -0.6752335 40
nan nan nan 0
-3.032362 2.441822 -0.1123458 17
-2.50596 2.418322 -0.119027 9
-2.462123 2.358734 -0.6112213 10
-2.455106 2.385579 -0.3807329 10
-2.535372 2.458729 0.1402606 11
-49.709 26.91744 3.286839 88
-2.540831 2.490616 0.2861727 14
nan nan nan 0
-2.602565 2.552226 0.6571981 13
nan nan nan 0
nan nan nan 0
nan nan nan 0
-3.029306 2.448136 -0.02018464 21
-2.504929 2.4292 -0.04034236 9
-40.73271 21.94787 1.363995 23
nan nan nan 0
-3.064683 2.467172 0.06661771 19
-2.538229 2.452296 0.04263733 9
nan nan nan 0
nan nan nan 0
-9.200663 4.974823 -1.447735 28
-14.14692 7.805768 -1.526427 46
-23.6252 12.92441 -1.724744 10
-20.41446 13.69934 -1.716358 11
-2.96559 2.414398 -0.2858652 17
-2.471137 2.412082 -0.278852 5
nan nan nan 0
nan nan nan 0
-2.996691 2.416621 -0.1996617 31
-2.48719 2.403619 -0.1989471 9
-33.90102 18.413 -0.672703 53
-29.8101 19.9508 -0.8318748 32
-3.012179 2.442942 -0.1119086 17
-2.490347 2.420079 -0.1186814 8
-2.443269 2.35705 -0.6085443 8
-2.439672 2.387173 -0.3796147 9
-2.516068 2.457076 0.1396586 12
-49.57531 27.06926 3.284225 7
-2.521498 2.48895 0.2849566 12
-96.19324 53.10759 13.48667 11
-2.583157 2.55091 0.6545083 12
nan nan nan 0
-39.37874 21.42287 0.2579705 22
nan nan nan 0
-3.009113 2.449221 -0.0201061 21
-2.485719 2.427433 -0.04016696 8
-40.76125 22.14717 1.367534 20
nan nan nan 0
-3.040525 2.465254 0.06627565 18
-2.518919 2.450665 0.04245408 8
nan nan nan 0
nan nan nan 0
-9.152796 4.99033 -1.442919 33
nan nan nan 0
-23.57994 13.0068 -1.724744 10
-20.35825 13.76493 -1.71566 9
-2.945583 2.415246 -0.2847353 17
-2.40593 2.364708 -0.2723387 5
-33.42466 18.14694 -1.545905 80
nan nan nan 0
-2.976614 2.417617 -0.1988766 30
-2.471641 2.405312 -0.1983662 8
nan nan nan 0
-29.74442 20.05752 -0.8319908 37
-2.992025 2.443951 -0.1114715 17
-2.471186 2.418255 -0.1181632 9
-2.427979 2.358697 -0.6067598 10
-2.424257 2.388689 -0.3784965 9
-2.496805 2.455317 0.1390567 11
-49.59858 27.30714 3.292067 8
-2.505737 2.490698 0.284146 12
-95.42188 53.11721 13.40441 11
-2.567271 2.552963 0.6527151 12
nan nan nan 0
-39.06699 21.43037 0.2564154 18
-32.40183 21.96466 0 27
-2.98895 2.450195 -0.02002756 21
-2.466553 2.425561 -0.03999156 8
-40.55219 22.21729 1.36311 20
-34.61461 23.39415 0.9690506 14
-3.020289 2.466361 0.0660191 18
-2.503217 2.452435 0.04233191 9
nan nan nan 0
-0.2960628 0.1662155 -0.07835092 10
-9.109274 5.007947 -1.43879 29
nan nan nan 0
-23.53003 13.0866 -1.724424 10
-20.30183 13.8303 -1.714963 9
-2.925606 2.415982 -0.2836054 17
-2.341083 2.316908 -0.2658254 6
-32.91848 18.02127 -1.525374 71
-28.87456 19.46382 -1.622035 82
-2.952703 2.41534 -0.1978299 30
-2.448991 2.399928 -0.1972045 8
-34.36687 18.97781 -0.6845706 56
-29.84789 20.27921 -0.8368652 20
-2.968043 2.441672 -0.1108886 17
-2.455622 2.41984 -0.1178177 9
-2.409197 2.35682 -0.6040829 10
-2.408862 2.390126 -0.3773784 9
-2.481131 2.456976 0.1386553 11
-50.33657 27.94275 3.347539 17
-2.486478 2.488836 0.2829299 13
-94.72087 53.16096 13.3319 10
-2.547934 2.551451 0.6500254 10
nan nan nan 0
nan nan nan 0
nan nan nan 0
-2.968816 2.451058 -0.01994902 22
-2.450977 2.427109 -0.03987463 9
-40.28189 22.2524 1.356622 17
nan nan nan 0
-3.000082 2.467357 0.06576254 19
-2.491087 2.457641 0.04227082 8
nan nan nan 0
nan nan nan 0
-9.070073 5.02772 -1.43535 31
nan nan nan 0
-23.48421 13.16866 -1.724424 10
-20.2452 13.89543 -1.714265 10
-2.90566 2.41661 -0.2824755 17
-2.280124 2.272209 -0.2597191 25
-32.75914 18.08297 -1.520902 85
nan nan nan 0
-2.932698 2.416102 -0.1970449 30
-2.429957 2.397927 -0.1963332 7
-34.02085 18.94205 -0.6789858 32
-29.93367 20.49056 -0.8412752 23
-2.947961 2.442446 -0.1104515 17
-2.436536 2.417821 -0.1172994 9
-2.393957 2.3583 -0.6022983 9
-2.393486 2.391484 -0.3762602 9
-2.461943 2.455022 0.1380534 11
-50.28229 28.14266 3.350444 11
-2.470767 2.490413 0.2821192 13
-94.01209 53.19558 13.25817 10
-2.525179 2.546337 0.6464391 9
nan nan nan 0
-37.35737 20.8334 0.2461346 24
-31.68338 21.80205 0 7
-2.948713 2.451811 -0.01987048 22
-2.431886 2.425043 -0.03969923 8
-40.05551 22.31021 1.351609 26
-34.61945 23.75117 0.9738088 15
-2.979905 2.468242 0.06550599 18
-2.47541 2.459263 0.04214865 8
nan nan nan 0
-0.2948952 0.1682783 -0.07835092 11
-9.030847 5.047281 -1.431909 38
-15.22163 8.677663 -1.655593 8
-23.43375 13.2481 -1.724104 10
-20.21299 13.97736 -1.71566 9
-2.885745 2.417127 -0.2813456 16
-2.244087 2.251865 -0.2564625 25
-32.69145 18.19478 -1.520699 80
-28.15264 19.26444 -1.588961 66
-2.912722 2.416754 -0.1962598 29
-2.407431 2.392299 -0.1951715 8
-32.42428 18.20195 -0.6483569 10
-29.97718 20.67438 -0.8445247 30
-2.92791 2.44311 -0.1100143 17
-2.421024 2.419236 -0.1169539 9
-2.378736 2.359701 -0.6005138 11
-2.37813 2.392765 -0.3751421 9
-2.446319 2.45651 0.137652 12
nan nan nan 0
-2.451583 2.488355 0.2809032 14
-93.71806 53.46194 13.24293 12
-2.505938 2.544605 0.6437493 9
nan nan nan 0
nan nan nan 0
nan nan nan 0
-2.928641 2.452453 -0.01979194 21
-2.416361 2.42642 -0.03958229 8
-39.78999 22.34468 1.345268 15
nan nan nan 0
-2.955921 2.465813 0.06516393 19
-2.456224 2.457265 0.0419654 8
nan nan nan 0
nan nan nan 0
-8.991594 5.066629 -1.428469 39
nan nan nan 0
-23.38303 13.32735 -1.723784 10
-20.14771 14.03643 -1.714265 10
-2.865862 2.417535 -0.2802157 14
-2.239712 2.263233 -0.2568696 25
-32.44038 18.20368 -1.511958 88
-27.99886 19.30306 -1.584069 64
-2.892778 2.417296 -0.1954748 31
-2.388498 2.390079 -0.1943002 8
-32.3823 18.32734 -0.6487932 20
nan nan nan 0
-2.90789 2.443664 -0.1095772 17
-2.40553 2.420572 -0.1166084 9
-2.363534 2.361025 -0.5987291 9
-2.362794 2.393967 -0.3740239 10
-2.427207 2.45436 0.1370501 11
-94.02405 53.48454 6.291666 9
-2.435924 2.489762 0.2800925 14
-48.93022 28.14225 6.925834 16
-2.490173 2.546292 0.6419561 7
nan nan nan 0
-37.66777 21.35253 0.2491583 20
nan nan nan 0
-2.908601 2.452985 -0.0197134 23
-2.397347 2.424159 -0.03940689 8
nan nan nan 0
-34.19025 23.80947 0.9663814 26
-2.935817 2.466463 0.06490737 18
-2.440598 2.458716 0.04184323 8
nan nan nan 0
-0.2852617 0.1656231 -0.07582346 10
-8.948009 5.083321 -1.42434 40
-15.28991 8.858541 -1.669735 8
-23.31906 13.39895 -1.722504 11
-20.12716 14.12673 -1.716707 8
-2.842214 2.414604 -0.2787092 13
-2.221339 2.260356 -0.2556483 26
-32.2114 18.22336 -1.504234 91
nan nan nan 0
-2.869047 2.414511 -0.1944281 29
-2.37663 2.394853 -0.1940097 8
-34.03341 19.41864 -0.6832616 31
-29.29975 20.51052 -0.8294377 29
-2.887902 2.444108 -0.1091401 17
-2.390058 2.42183 -0.1162629 9
-2.348352 2.362272 -0.5969446 9
-2.34748 2.395092 -0.3729058 9
-2.411635 2.455678 0.1366488 11
-48.6771 27.91782 3.262733 12
-2.416817 2.48751 0.2788765 13
-93.93076 54.45589 13.32641 7
-2.471005 2.544366 0.6392663 8
nan nan nan 0
nan nan nan 0
-31.49422 22.16141 0 40
-2.888592 2.453407 -0.01963487 22
-2.381876 2.425367 -0.03928996 9
-39.23367 22.39404 1.331702 8
-34.41794 24.14684 0.9752015 13
-2.915745 2.467004 0.06465083 19
-2.421488 2.456522 0.04165997 8
nan nan nan 0
nan nan nan 0
-8.908715 5.10223 -1.4209 43
-15.33628 8.957023 -1.678221 8
-23.29374 13.49277 -1.724104 10
nan nan nan 0
-2.818621 2.411537 -0.2772026 10
-2.206486 2.260951 -0.2548341 25
-31.93927 18.21691 -1.494476 74
nan nan nan 0
-2.849179 2.414821 -0.193643 30
-2.36126 2.396013 -0.1934289 9
-33.72272 19.39776 -0.678375 32
-29.57521 20.85753 -0.8393023 30
-2.867947 2.444442 -0.1087029 18
-2.378098 2.426584 -0.1160901 9
-2.33319 2.363441 -0.59516 9
-2.328726 2.392573 -0.3712285 9
-2.396084 2.456916 0.1362474 12
-48.60097 28.10005 3.264185 7
-2.401211 2.488747 0.2780658 12
-93.88577 54.86856 13.34713 11
-2.455291 2.545884 0.6374732 10
nan nan nan 0
-37.65643 21.69484 0.2500799 31
-31.14337 22.07748 0 18
-2.868617 2.45372 -0.01955632 22
-2.36294 2.422911 -0.03911455 8
-39.08162 22.48849 1.329195 15
nan nan nan 0
-2.895704 2.467434 0.06439427 18
-2.402422 2.454226 0.04147672 9
nan nan nan 0
-0.3009354 0.1771481 -0.08087836 9
-8.84795 5.108556 -1.414019 44
-15.33066 9.025647 -1.681049 9
-23.26373 13.58405 -1.725384 11
-3.3223 2.368391 -0.2825137 38
-2.79131 2.405079 -0.2753195 9
-2.188195 2.257885 -0.2536129 25
-31.79319 18.28098 -1.490614 70
nan nan nan 0
-2.829344 2.415022 -0.192858 30
-2.345911 2.397094 -0.192848 9
nan nan nan 0
-29.42072 20.90274 -0.8369812 32
-2.848024 2.444667 -0.1082658 17
-2.362654 2.427696 -0.1157446 8
-2.318049 2.364534 -0.5933754 10
-2.313466 2.393531 -0.3701104 9
-2.380553 2.458076 0.1358461 11
-48.3387 28.17403 3.253148 12
-2.382184 2.486301 0.2768498 13
-50.0482 29.4868 7.127528 9
-2.439596 2.547323 0.63568 7
nan nan nan 0
-37.99557 22.06716 0.2528445 21
-31.49337 22.49115 0 10
-2.844888 2.450658 -0.01945161 22
-2.347524 2.423951 -0.03899762 9
nan nan nan 0
-33.58072 23.91107 0.9561687 18
-2.875696 2.467755 0.06413772 19
-2.386882 2.455416 0.04135455 9
nan nan nan 0
nan nan nan 0
-8.830064 5.13941 -1.414019 41
-15.35472 9.112115 -1.687178 10
-23.22908 13.67277 -1.726344 11
-3.32617 2.388697 -0.2835601 27
-2.767842 2.401729 -0.2738129 6
-2.173402 2.258316 -0.2527987 26
-31.64273 18.34176 -1.486549 91
nan nan nan 0
-2.809542 2.415113 -0.1920729 32
-2.330583 2.398098 -0.1922671 7
-33.72461 19.71343 -0.6811674 47
nan nan nan 0
-2.828135 2.444782 -0.1078286 17
-2.347232 2.428731 -0.1153991 8
-2.302929 2.36555 -0.5915908 11
-2.294793 2.39082 -0.3684331 9
-2.365044 2.459158 0.1354448 13
-50.5685 29.71032 3.410273 17
-2.366632 2.487369 0.2760391 13
-48.16127 28.60225 6.872821 8
-2.420537 2.545114 0.6329902 9
nan nan nan 0
-38.17722 22.35119 0.2545723 11
-31.19549 22.44328 0 10
-2.824991 2.450739 -0.01937306 24
-2.332129 2.424912 -0.03888068 9
nan nan nan 0
nan nan nan 0
-2.855722 2.467966 0.06388117 20
-2.371364 2.456528 0.04123238 8
nan nan nan 0
-0.2829214 0.1695898 -0.07582346 9
-8.807796 5.167698 -1.413331 39
-15.35701 9.18609 -1.690949 9
-23.19408 13.7614 -1.727304 10
-3.309727 2.394449 -0.2828625 28
-2.744431 2.398245 -0.2723064 4
-2.155196 2.255062 -0.2515775 27
nan nan nan 0
nan nan nan 0
-2.793548 2.418365 -0.1915496 30
-2.318737 2.402621 -0.1919767 9
-33.76759 19.89701 -0.6834362 37
-3.34809 2.416091 -0.09493214 39
-2.812048 2.448072 -0.1075372 17
-2.331831 2.429688 -0.1150536 9
-2.28783 2.366489 -0.5898062 9
-2.279589 2.391611 -0.3673149 10
-2.349556 2.460162 0.1350435 12
-47.97332 28.41162 3.241821 8
-2.347685 2.48473 0.274823 13
-48.38903 28.96643 6.919741 46
-2.401523 2.542803 0.6303005 11
nan nan nan 0
nan nan nan 0
-3.343064 2.424917 0 35
-2.805128 2.450711 -0.01929453 24
-2.320202 2.429417 -0.03882222 8
-40.13573 23.65772 1.373433 21
-34.98096 25.27788 1.001081 12
-2.835781 2.468068 0.06362462 19
-2.355866 2.457561 0.04111021 8
nan nan nan 0
-0.2948798 0.1778614 -0.07961464 10
-8.768384 5.185817 -1.409891 45
-15.36748 9.265327 -1.695663 9
-23.15447 13.8474 -1.727944 10
-3.301349 2.405987 -0.2828625 35
-2.72482 2.397923 -0.2711765 4
-2.143887 2.258951 -0.2511704 7
-31.22978 18.39492 -1.473133 64
-3.325475 2.399042 -0.1893616 22
-2.773803 2.418253 -0.1907646 28
-2.30344 2.403482 -0.1913958 8
nan nan nan 0
-3.355814 2.439514 -0.09539636 20
-2.792216 2.447984 -0.1071001 17
-2.316453 2.430567 -0.1147081 13
-2.269351 2.363798 -0.5871294 10
-2.264408 2.392325 -0.3661968 9
-2.33409 2.461087 0.1346422 11
-47.94243 28.61984 3.246468 12
-2.33219 2.48563 0.2740124 14
nan nan nan 0
-2.382555 2.54039 0.6276107 11
nan nan nan 0
-35.82856 21.31378 0.2398854 24
-3.330541 2.433624 0 24
-2.789052 2.453878 -0.01924217 22
-2.311708 2.437501 -0.03882222 12
nan nan nan 0
nan nan nan 0
-2.815874 2.468061 0.06336807 20
-2.34039 2.458517 0.04098804 8
nan nan nan 0
nan nan nan 0
-8.788526 5.239196 -1.416083 44
-15.37759 9.344752 -1.700377 10
-23.11882 13.93587 -1.728904 9
-3.268799 2.399796 -0.2807698 28
-2.708974 2.400801 -0.2704232 4
-2.118932 2.248257 -0.249135 9
-31.0322 18.42477 -1.466831 81
-3.308996 2.404767 -0.1888958 24
-2.757843 2.421328 -0.1902412 30
-2.291601 2.407887 -0.1911054 8
-32.08358 19.20803 -0.6520219 13
-3.323073 2.433504 -0.09470004 25
-2.772419 2.447786 -0.1066629 18
-2.301096 2.431368 -0.1143626 9
-2.254308 2.364572 -0.5853447 10
-2.24925 2.392963 -0.3650786 9
-2.318647 2.461935 0.1342409 12
-47.91495 28.83076 3.251406 7
-2.316717 2.486452 0.2732017 13
nan nan nan 0
-2.363633 2.537876 0.624921 11
nan nan nan 0
-35.5481 21.31532 0.2385032 7
-3.309941 2.436348 0 23
-2.769247 2.453646 -0.01916363 24
-2.299763 2.44191 -0.03876375 11
nan nan nan 0
-3.296278 2.419318 0.09400371 41
-2.796002 2.467945 0.06311151 19
-2.321507 2.455755 0.04080478 8
nan nan nan 0
nan nan nan 0
-8.706488 5.231615 -1.405762 63
-15.38733 9.42436 -1.705091 8
-23.08282 14.02425 -1.729865 10
-3.244356 2.399336 -0.2793747 28
-2.696859 2.406921 -0.2700466 6
-2.158653 2.306664 -0.2548341 10
-31.04487 18.57915 -1.47049 90
-3.308645 2.422199 -0.1893616 33
-2.738157 2.421013 -0.1894561 31
-2.279759 2.412238 -0.190815 8
nan nan nan 0
-3.290415 2.427295 -0.09400371 34
-2.752658 2.44748 -0.1062258 17
-2.282346 2.428445 -0.1138444 10
-2.239288 2.365271 -0.5835602 9
-2.234115 2.393524 -0.3639605 8
-2.303225 2.462704 0.1338395 12
nan nan nan 0
-2.301267 2.487197 0.272391 14
nan nan nan 0
-2.341424 2.531644 0.6213346 9
nan nan nan 0
nan nan nan 0
-3.289364 2.438959 0 37
-2.749478 2.453306 -0.01908509 22
-2.291226 2.449923 -0.03876375 8
-38.67054 23.34334 1.331554 16
-3.299876 2.439719 0.09435188 25
-2.779901 2.471044 0.06294048 20
-2.306089 2.456543 0.04068261 9
nan nan nan 0
-0.280526 0.1735235 -0.07582346 9
-8.755973 5.302986 -1.416771 47
-15.39247 9.501535 -1.709334 10
-23.05075 14.11516 -1.731145 10
-3.215955 2.395756 -0.2776307 28
-2.677321 2.406316 -0.2689167 5
-2.197991 2.365376 -0.2605333 5
-30.77875 18.56615 -1.460936 90
-3.272022 2.412996 -0.1877312 25
-2.722235 2.423911 -0.1889328 29
-2.264505 2.41289 -0.1902341 7
-31.82482 19.35622 -0.6494913 45
-3.273895 2.432807 -0.09377161 28
-2.732933 2.447066 -0.1057886 17
-2.263645 2.425421 -0.1133261 8
-2.22429 2.365893 -0.5817755 9
-2.219003 2.394008 -0.3628423 10
-2.287827 2.463397 0.1334382 11
nan nan nan 0
-2.28584 2.487864 0.2715803 13
-47.45209 29.31324 6.843573 7
-2.322609 2.528916 0.6186448 10
nan nan nan 0
nan nan nan 0
-3.272816 2.444445 0 28
-2.729745 2.452857 -0.01900655 25
-2.265678 2.439561 -0.03847142 8
nan nan nan 0
-3.279309 2.442271 0.09400371 31
-2.760088 2.470724 0.06268393 19
-2.28729 2.45359 0.04049936 8
nan nan nan 0
-0.288218 0.1794747 -0.07835092 10
-8.745866 5.338674 -1.418147 42
-15.39726 9.57886 -1.713577 10
-23.01833 14.20602 -1.732425 11
-3.195601 2.397991 -0.2765844 27
-2.661516 2.408951 -0.2681634 5
-2.13575 2.314342 -0.25402 7
-30.61129 18.6112 -1.456058 74
-3.291655 2.445239 -0.1893616 99
-2.702609 2.423393 -0.1881478 31
-2.252672 2.417124 -0.1899437 8
nan nan nan 0
-3.253374 2.435239 -0.09342345 93
-2.713244 2.446545 -0.1053515 17
-2.248384 2.425967 -0.1129806 11
-2.209314 2.36644 -0.579991 11
-2.203916 2.394416 -0.3617242 9
-2.269072 2.460333 0.1328362 12
nan nan nan 0
-2.270436 2.488453 0.2707696 13
-47.30313 29.44986 6.83687 14
-2.303842 2.526088 0.6159551 10
nan nan nan 0
-34.55591 21.21563 0.2333196 6
-3.252272 2.446842 0 104
-2.710049 2.452301 -0.01892801 22
-2.243615 2.432732 -0.03823755 8
nan nan nan 0
-3.266764 2.450706 0.09388766 31
-2.740311 2.470297 0.06242738 19
-2.27193 2.454211 0.04037718 9
nan nan nan 0
-0.3082949 0.1929846 -0.08466953 9
-8.752494 5.384727 -1.422276 44
-15.39747 9.653693 -1.717348 9
-22.98979 14.29945 -1.734025 11
-3.171289 2.397107 -0.2751893 27
-2.642043 2.408144 -0.2670335 5
-2.117578 2.310743 -0.2527987 7
-30.51205 18.69707 -1.454431 90
-3.255096 2.435781 -0.1877312 31
-2.683021 2.422768 -0.1873627 30
-2.234067 2.413965 -0.1890724 8
-31.41244 19.40717 -0.6438192 37
-3.232875 2.437558 -0.09307528 34
-2.693593 2.445916 -0.1049143 17
-2.229768 2.422753 -0.1124623 8
-2.197702 2.370524 -0.5790987 9
-2.185507 2.391075 -0.3600469 9
-2.253733 2.460859 0.1324349 11
nan nan nan 0
-2.255057 2.488966 0.2699589 14
-47.1538 29.58579 6.830167 16
-2.291714 2.530463 0.6150585 10
nan nan nan 0
nan nan nan 0
-3.231752 2.449126 0 41
-2.69039 2.451637 -0.01884947 24
-2.224998 2.429471 -0.03806214 10
-38.7301 23.93615 1.342171 22
-3.238242 2.447036 0.09330739 43
-2.720572 2.469761 0.06217083 19
-2.256594 2.454754 0.04025502 8
nan nan nan 0
-0.2952226 0.1865133 -0.08087836 10
-8.742065 5.420462 -1.423652 49
-15.39314 9.725984 -1.720648 9
-22.92705 14.37167 -1.733065 11
-3.150993 2.399103 -0.2741429 25
-2.622607 2.407232 -0.2659036 7
-2.099456 2.307045 -0.2515775 5
-30.37434 18.75885 -1.450976 83
-3.226625 2.432106 -0.1865666 22
-2.66347 2.422035 -0.1865777 30
-2.212141 2.407026 -0.1879106 7
nan nan nan 0
-3.2124 2.439763 -0.09272712 25
-2.677665 2.448554 -0.1046229 17
-2.214568 2.423133 -0.1121168 9
-2.182761 2.370931 -0.5773141 10
-2.173814 2.395005 -0.3594878 9
-2.238419 2.461308 0.1320336 11
nan nan nan 0
-2.243028 2.493112 0.2695536 14
-46.94117 29.68126 6.814324 15
-2.279584 2.534785 0.6141619 12
nan nan nan 0
-36.07443 22.49589 0.2446371 17
-3.207281 2.448263 0 23
-2.67077 2.450867 -0.01877093 23
-2.203072 2.422405 -0.03782827 10
-38.69723 24.1029 1.343941 17
-3.217744 2.449247 0.09295923 53
-2.70087 2.469118 0.06191428 21
-2.241282 2.45522 0.04013285 9
nan nan nan 0
-0.3069401 0.1951321 -0.08466953 10
-8.78611 5.490276 -1.433974 47
-15.39269 9.801037 -1.724419 10
-22.87674 14.45161 -1.733065 10
-3.130721 2.400986 -0.2730966 25
-2.60321 2.406213 -0.2647737 6
-2.034703 2.251402 -0.2446571 10
-30.35958 18.89643 -1.453415 96
-3.202198 2.431281 -0.1856349 21
-2.643957 2.421196 -0.1857926 26
-2.186932 2.396271 -0.1864585 8
-30.82305 19.34175 -0.6344822 35
-3.19195 2.441856 -0.09237896 26
-2.658077 2.447724 -0.1041858 18
-2.202744 2.427143 -0.1119441 8
-2.167845 2.371263 -0.5755295 9
-2.15548 2.391488 -0.3578106 9
-2.222699 2.462068 0.1316323 11
-49.20378 31.03974 3.382682 13
-2.226813 2.49426 0.2687429 13
-46.76828 29.82393 6.805793 13
-2.262854 2.536563 0.6123688 9
nan nan nan 0
-33.72855 21.23015 0.2293167 13
-3.18468 2.453087 0 23
-2.649048 2.452302 -0.01869239 24
-2.185375 2.424938 -0.03771134 8
-38.6213 24.29954 1.34512 10
-3.194272 2.45525 0.09261107 26
-2.678188 2.471642 0.06165773 19
-2.222563 2.458715 0.04001068 9
nan nan nan 0
-0.2938804 0.188621 -0.08087836 11
-8.732394 5.501342 -1.428469 88
-15.38427 9.878886 -1.727719 9
-22.82696 14.54869 -1.733705 10
-3.10527 2.401337 -0.2717015 25
-2.585817 2.410293 -0.2640204 8
-2.094954 2.337969 -0.2532058 9
nan nan nan 0
-3.171728 2.430052 -0.1844704 20
-2.621947 2.422997 -0.1850076 30
-2.155984 2.383923 -0.1847159 7
-30.72311 19.48143 -0.6343076 38
-3.164579 2.444654 -0.09191474 25
-2.635537 2.450008 -0.1037486 17
-2.184188 2.430434 -0.1115986 11
-2.14881 2.375274 -0.5737449 9
-2.136745 2.394941 -0.3566924 9
-2.203994 2.46544 0.131231 13
-49.08938 31.30398 3.385296 19
-2.208444 2.497248 0.2679322 14
-46.5396 29.98755 6.792997 14
-2.244817 2.539424 0.6105756 11
nan nan nan 0
-35.3532 22.46841 0.2410374 29
-3.162528 2.457207 0 23
-2.631446 2.456548 -0.01864003 23
-2.168972 2.426225 -0.03759441 8
-36.4684 23.15021 1.273308 35
-3.172962 2.458318 0.0922629 24
-2.6577 2.471688 0.06140118 20
-2.206871 2.459392 0.03988851 8
nan nan nan 0
nan nan nan 0
-8.691903 5.537494 -1.426405 80
-15.3734 9.97833 -1.731961 11
-22.76235 14.6588 -1.734025 10
-3.082122 2.406739 -0.2706551 21
-2.563964 2.411748 -0.2628905 6
-2.133854 2.403436 -0.2593121 10
nan nan nan 0
-3.145283 2.431656 -0.1835387 20
-2.600821 2.423741 -0.1842226 30
-2.149306 2.396655 -0.1850063 9
-30.58149 19.5642 -0.6329988 43
-3.143332 2.44758 -0.09156658 26
-2.615173 2.449854 -0.1033115 17
-2.168625 2.430954 -0.1112531 7
-2.134357 2.375057 -0.5719603 10
-2.122213 2.394565 -0.3555743 9
-2.189184 2.465252 0.1308296 11
-48.18431 30.94029 3.329532 35
-2.194022 2.496675 0.2671215 13
-47.07502 30.5305 6.884399 13
-2.23079 2.538671 0.6087824 10
nan nan nan 0
nan nan nan 0
-3.139889 2.453721 0 22
-2.614074 2.453159 -0.01856149 25
-2.159297 2.428154 -0.03753594 10
-36.48756 23.28764 1.275962 28
-3.151164 2.453787 0.09179869 24
-2.644782 2.470883 0.06123015 19
-2.195064 2.456542 0.03976634 9
nan nan nan 0
-0.2759506 0.180711 -0.07582346 9
-8.674464 5.564773 -1.426405 95
-15.38124 10.04839 -1.736204 10
-22.68944 14.70728 -1.731785 11
-3.059273 2.403554 -0.26926 21
-2.549979 2.412042 -0.2621373 7
-2.130426 2.413127 -0.2597191 16
-29.80632 19.02464 -1.437153 87
-3.123127 2.427629 -0.182607 20
-2.587605 2.423259 -0.1836992 28
-2.140126 2.39817 -0.1847159 8
-30.61349 19.69024 -0.6346567 39
-3.122017 2.442393 -0.09110236 26
-2.598694 2.4455 -0.1028743 18
-2.159792 2.432127 -0.1110803 9
-2.126518 2.375479 -0.571068 9
-2.110631 2.391543 -0.3544561 10
-2.177409 2.462336 0.1304283 11
-48.40759 31.23897 3.349863 28
-2.181802 2.494134 0.2663108 13
nan nan nan 0
-2.218117 2.536698 0.6069893 11
nan nan nan 0
-33.54047 21.57232 0.2294607 20
-3.121655 2.452671 0 22
-2.599944 2.453582 -0.01850913 24
-2.149202 2.430423 -0.03747747 9
nan nan nan 0
-3.132061 2.453883 0.09145052 25
-2.626084 2.468901 0.06097359 20
-2.18028 2.456318 0.03964417 9
nan nan nan 0
-0.3041857 0.1993987 -0.08466953 8
-8.650298 5.574886 -1.42434 82
-15.40002 10.11057 -1.740918 11
-22.63929 14.74783 -1.730505 11
-3.042063 2.401224 -0.2682136 18
-2.533242 2.407955 -0.2610074 6
-2.111393 2.403327 -0.2580908 5
-29.74801 19.09722 -1.436746 81
-3.10495 2.426576 -0.1819083 23
-2.569928 2.4202 -0.1829142 30
-2.13342 2.404137 -0.1847159 8
-30.38629 19.66431 -0.631079 38
-3.102542 2.442917 -0.0907542 26
-2.580117 2.443337 -0.1024372 18
-2.145541 2.431395 -0.1107348 9
-2.111688 2.375523 -0.5692834 11
-2.095733 2.391411 -0.353338 8
-2.162221 2.462403 0.130027 11
-48.4489 31.5057 3.360318 15
-2.163298 2.490431 0.2650948 13
nan nan nan 0
-2.202812 2.536986 0.6051961 10
nan nan nan 0
-33.39783 21.64576 0.2289999 27
-3.101308 2.45425 0 23
-2.584118 2.455751 -0.01845677 24
-2.13412 2.430386 -0.03736054 8
-37.88886 24.52748 1.330522 15
-3.107774 2.452422 0.0909863 25
-2.606564 2.467736 0.06071704 21
-2.165093 2.456402 0.039522 8
nan nan nan 0
-0.2994091 0.1978579 -0.08340581 9
-8.626631 5.602352 -1.423652 50
-15.40615 10.19172 -1.745632 10
-22.56681 14.81308 -1.728904 11
-3.018039 2.399419 -0.2668185 17
-2.514022 2.406434 -0.2598775 26
-2.099722 2.406922 -0.2576837 6
nan nan nan 0
-3.080757 2.425051 -0.1809766 21
-2.554222 2.422281 -0.1823908 31
-2.121722 2.407819 -0.1844254 8
nan nan nan 0
-3.078324 2.441315 -0.09028999 26
-2.560728 2.441975 -0.1020001 18
-2.130467 2.431342 -0.1103893 9
-2.096884 2.375492 -0.5674989 10
-2.080863 2.391204 -0.3522198 9
-2.147058 2.462393 0.1296257 12
-47.83342 31.34365 3.325176 11
-2.148094 2.490408 0.2642841 15
nan nan nan 0
-2.184325 2.533467 0.6025063 10
nan nan nan 0
-33.35556 21.78407 0.2292303 20
-3.077076 2.452602 0 22
-2.564698 2.45438 -0.01837823 26
-2.122344 2.434047 -0.03730207 8
nan nan nan 0
-3.08745 2.453931 0.09063815 25
-2.590701 2.469917 0.06054601 21
-2.149932 2.456409 0.03939983 9
nan nan nan 0
nan nan nan 0
-8.569713 5.608045 -1.417459 80
-15.41191 10.27303 -1.750347 10
-22.50664 14.88626 -1.728264 11
-2.994066 2.397475 -0.2654234 14
-2.494844 2.404808 -0.2587476 25
-2.088051 2.410465 -0.2572766 12
nan nan nan 0
-3.060527 2.426487 -0.1802779 23
-2.534923 2.420831 -0.1816058 31
-2.106743 2.407686 -0.1838446 9
nan nan nan 0
-3.058062 2.442692 -0.08994183 23
-2.541378 2.440508 -0.1015629 18
-2.115419 2.431213 -0.1100438 11
-2.082105 2.375387 -0.5657142 10
-2.066019 2.390922 -0.3511017 10
-2.135186 2.46609 0.129425 12
-47.74038 31.52143 3.326338 12
-2.132918 2.49031 0.2634734 13
-80.78452 53.88295 11.91821 17
-2.169084 2.533592 0.6007131 10
nan nan nan 0
-33.41298 21.98831 0.2301518 16
-3.056795 2.453943 0 23
-2.548919 2.456375 -0.01832587 26
-2.107302 2.43387 -0.03718514 8
-35.79958 23.53161 1.262838 26
-3.063251 2.452205 0.09017393 25
-2.571249 2.468553 0.06028946 20
-2.131525 2.452562 0.03921657 9
nan nan nan 0
-0.2777184 0.1867942 -0.07708719 10
-8.587309 5.66244 -1.423652 76
-15.41729 10.35451 -1.755061 11
-22.43377 14.9509 -1.726664 13
-2.970144 2.395394 -0.2640282 11
-2.475708 2.403078 -0.2576177 25
-2.073138 2.410171 -0.2564625 9
-29.51299 19.38575 -1.43512 92
-3.040325 2.427811 -0.1795791 24
-2.519263 2.422739 -0.1810824 30
-2.09179 2.407479 -0.1832637 8
nan nan nan 0
-3.037829 2.443957 -0.08959366 23
-2.525662 2.442411 -0.1012715 18
-2.100399 2.431009 -0.1096983 8
-2.067353 2.375208 -0.5639297 8
-2.054432 2.394343 -0.3505426 10
-2.116813 2.462147 0.1288231 12
-47.50953 31.60771 3.317915 8
-2.117768 2.490136 0.2626627 13
-80.29935 53.96532 11.87434 13
-2.150688 2.529889 0.5980234 11
nan nan nan 0
nan nan nan 0
-3.032652 2.452031 0 23
-2.52957 2.454805 -0.01824733 25
-2.09554 2.437414 -0.03712667 9
-35.76722 23.68954 1.264608 19
-3.039101 2.450341 0.08970972 23
-2.555432 2.470561 0.06011842 20
-2.11643 2.452407 0.0390944 9
nan nan nan 0
-0.2932696 0.1983384 -0.08214208 10
-8.575744 5.697858 -1.425028 76
-15.42228 10.43614 -1.759775 9
-22.36488 15.01799 -1.725384 11
-2.946272 2.393176 -0.2626331 12
-2.45305 2.397757 -0.2561111 25
-2.061483 2.413598 -0.2560554 10
-29.29514 19.38941 -1.427802 75
-3.016258 2.425896 -0.1786474 21
-2.50362 2.424567 -0.180559 29
-2.076865 2.407196 -0.1826828 8
nan nan nan 0
-3.013738 2.441966 -0.08912945 25
-2.506385 2.440747 -0.1008343 18
-2.085406 2.43073 -0.1093528 12
-2.052629 2.374955 -0.5621451 10
-2.039631 2.393925 -0.3494244 10
-2.101731 2.46191 0.1284217 11
nan nan nan 0
-2.102645 2.489887 0.2618521 14
-79.70365 53.96984 11.81401 9
-2.13551 2.529852 0.5962301 10
nan nan nan 0
-33.41666 22.32657 0.2312461 54
-3.012439 2.453136 0 23
-2.513837 2.456627 -0.01819497 25
-2.08054 2.437098 -0.03700973 9
-35.79657 23.88914 1.268589 20
-3.018883 2.451487 0.08936156 26
-2.536051 2.468999 0.05986188 22
-2.101363 2.452176 0.03897223 10
nan nan nan 0
nan nan nan 0
-8.572269 5.73877 -1.427781 84
-15.4269 10.51794 -1.764489 10
-22.22139 15.03447 -1.718343 11
-2.930176 2.397132 -0.2619355 12
-2.434012 2.395807 -0.2549812 25
-2.049829 2.416973 -0.2556483 10
-29.29379 19.53589 -1.431055 82
-2.996124 2.426985 -0.1779487 19
-2.487996 2.426316 -0.1800357 31
-2.065209 2.410635 -0.1823924 9
nan nan nan 0
-2.993573 2.442995 -0.08878128 23
-2.490717 2.442478 -0.1005429 18
-2.07044 2.430376 -0.1090073 8
-2.03793 2.374628 -0.5603605 10
-2.024857 2.393432 -0.3483063 10
-2.086676 2.461599 0.1280204 12
-79.7817 53.88085 5.599272 11
-2.087551 2.489563 0.2610414 13
-79.16632 54.01002 11.76222 17
-2.12036 2.52974 0.594437 12
nan nan nan 0
nan nan nan 0
-2.988387 2.450961 0 23
-2.494561 2.454861 -0.01811644 26
-2.065567 2.436707 -0.0368928 9
nan nan nan 0
-2.994824 2.449359 0.08889734 24
-2.520281 2.470833 0.05969084 21
-2.089556 2.455683 0.03891115 8
nan nan nan 0
nan nan nan 0
-8.552185 5.768658 -1.427781 80
-15.43112 10.5999 -1.769203 10
-22.09455 15.06137 -1.712582 13
-2.910238 2.397836 -0.2608892 12
-2.411479 2.39024 -0.2534747 26
-2.034973 2.416478 -0.2548341 10
-29.14248 19.58231 -1.426989 85
-2.972147 2.424807 -0.177017 21
-2.47239 2.427985 -0.1795123 28
-2.050326 2.410214 -0.1818115 8
nan nan nan 0
-2.973438 2.443913 -0.08843312 27
-2.475067 2.44413 -0.1002515 18
-2.055503 2.429947 -0.1086618 9
-2.02326 2.374227 -0.5585759 10
-2.010112 2.392865 -0.3471881 10
-2.07165 2.461212 0.1276191 12
-79.25473 53.92876 5.575457 13
-2.075665 2.492999 0.260636 13
-78.70736 54.10051 11.722 15
-2.108377 2.53334 0.5935404 12
nan nan nan 0
-32.42818 21.9953 0.2254578 19
-2.968244 2.45183 0 24
-2.478877 2.456511 -0.01806407 25
-2.04741 2.432411 -0.0367174 8
-35.73237 24.20852 1.272276 21
-2.974676 2.450269 0.08854917 25
-2.504529 2.472587 0.05951981 20
-2.074531 2.455313 0.03878898 9
nan nan nan 0
nan nan nan 0
-8.552484 5.812383 -1.431221 80
-15.43906 10.68485 -1.774389 9
-21.95545 15.0791 -1.705861 11
-2.894171 2.401613 -0.2601916 12
-2.396067 2.391595 -0.2527214 26
-2.023335 2.419738 -0.254427 9
-29.06567 19.67832 -1.426583 97
-2.952083 2.42566 -0.1763183 20
-2.453254 2.426062 -0.1787273 28
-2.035471 2.409719 -0.1812306 8
-29.9835 20.46001 -0.6329115 30
-2.953332 2.444721 -0.08808496 24
-2.459436 2.445703 -0.09996004 19
-2.040594 2.429443 -0.1083163 10
-2.008617 2.373753 -0.5567913 10
-1.995395 2.392224 -0.34607 10
-2.056651 2.460751 0.1272178 11
-78.72839 53.97366 5.551641 11
-2.063782 2.496383 0.2602307 12
-78.34667 54.25627 11.69641 6
-2.093267 2.53309 0.5917473 11
nan nan nan 0
nan nan nan 0
-2.948132 2.452589 0 24
-2.459675 2.454548 -0.01798554 25
-2.032507 2.431859 -0.03660046 9
-35.46601 24.20915 1.265787 12
-2.954559 2.451069 0.08820102 28
-2.485252 2.470736 0.05926326 20
-2.062741 2.458704 0.03872789 10
nan nan nan 0
-0.2904717 0.2024137 -0.08214208 9
-8.483089 5.808652 -1.422964 97
-15.4711 10.78706 -1.782402 10
-21.79188 15.07901 -1.69722 11
-2.878113 2.405308 -0.2594941 8
-2.380675 2.392871 -0.2519682 8
-2.0117 2.422946 -0.25402 9
nan nan nan 0
-2.9282 2.423221 -0.1753866 24
-2.437698 2.427561 -0.1782039 30
-2.023846 2.41298 -0.1809402 9
-30.1797 20.7486 -0.6385835 40
-2.933258 2.445418 -0.0877368 25
-2.443825 2.447196 -0.09966861 18
-2.025713 2.428866 -0.1079708 8
-1.989857 2.376683 -0.5550067 10
-1.976531 2.394964 -0.3449518 9
-2.037384 2.463774 0.1268165 12
nan nan nan 0
-2.044386 2.499429 0.25942 12
nan nan nan 0
-2.076869 2.540202 0.5908507 10
nan nan nan 0
-33.10709 22.87996 0.2315629 25
-2.923764 2.458344 0 24
-2.439752 2.460289 -0.01793318 26
-2.010208 2.430893 -0.03642507 10
nan nan nan 0
-2.930188 2.456876 0.08785285 26
-2.465231 2.476624 0.05909222 22
-2.046652 2.465619 0.03866681 8
nan nan nan 0
-0.2934076 0.2066531 -0.08340581 10
-8.546241 5.917785 -1.43879 73
-15.4673 10.90519 -1.788531 8
-21.62267 15.12999 -1.690179 11
-2.861667 2.417128 -0.2591453 6
-2.364618 2.401748 -0.2515915 7
-1.992673 2.425734 -0.2532058 9
nan nan nan 0
-2.903973 2.428912 -0.1746878 18
-2.414401 2.42966 -0.1774189 29
-2.008003 2.419696 -0.1806498 8
nan nan nan 0
-2.908941 2.451086 -0.08738863 26
-2.423956 2.452845 -0.09937719 18
-2.00662 2.431719 -0.1076252 10
-1.975271 2.376037 -0.5532222 11
-1.965016 2.398 -0.3443927 9
-2.022444 2.463138 0.1264151 11
nan nan nan 0
-2.032514 2.502675 0.2590146 12
nan nan nan 0
-2.061802 2.539787 0.5890575 9
nan nan nan 0
-33.13372 23.06965 0.2323116 36
-2.903713 2.458847 0 24
-2.424137 2.461661 -0.01788082 26
-1.995378 2.430156 -0.03630813 9
-34.39578 23.92144 1.234969 8
-2.910132 2.45742 0.08750469 26
-2.446032 2.474543 0.05883567 20
-2.038033 2.472748 0.03866681 9
nan nan nan 0
-0.2767238 0.1967352 -0.07835092 10
-8.558038 5.970232 -1.444295 67
nan nan nan 0
-21.48407 15.14502 -1.683457 14
-2.849411 2.423872 -0.2587965 6
-2.352736 2.406421 -0.2512149 9
-1.990479 2.440409 -0.25402 9
-28.60154 19.87802 -1.415606 83
-2.880191 2.426171 -0.1737562 21
-2.398894 2.430961 -0.1768955 31
-1.993209 2.418975 -0.1800689 8
nan nan nan 0
-2.888929 2.451528 -0.08704048 25
-2.408381 2.454154 -0.09908576 18
-1.991799 2.430968 -0.1072797 10
-1.96384 2.379118 -0.5523299 10
-1.950794 2.396785 -0.3432746 10
-2.007963 2.462077 0.1260138 12
nan nan nan 0
-2.01796 2.501633 0.258204 12
-45.22442 32.13396 6.807012 12
-2.047206 2.538941 0.5872643 12
nan nan nan 0
nan nan nan 0
-2.884124 2.458736 0 25
-2.405477 2.458959 -0.01780228 25
-1.981002 2.429 -0.0361912 9
nan nan nan 0
-2.890537 2.45735 0.08715653 25
-2.430811 2.475503 0.05866463 22
-2.027093 2.475265 0.03860572 9
nan nan nan 0
nan nan nan 0
-8.545252 6.005759 -1.445671 38
-3.361481 2.410286 -0.3879707 22
-21.35784 15.16793 -1.677697 8
-2.837144 2.43056 -0.2584477 6
-2.340851 2.41104 -0.2508382 9
-1.956914 2.416316 -0.2507633 9
-28.50272 19.94984 -1.41398 74
-2.860697 2.426023 -0.1730574 25
-2.380339 2.428201 -0.1761105 29
-1.982022 2.421704 -0.1797785 9
-29.6008 20.88005 -0.6316025 40
-2.866002 2.447614 -0.08657626 24
-2.393685 2.454548 -0.09879433 18
-1.977856 2.429452 -0.1069342 9
-1.950129 2.377657 -0.5505453 10
-1.940137 2.399032 -0.3427155 11
-1.993942 2.460599 0.1256125 12
nan nan nan 0
-2.001197 2.495928 0.2569879 12
-44.88261 32.09195 6.769842 35
-2.033968 2.536961 0.5854712 10
nan nan nan 0
-31.90919 22.4996 0.2246514 26
-2.866283 2.456523 0 23
-2.39206 2.458077 -0.01774992 26
-1.968774 2.426058 -0.03607426 8
-35.16882 24.76064 1.267852 15
-2.873117 2.45467 0.08680837 25
-2.418203 2.473859 0.0584936 21
-2.018319 2.475977 0.03854464 9
nan nan nan 0
nan nan nan 0
-3.358068 2.379121 -0.5662957 7
-3.342194 2.411526 -0.3865565 17
nan nan nan 0
-2.803884 2.415696 -0.2560062 6
-2.330648 2.413978 -0.2504616 16
-1.947462 2.417545 -0.2503562 8
-28.05879 19.75619 -1.394669 78
-2.842928 2.423789 -0.1723587 25
-2.367006 2.427271 -0.1755871 31
-1.966241 2.415255 -0.1789072 10
nan nan nan 0
-2.848629 2.444849 -0.08622809 23
-2.380723 2.453212 -0.0985029 19
-1.969199 2.430045 -0.1067615 11
-1.938934 2.374105 -0.5487607 10
-1.931581 2.399552 -0.3421564 10
-1.981665 2.457675 0.1252112 13
nan nan nan 0
-1.98802 2.493702 0.2561772 13
-44.99024 32.35913 6.7997 16
-2.019872 2.535633 0.5836779 11
nan nan nan 0
nan nan nan 0
-2.845901 2.457215 0 22
-2.376091 2.459633 -0.01769756 27
-1.952763 2.426141 -0.03595733 10
nan nan nan 0
-2.851445 2.456901 0.0864602 27
-2.396954 2.473611 0.05823705 20
-2.000361 2.477671 0.03842247 9
nan nan nan 0
-0.2749616 0.1991906 -0.07835092 9
-3.340131 2.378717 -0.5642315 8
-3.319738 2.408596 -0.3846708 35
-3.327467 2.397579 -0.2605198 30
-2.781621 2.410945 -0.2546111 7
-2.319603 2.417688 -0.250085 14
-1.94254 2.427886 -0.2507633 7
nan nan nan 0
-2.826445 2.427688 -0.1718928 20
-2.350728 2.429162 -0.1750638 32
-1.944434 2.407233 -0.1777454 8
-29.4332 21.05556 -0.6309917 38
-2.826592 2.447444 -0.08587993 27
-2.36307 2.456369 -0.09821147 20
-1.945242 2.423688 -0.1060705 11
-1.920306 2.37656 -0.5469761 11
-1.912814 2.401849 -0.3410382 10
-1.966091 2.463763 0.1250105 12
-75.21041 54.11065 5.388708 17
-1.969649 2.495553 0.2553665 13
-44.81551 32.56694 6.797262 16
-2.001821 2.537389 0.5818848 8
nan nan nan 0
-33.51542 24.03695 0.2373224 23
-2.823837 2.459762 0 25
-2.354968 2.459138 -0.01761902 25
-1.939472 2.430386 -0.03589886 9
-35.30177 25.28983 1.280091 14
-2.826457 2.455223 0.08599599 26
-2.380079 2.476001 0.05806602 21
-1.981475 2.473611 0.03823921 9
nan nan nan 0
-0.2660467 0.1949984 -0.07582346 9
-3.315979 2.386929 -0.5621672 16
-3.299891 2.418914 -0.383728 16
-3.308055 2.407372 -0.2598798 26
-2.751453 2.407612 -0.2528672 5
-2.308608 2.42819 -0.250085 14
nan nan nan 0
nan nan nan 0
-2.808272 2.43346 -0.171427 20
-2.330166 2.428174 -0.1742787 30
-1.928106 2.407554 -0.1771646 9
nan nan nan 0
-2.805443 2.448915 -0.08553177 26
-2.342845 2.454983 -0.09777433 20
-1.945239 2.442882 -0.1065887 8
-1.908927 2.379406 -0.5460838 10
-1.901343 2.404608 -0.3404791 18
-1.954383 2.466689 0.1248099 11
-74.81495 54.22348 5.373896 14
-1.954792 2.494557 0.2545559 14
nan nan nan 0
-1.989925 2.540484 0.5809882 10
nan nan nan 0
nan nan nan 0
-2.803953 2.459718 0 23
-2.339482 2.460093 -0.01756666 26
-1.930976 2.437141 -0.03589886 8
-34.94983 25.22283 1.270506 14
-2.806578 2.455206 0.08564782 25
-2.364522 2.477058 0.05789498 21
-1.95109 2.453086 0.03781162 9
nan nan nan 0
-0.2693063 0.1987303 -0.07708719 10
-3.287561 2.38398 -0.5587267 14
-3.271387 2.41566 -0.381371 14
-3.28352 2.407125 -0.2585995 70
-2.728057 2.404018 -0.2514721 6
-2.296697 2.432606 -0.2497084 17
-1.895311 2.408109 -0.2470995 23
nan nan nan 0
-2.788466 2.433402 -0.1707283 22
-2.31479 2.42906 -0.1737554 31
-1.891792 2.379058 -0.1745507 6
-3.30482 2.407883 -0.07068224 25
-2.78561 2.448798 -0.08518361 24
-2.327389 2.455887 -0.0974829 28
-1.918147 2.426106 -0.1055522 6
-1.894492 2.378349 -0.5442992 20
-1.886816 2.403403 -0.339361 10
-1.948843 2.477428 0.1250105 12
-74.31075 54.25474 5.351242 9
-1.94302 2.497427 0.2541505 14
-44.95456 33.14995 6.853323 15
-1.975019 2.539638 0.5791951 13
nan nan nan 0
nan nan nan 0
-2.784103 2.459565 0 23
-2.320587 2.457333 -0.01748812 27
-1.916289 2.435997 -0.03578192 7
-34.84541 25.33291 1.269916 11
-2.786733 2.455081 0.08529966 26
-2.348986 2.478037 0.05772395 20
-1.948699 2.467739 0.03793379 9
nan nan nan 0
nan nan nan 0
-3.26721 2.386693 -0.5566625 9
-3.246944 2.415201 -0.3794853 14
-3.246973 2.39786 -0.2563592 24
-2.700988 2.396981 -0.2497282 5
-2.281376 2.433329 -0.2489551 17
-1.889955 2.418643 -0.2475066 4
-3.335286 2.429272 -0.1662788 119
-2.772449 2.43653 -0.1702624 19
-2.299437 2.429868 -0.173232 29
-1.911252 2.420956 -0.1771646 11
-3.312531 2.431214 -0.07103129 17
-2.769556 2.451883 -0.08495151 24
-2.308533 2.453072 -0.09704576 20
-1.906588 2.42885 -0.1053795 3
-1.883133 2.381083 -0.5434069 10
-1.875368 2.40605 -0.3388019 8
-1.930978 2.472388 0.1244086 12
-73.81126 54.28609 5.328878 15
-1.925172 2.492345 0.2529345 13
-44.37242 32.96048 6.782029 14
-1.960144 2.538719 0.5774019 9
nan nan nan 0
-3.303156 2.428002 0.02338379 18
-2.768026 2.462625 0 23
-2.305159 2.458121 -0.01743576 27
nan nan nan 0
nan nan nan 0
-2.766924 2.454847 0.08495151 26
-2.333472 2.478938 0.05755292 21
-1.924683 2.454828 0.03762836 8
nan nan nan 0
-0.2679123 0.2006056 -0.07708719 10
-3.24688 2.389294 -0.5545982 9
-3.222544 2.414602 -0.3775997 14
-3.234576 2.406206 -0.2560392 11
-2.674001 2.389785 -0.2479842 6
-2.269473 2.437627 -0.2485785 19
nan nan nan 0
-3.31469 2.43205 -0.165669 150
-2.756443 2.439577 -0.1697966 19
-2.284106 2.430599 -0.1727086 32
-1.896644 2.419745 -0.1765837 15
-3.300001 2.439796 -0.07094403 42
-2.749782 2.451562 -0.08460334 25
-2.293135 2.453808 -0.09675433 28
nan nan nan 0
-1.868747 2.379892 -0.5416223 7
-1.86089 2.404711 -0.3376838 8
-1.922336 2.479113 0.1244086 5
nan nan nan 0
-1.925537 2.51093 0.2541505 8
-44.34452 33.18056 6.795434 15
-1.945299 2.537727 0.5756087 12
nan nan nan 0
-3.278571 2.427638 0.0232686 12
-2.748236 2.462268 0 24
-2.289754 2.458831 -0.0173834 27
-1.896179 2.445359 -0.03572346 15
-3.278447 2.424952 0.1191468 24
-2.75088 2.457834 0.0847194 26
-2.317981 2.47976 0.05738188 19
nan nan nan 0
nan nan nan 0
nan nan nan 0
-3.22259 2.388838 -0.5518458 10
-3.198188 2.413861 -0.375714 13
-3.206171 2.402548 -0.2544389 13
-2.647098 2.38243 -0.2462403 7
-2.254186 2.438209 -0.2478252 22
nan nan nan 0
-3.28205 2.425822 -0.1644493 119
-2.736719 2.43922 -0.1690978 21
-2.265394 2.4276 -0.1719236 33
-1.894304 2.43424 -0.1771646 14
-3.26337 2.430436 -0.07033319 17
-2.733766 2.45447 -0.08437123 25
-2.27776 2.454467 -0.09646291 18
nan nan nan 0
-1.857411 2.382516 -0.5407301 10
-1.849465 2.407247 -0.3371247 9
nan nan nan 0
-3.280899 2.455018 0.2361226 36
nan nan nan 0
-44.16897 33.29036 6.786294 15
-1.933457 2.540582 0.5747121 10
nan nan nan 0
-3.270077 2.439067 0.0232686 48
-2.728483 2.461803 0 22
-2.274372 2.459463 -0.01733104 28
nan nan nan 0
-3.277985 2.442342 0.1194417 16
-2.73113 2.457396 0.08437123 26
-2.299113 2.476839 0.05712533 23
nan nan nan 0
nan nan nan 0
nan nan nan 0
-3.198343 2.388242 -0.5490935 8
-3.173877 2.41298 -0.3738284 14
nan nan nan 0
-2.616582 2.371569 -0.2441476 7
-2.238922 2.438713 -0.2470719 20
-3.966362 5.197359 -0.5308366 6
-3.253506 2.422374 -0.163433 170
-2.717032 2.438755 -0.1683991 22
-2.250122 2.428164 -0.1714002 31
nan nan nan 0
-3.246861 2.435823 -0.07015867 98
-2.714053 2.453946 -0.08402307 26
-2.262409 2.455049 -0.09617148 20
nan nan nan 0
-1.843074 2.381193 -0.5389455 10
-1.835039 2.405776 -0.3360065 9
nan nan nan 0
-3.28029 2.472453 0.2367035 23
nan nan nan 0
-44.08017 33.46533 6.790559 12
-1.91866 2.539456 0.572919 10
nan nan nan 0
-3.245537 2.438476 0.02315341 16
-2.712468 2.464592 0 22
-2.259013 2.460018 -0.01727868 27
nan nan nan 0
-3.265439 2.450775 0.1192943 23
-2.715124 2.460206 0.08413912 25
-2.28368 2.477494 0.05695429 23
nan nan nan 0
nan nan nan 0
nan nan nan 0
-3.174139 2.387506 -0.5463412 9
-3.153566 2.414981 -0.3724141 13
nan nan nan 0
-2.608288 2.380688 -0.2441476 8
-2.223682 2.43914 -0.2463187 20
-3.909118 5.159502 -0.5255445 7
-3.24103 2.430724 -0.1632297 131
-2.697382 2.438183 -0.1677003 18
-2.234874 2.428652 -0.1708769 32
nan nan nan 0
-3.222368 2.435107 -0.06980962 28
-2.698075 2.456678 -0.08379097 24
-2.247082 2.455553 -0.09588005 26
nan nan nan 0
-1.83176 2.383706 -0.5380532 10
-1.823637 2.4082 -0.3354475 11
nan nan nan 0
-3.26368 2.477863 0.2361226 33
nan nan nan 0
nan nan nan 0
-1.903895 2.538257 0.5711257 12
nan nan nan 0
-3.225032 2.440754 0.02306702 105
-2.692777 2.463925 0 24
-2.243678 2.460496 -0.01722632 25
nan nan nan 0
-3.224937 2.438091 0.1181146 16
-2.695437 2.459566 0.08379097 26
-2.264897 2.474383 0.05669774 23
nan nan nan 0
nan nan nan 0
nan nan nan 0
-3.149979 2.38663 -0.5435888 9
-3.133281 2.416869 -0.3709999 15
nan nan nan 0
-2.596288 2.386405 -0.2437989 9
-2.208466 2.439491 -0.2455654 21
nan nan nan 0
-3.220554 2.433005 -0.1626199 121
-2.681464 2.440864 -0.1672345 20
-2.219651 2.429063 -0.1703535 32
nan nan nan 0
-3.201902 2.437273 -0.06954783 16
-2.678426 2.455952 -0.08344281 26
-2.231778 2.455981 -0.09558862 18
nan nan nan 0
-1.817474 2.382252 -0.5362686 11
-1.809263 2.406597 -0.3343293 10
-1.677606 2.226011 0.1103624 3
-3.243104 2.480159 0.2352513 18
nan nan nan 0
-3.24446 2.505269 0.4984456 21
-1.889162 2.536986 0.5693326 9
nan nan nan 0
-3.204551 2.44292 0.02298062 22
-2.673124 2.46315 0 21
-2.228368 2.460896 -0.01717396 28
nan nan nan 0
-3.220387 2.452356 0.1182621 49
-2.67947 2.4622 0.08355886 24
-2.249525 2.474871 0.05652671 25
nan nan nan 0
nan nan nan 0
-0.2876033 0.2226501 -0.08466953 9
-3.125865 2.385615 -0.5408365 10
-3.109087 2.415596 -0.3691143 13
nan nan nan 0
-2.58428 2.392066 -0.2434501 8
-2.193275 2.439765 -0.2448121 18
nan nan nan 0
-3.200102 2.435173 -0.16201 119
-2.661877 2.440089 -0.1665357 24
-2.204452 2.429397 -0.1698302 34
nan nan nan 0
-3.181461 2.439326 -0.06928605 17
-2.662488 2.458508 -0.0832107 24
-2.216499 2.456331 -0.09529719 18
nan nan nan 0
-1.806183 2.384655 -0.5353763 10
-1.797887 2.408911 -0.3337702 10
nan nan nan 0
-3.22651 2.485383 0.2346705 31
-1.689286 2.283357 0.2278032 4
-3.243538 2.522662 0.4996643 24
-1.874461 2.535644 0.5675394 9
nan nan nan 0
-3.184095 2.444972 0.02289423 11
-2.653509 2.462269 0 22
-2.213082 2.461221 -0.0171216 28
nan nan nan 0
-3.199898 2.454473 0.1178197 43
-2.663518 2.464751 0.08332675 24
-2.234177 2.475283 0.05635568 24
nan nan nan 0
nan nan nan 0
nan nan nan 0
-3.105727 2.387473 -0.5387722 10
-3.092788 2.420309 -0.3681715 14
-3.100645 2.409238 -0.2493181 8
-2.572264 2.397673 -0.2431013 8
-2.17811 2.439964 -0.2440589 19
nan nan nan 0
-3.179674 2.437227 -0.1614002 114
-2.642328 2.439209 -0.165837 21
-2.189277 2.429655 -0.1693068 31
nan nan nan 0
-3.157083 2.438215 -0.068937 16
-2.642903 2.457581 -0.08286253 25
-2.201245 2.456605 -0.09500576 18
nan nan nan 0
-1.791949 2.383071 -0.5335917 10
-1.786517 2.411174 -0.3332111 9
-1.667967 2.245701 0.1107637 2
-3.209918 2.490521 0.2340896 49
-1.648945 2.244991 0.2233444 3
-3.203427 2.509526 0.4947895 35
-1.862695 2.538201 0.5666428 18
nan nan nan 0
-3.159704 2.443858 0.02277904 10
-2.633933 2.461281 0 23
-2.197821 2.461468 -0.01706924 28
nan nan nan 0
-3.187351 2.462578 0.1176722 11
-2.643922 2.463816 0.08297858 23
-2.215519 2.471893 0.05609913 24
nan nan nan 0
nan nan nan 0
-0.2744865 0.215872 -0.08087836 9
-3.085614 2.38922 -0.5367079 10
-3.068667 2.418785 -0.3662858 14
-3.056813 2.392417 -0.2464377 7
-2.556602 2.399814 -0.2424037 9
-2.16297 2.440086 -0.2433056 18
nan nan nan 0
-3.159271 2.439169 -0.1607904 120
-2.622817 2.438222 -0.1651382 20
-2.174128 2.429836 -0.1687835 30
nan nan nan 0
-3.136702 2.440028 -0.06867521 16
-2.623357 2.456547 -0.08251437 26
-2.186016 2.456803 -0.09471433 18
nan nan nan 0
-1.780683 2.385364 -0.5326994 10
-1.775153 2.413387 -0.332652 10
-1.64829 2.235402 0.1099611 3
-3.193331 2.495574 0.2335087 17
-1.655738 2.270897 0.2253711 3
-3.194648 2.520693 0.4947895 16
-1.845156 2.532744 0.5639531 12
nan nan nan 0
-3.139308 2.445671 0.02269264 11
-2.614396 2.460186 0 22
-2.182585 2.461639 -0.01701688 27
nan nan nan 0
-3.170839 2.467561 0.1173773 10
-2.624365 2.462775 0.08263043 24
-2.200233 2.472139 0.05592809 23
nan nan nan 0
nan nan nan 0
nan nan nan 0
-3.065527 2.390856 -0.5346437 9
-3.048497 2.420213 -0.3648716 15
-3.028829 2.387655 -0.2448374 9
-2.544583 2.405299 -0.242055 13
-2.147855 2.440132 -0.2425523 19
nan nan nan 0
-3.138893 2.440998 -0.1601806 116
-2.603346 2.437128 -0.1644395 22
-2.159004 2.429942 -0.1682601 31
nan nan nan 0
-3.116347 2.441729 -0.06841343 16
-2.603851 2.455406 -0.08216621 24
-2.170813 2.456924 -0.09442291 18
nan nan nan 0
-1.769424 2.387607 -0.5318071 10
-1.763795 2.415551 -0.332093 9
nan nan nan 0
-3.172822 2.49746 0.2326374 16
-1.644887 2.27262 0.2249658 3
-3.174161 2.522581 0.4929615 14
-1.833429 2.535178 0.5630565 13
nan nan nan 0
-3.115001 2.44429 0.02257745 11
-2.598531 2.462422 0 22
-2.167376 2.461733 -0.01696452 26
nan nan nan 0
-3.158268 2.475537 0.1172299 11
-2.604847 2.461626 0.08228226 25
-2.184973 2.472309 0.05575706 24
nan nan nan 0
nan nan nan 0
nan nan nan 0
-3.045466 2.392381 -0.5325794 10
-3.028355 2.421529 -0.3634574 15
-3.024389 2.40131 -0.2451575 7
-2.528943 2.407292 -0.2413574 18
-2.132767 2.440103 -0.2417991 19
nan nan nan 0
-3.118542 2.442715 -0.1595707 115
-2.587551 2.439353 -0.1639737 21
-2.143906 2.429971 -0.1677367 33
nan nan nan 0
-3.09209 2.440226 -0.06806438 16
-2.584384 2.45416 -0.08181804 24
-2.158929 2.460728 -0.09427719 25
nan nan nan 0
-1.755262 2.385833 -0.5300226 11
-1.752444 2.417665 -0.3315339 9
-1.591641 2.19019 0.1071519 3
-3.152337 2.499233 0.2317661 16
-1.631145 2.270242 0.2241551 4
-3.149823 2.521261 0.4905241 12
-1.818846 2.53356 0.5612633 10
nan nan nan 0
-3.094668 2.445864 0.02249106 11
-2.579062 2.461128 0 24
-2.152192 2.461751 -0.01691216 28
nan nan nan 0
-3.149608 2.486546 0.1172299 11
-2.58537 2.460372 0.0819341 25
-2.169739 2.472402 0.05558603 23
nan nan nan 0
nan nan nan 0
nan nan nan 0
-3.021544 2.390727 -0.5298271 11
-3.008241 2.422734 -0.3620431 14
-2.996482 2.396298 -0.2435572 6
-2.516922 2.412655 -0.2410086 18
-2.12097 2.443765 -0.2414224 20
nan nan nan 0
-3.098216 2.444319 -0.1589609 114
-2.568148 2.43806 -0.1632749 20
-2.128834 2.429925 -0.1672134 30
nan nan nan 0
-3.0718 2.441689 -0.06780259 15
-2.568573 2.45626 -0.08158594 24
-2.143764 2.460708 -0.09398576 19
nan nan nan 0
-1.741134 2.383989 -0.5282379 10
-1.738205 2.41569 -0.3304157 8
nan nan nan 0
-3.127975 2.497784 0.2306044 16
-1.620325 2.271859 0.2237497 3
-3.125532 2.519802 0.4880867 10
-1.804296 2.531872 0.5594701 11
nan nan nan 0
-3.070447 2.444218 0.02237587 11
-2.563241 2.46319 0 24
-2.137034 2.461694 -0.0168598 28
nan nan nan 0
-3.109579 2.472684 0.1160502 9
-2.565934 2.459011 0.08158594 26
-2.157813 2.476191 0.05550051 23
nan nan nan 0
nan nan nan 0
-0.260014 0.2107423 -0.07708719 10
-3.001548 2.392017 -0.5277628 10
-2.984285 2.420697 -0.3601575 13
-2.976428 2.397369 -0.2425971 8
-2.501304 2.414502 -0.240311 25
-2.105922 2.443596 -0.2406691 22
nan nan nan 0
-3.074002 2.442709 -0.1581478 116
-2.552397 2.44011 -0.1628091 22
-2.113789 2.429804 -0.16669 30
nan nan nan 0
-3.04763 2.439921 -0.06745355 17
