# .PCD v0.7 - Point Cloud Data file format
VERSION 0.7
FIELDS x y z intensity
SIZE 4 4 4 4
TYPE F F F F
COUNT 1 1 1 1
WIDTH 1669
HEIGHT 1
VIEWPOINT 0 0 0 1 0 0 0
POINTS 1669
DATA ascii
-2.040594 2.429443 -0.1083163 10
-2.011788 2.377514 -0.5576836 10
-1.998571 2.396045 -0.346629 10
-2.053454 2.456912 0.1270171 11
-78.75721 53.99342 5.553674 11
-2.060614 2.492536 0.2598253 12
nan nan nan 0
-2.099521 2.540684 0.5935404 11
nan nan nan 0
nan nan nan 0
-2.948132 2.452589 0 21
-2.463212 2.458081 -0.01801172 24
-2.032507 2.431859 -0.03660046 8
-35.42472 24.18098 1.264313 14
-2.958407 2.454259 0.08831707 25
-2.488796 2.474262 0.05934877 21
-2.062741 2.458704 0.03872789 9
nan nan nan 0
nan nan nan 0
-8.483089 5.808652 -1.422964 86
-15.47518 10.7899 -1.782874 9
-21.82471 15.10172 -1.69978 12
-2.881941 2.408504 -0.2598428 8
-2.387704 2.399944 -0.2527214 7
-2.0117 2.422946 -0.25402 9
nan nan nan 0
-2.935899 2.429585 -0.1758524 18
-2.437698 2.427561 -0.1782039 28
-2.027047 2.416809 -0.1812306 9
-30.1591 20.73444 -0.6381472 39
-2.933258 2.445418 -0.0877368 25
-2.443825 2.447196 -0.09966861 18
-2.025713 2.428866 -0.1079708 9
-1.99716 2.376978 -0.5558991 10
-1.98387 2.395343 -0.3455109 10
-2.038498 2.456365 0.1266158 12
nan nan nan 0
-2.048745 2.495856 0.25942 12
-78.30333 54.63163 11.71835 6
-2.087526 2.544189 0.5926439 10
nan nan nan 0
nan nan nan 0
-2.92805 2.453237 0 21
-2.447567 2.459573 -0.01795936 25
-2.014448 2.427381 -0.03642507 10
nan nan nan 0
-2.934472 2.451758 0.08785285 23
-2.469549 2.472318 0.05909222 19
-2.047759 2.458196 0.03860572 8
nan nan nan 0
nan nan nan 0
-8.581023 5.91972 -1.442919 59
-15.44965 10.85244 -1.784288 9
-21.66952 15.10649 -1.691779 11
-2.865882 2.412129 -0.2591453 7
-2.372308 2.401166 -0.2519682 7
-2.000067 2.426103 -0.2536129 9
-28.22757 19.39983 -1.392026 69
-2.912047 2.427036 -0.1749208 18
-2.422162 2.42898 -0.1776806 28
-2.015411 2.420029 -0.1809402 8
nan nan nan 0
-2.913215 2.446005 -0.08738863 24
-2.428233 2.448611 -0.09937719 18
-2.010861 2.428214 -0.1076252 10
-1.979415 2.372586 -0.5532222 10
-1.969199 2.394567 -0.3443927 8
-2.02357 2.455743 0.1262145 11
nan nan nan 0
-2.033737 2.495255 0.2586093 11
nan nan nan 0
-2.072432 2.543823 0.5908507 11
nan nan nan 0
-33.20681 23.03459 0.232542 26
-2.908 2.453775 0 23
-2.431942 2.460985 -0.017907 25
-1.999617 2.42667 -0.03630813 9
nan nan nan 0
-2.914417 2.452337 0.08750469 25
-2.450347 2.47027 0.05883567 21
-2.035985 2.461472 0.03854464 9
nan nan nan 0
nan nan nan 0
-8.600989 5.97788 -1.4498 48
nan nan nan 0
-21.49822 15.0989 -1.682497 13
-2.846025 2.412448 -0.2580989 6
-2.360422 2.405872 -0.2515915 8
-1.982137 2.421484 -0.2523916 9
-28.66905 19.85081 -1.417232 82
-2.888248 2.42435 -0.1739891 19
-2.410156 2.43387 -0.1774189 30
-2.006951 2.42705 -0.1809402 8
nan nan nan 0
-2.893203 2.446482 -0.08704048 23
-2.412661 2.449946 -0.09908576 18
-1.996039 2.427488 -0.1072797 10
-1.964857 2.371893 -0.5514376 10
-1.957692 2.397572 -0.3438337 11
-2.011829 2.45892 0.1260138 14
nan nan nan 0
-2.018759 2.494581 0.2577986 12
-45.28699 32.07148 6.80884 10
-2.054279 2.539552 0.5881609 9
nan nan nan 0
nan nan nan 0
-2.887983 2.454203 0 23
-2.412836 2.458748 -0.01782846 24
-1.984815 2.425885 -0.0361912 10
nan nan nan 0
-2.894393 2.452806 0.08715653 25
-2.434697 2.471682 0.05866463 20
-2.021047 2.460826 0.03842247 9
nan nan nan 0
nan nan nan 0
-8.527311 5.970966 -1.440854 41
nan nan nan 0
-21.35984 15.11334 -1.675776 9
-2.822407 2.409421 -0.2567038 5
-2.345055 2.40695 -0.2508382 10
-1.976809 2.432261 -0.2527987 9
-28.52992 19.90219 -1.413776 70
-2.864504 2.421527 -0.1730574 19
-2.391149 2.431583 -0.1766338 27
-1.985824 2.418587 -0.1797785 9
-29.62129 20.82491 -0.6313407 37
-2.873224 2.446849 -0.08669231 25
-2.39711 2.451203 -0.09879433 18
-1.981246 2.426687 -0.1069342 9
-1.950328 2.371127 -0.549653 10
-1.943067 2.39666 -0.3427155 10
-1.996946 2.458161 0.1256125 11
nan nan nan 0
-2.00381 2.493831 0.2569879 13
-44.98487 32.09392 6.7802 31
-2.039255 2.539026 0.5863677 10
nan nan nan 0
-31.84312 22.41977 0.2240755 17
-2.867997 2.454521 0 23
-2.397264 2.45999 -0.0177761 25
-1.970044 2.425026 -0.03607426 9
nan nan nan 0
-2.874402 2.453166 0.08680837 24
-2.419066 2.473015 0.0584936 19
-2.006139 2.460106 0.0383003 10
nan nan nan 0
nan nan nan 0
nan nan nan 0
-3.337049 2.401636 -0.3856136 20
nan nan nan 0
-2.798844 2.406259 -0.2553087 6
-2.333175 2.411536 -0.2504616 15
-1.952693 2.419728 -0.2507633 8
-28.08419 19.73744 -1.395075 83
-2.84462 2.421804 -0.1723587 18
-2.372186 2.429192 -0.1758488 29
-1.964779 2.410007 -0.1786168 8
-29.50762 20.89929 -0.6304681 53
-2.853278 2.447106 -0.08634415 23
-2.378099 2.448794 -0.09835719 19
-1.969623 2.429701 -0.1067615 10
-1.938934 2.374105 -0.5487607 10
-1.928472 2.395676 -0.3415973 10
-1.985224 2.461223 0.1254119 13
nan nan nan 0
-1.98889 2.493008 0.2561772 12
-44.98945 32.33473 6.797872 16
-2.021199 2.534575 0.5836779 12
nan nan nan 0
-31.38943 22.26471 0.2214261 17
-2.848045 2.45473 0 23
-2.381712 2.461153 -0.01772374 27
-1.955303 2.424094 -0.03595733 9
nan nan nan 0
-2.854444 2.453415 0.0864602 26
-2.403456 2.474268 0.05832257 21
-1.9944 2.463202 0.03823921 9
nan nan nan 0
nan nan nan 0
-3.368814 2.398201 -0.569048 10
-3.324613 2.410353 -0.3851423 34
-3.324668 2.392928 -0.2601998 32
-2.775338 2.402962 -0.2539136 7
-2.32129 2.416068 -0.250085 14
-1.944235 2.426529 -0.2507633 7
nan nan nan 0
-2.824769 2.421972 -0.1716599 18
-2.349796 2.423112 -0.1748021 30
-1.943819 2.40131 -0.177455 9
-29.43856 21.00507 -0.6305555 42
-2.833365 2.447255 -0.08599599 24
-2.362602 2.449881 -0.09806576 18
-1.954877 2.428766 -0.106416 11
-1.924451 2.373205 -0.5469761 10
-1.913908 2.394619 -0.3404791 10
-1.973504 2.464232 0.1252112 13
-75.31692 53.98803 5.389579 16
-1.970914 2.4882 0.2549612 12
-44.85621 32.47703 6.794825 16
-2.006246 2.533891 0.5818848 9
nan nan nan 0
-33.54512 23.96971 0.2372361 24
-2.828126 2.45483 0 22
-2.366181 2.462238 -0.01767138 26
-1.953066 2.438721 -0.03607426 10
nan nan nan 0
-2.834519 2.453556 0.08611204 25
-2.387866 2.475443 0.05815153 19
-1.973285 2.454542 0.03799487 9
nan nan nan 0
nan nan nan 0
-3.32014 2.381138 -0.5621672 14
-3.312155 2.419013 -0.3846708 17
-3.308208 2.398671 -0.2595597 29
-2.75189 2.39953 -0.2525184 5
-2.312843 2.424156 -0.250085 13
nan nan nan 0
nan nan nan 0
-2.808733 2.425293 -0.1711941 17
-2.327477 2.416906 -0.1737554 29
-1.919824 2.388601 -0.1760028 9
nan nan nan 0
-2.813486 2.447294 -0.08564782 23
-2.343671 2.447279 -0.09762862 18
-1.943274 2.431665 -0.1062432 8
-1.913077 2.376071 -0.5460838 11
-1.899374 2.39349 -0.339361 16
-1.961788 2.46719 0.1250105 13
-74.91756 54.09866 5.374476 15
-1.956069 2.487219 0.2541505 14
nan nan nan 0
-1.994356 2.537007 0.5809882 10
nan nan nan 0
nan nan nan 0
-2.808241 2.45482 0 23
-2.350672 2.463244 -0.01761902 26
-1.941437 2.441605 -0.03601579 9
-34.9938 25.16179 1.270506 14
-2.814629 2.453587 0.08576388 25
-2.368842 2.472928 0.05789498 22
-1.977155 2.477066 0.03823921 9
nan nan nan 0
-0.2735994 0.2010575 -0.07835092 10
-3.291717 2.378238 -0.5587267 15
-3.279612 2.412891 -0.3818423 14
-3.287715 2.40139 -0.2585995 95
-2.732249 2.399253 -0.2514721 5
-2.30094 2.428594 -0.2497084 17
-1.89643 2.400881 -0.2466925 20
-3.319556 2.391374 -0.1648559 106
-2.788939 2.425256 -0.1704953 19
-2.312128 2.417795 -0.173232 29
-1.905262 2.387473 -0.175422 6
nan nan nan 0
-2.793641 2.447224 -0.08529966 22
-2.32823 2.448198 -0.09733719 24
-1.922378 2.422754 -0.1055522 7
-1.89864 2.375038 -0.5442992 19
-1.884872 2.392289 -0.3382428 11
-1.950075 2.470096 0.1248099 12
-74.52238 54.2101 5.359664 8
-1.935136 2.478297 0.2525291 13
-45.10033 33.13607 6.866728 16
-1.979449 2.536187 0.5791951 11
nan nan nan 0
nan nan nan 0
-2.788392 2.454702 0 22
-2.331747 2.460542 -0.01754048 27
nan nan nan 0
-34.8167 25.21929 1.267262 11
-2.791014 2.450213 0.08529966 26
-2.353307 2.473934 0.05772395 20
-1.949904 2.460411 0.0378727 9
nan nan nan 0
nan nan nan 0
-3.287403 2.392623 -0.5594149 9
-3.255157 2.412489 -0.3799567 14
-3.263222 2.401044 -0.2573194 27
-2.708905 2.395566 -0.2500769 6
-2.28562 2.429344 -0.2489551 17
-1.924855 2.45461 -0.2515775 5
-3.315236 2.405875 -0.1650591 118
-2.772938 2.428399 -0.1700295 19
-2.296801 2.418606 -0.1727086 29
-1.912381 2.413698 -0.1768741 10
-3.32081 2.428375 -0.07111855 17
-2.777582 2.450351 -0.08506756 22
-2.309381 2.445403 -0.09690005 19
nan nan nan 0
-1.887286 2.377793 -0.5434069 10
-1.873456 2.394935 -0.3376838 8
-1.926065 2.457201 0.1238066 12
-73.8898 54.14539 5.327717 16
-1.929519 2.488981 0.2529345 13
-44.38998 32.85346 6.775935 8
-1.967578 2.539187 0.5782984 10
nan nan nan 0
-3.315464 2.42813 0.02344139 18
-2.77232 2.45779 0 22
-2.316295 2.46138 -0.01748812 26
nan nan nan 0
nan nan nan 0
-2.774951 2.453323 0.08506756 24
-2.337795 2.474861 0.05755292 21
-1.935134 2.459333 0.03775053 8
nan nan nan 0
-0.268262 0.2001377 -0.07708719 10
-3.255044 2.386546 -0.5552863 9
-3.230746 2.411946 -0.3780711 14
-3.210682 2.379796 -0.2537988 11
-2.685621 2.391745 -0.2486818 6
-2.273725 2.433662 -0.2485785 17
nan nan nan 0
-3.314892 2.423318 -0.1654657 145
-2.753201 2.428159 -0.1693307 17
-2.281497 2.41934 -0.1721853 29
-1.897785 2.412502 -0.1762933 15
-3.304255 2.434033 -0.07094403 40
-2.757796 2.450077 -0.0847194 23
-2.293997 2.446154 -0.09660862 27
-1.871629 2.39276 -0.1036519 32
-1.872898 2.376627 -0.5416223 9
-1.862044 2.39753 -0.3371247 9
-1.914415 2.459962 0.1236059 6
nan nan nan 0
-1.917787 2.491747 0.2525291 10
-44.39838 33.10015 6.794825 15
-1.952717 2.538232 0.5765053 11
nan nan nan 0
-3.28683 2.424874 0.0232974 12
-2.75253 2.457468 0 21
-2.297454 2.458485 -0.01740958 28
-1.869807 2.402535 -0.03513879 11
-3.274619 2.413307 0.1188519 23
-2.755165 2.453029 0.0847194 26
-2.322305 2.475711 0.05738188 20
nan nan nan 0
nan nan nan 0
nan nan nan 0
-3.23473 2.389084 -0.5532221 9
-3.202396 2.408276 -0.375714 13
-3.218364 2.402908 -0.255079 11
-2.654967 2.381135 -0.2465891 8
-2.258438 2.43427 -0.2478252 19
nan nan nan 0
-3.270172 2.408263 -0.1636362 121
-2.737236 2.431125 -0.1688649 18
-2.266216 2.419996 -0.1716619 29
-1.907746 2.442748 -0.1780359 15
-3.267607 2.424736 -0.07033319 17
-2.741772 2.453027 -0.08448729 24
-2.278636 2.446829 -0.09631719 18
nan nan nan 0
-1.861566 2.379271 -0.5407301 8
-1.850637 2.400075 -0.3365656 9
nan nan nan 0
-3.281173 2.44631 0.2358322 36
nan nan nan 0
-44.25082 33.23109 6.78995 14
-1.937888 2.537204 0.5747121 11
nan nan nan 0
-3.274329 2.433356 0.0232686 47
-2.736495 2.460379 0 20
-2.28206 2.459157 -0.01735722 26
nan nan nan 0
-3.282243 2.436617 0.1194417 17
-2.739139 2.455961 0.08448729 23
-2.306838 2.476483 0.05721085 19
nan nan nan 0
nan nan nan 0
-0.290302 0.2191198 -0.08466953 10
-3.210461 2.388558 -0.5504697 8
-3.178083 2.407437 -0.3738284 13
nan nan nan 0
-2.631826 2.377022 -0.245194 7
-2.239799 2.431132 -0.2466953 21
nan nan nan 0
-3.261746 2.419663 -0.1636362 160
-2.71756 2.430682 -0.1681662 17
-2.250959 2.420576 -0.1711386 30
nan nan nan 0
-3.251107 2.430152 -0.07015867 86
-2.722047 2.45255 -0.08413912 23
-2.263299 2.447425 -0.09602576 21
nan nan nan 0
-1.847227 2.377973 -0.5389455 10
-1.839235 2.402569 -0.3360065 10
nan nan nan 0
-3.264623 2.451763 0.2352513 23
nan nan nan 0
-44.10685 33.3644 6.785685 13
-1.923089 2.536103 0.572919 9
nan nan nan 0
-3.249788 2.432807 0.02315341 15
-2.716766 2.459854 0 22
-2.263303 2.456071 -0.01727868 27
nan nan nan 0
-3.273718 2.448059 0.1194417 18
-2.719414 2.455463 0.08413912 22
-2.291394 2.477177 0.05703982 21
nan nan nan 0
nan nan nan 0
nan nan nan 0
-3.186235 2.387892 -0.5477173 9
-3.153816 2.406459 -0.3719428 14
nan nan nan 0
-2.593981 2.35936 -0.2424037 9
-2.224572 2.431575 -0.245942 20
nan nan nan 0
-3.241261 2.422079 -0.1630264 131
-2.69792 2.430131 -0.1674674 18
-2.235724 2.421078 -0.1706152 29
nan nan nan 0
-3.226613 2.429479 -0.06980962 30
-2.702359 2.451966 -0.08379097 24
-2.251364 2.451628 -0.09588005 27
nan nan nan 0
-1.835917 2.380506 -0.5380532 11
-1.824838 2.401052 -0.3348884 11
nan nan nan 0
-3.279955 2.481181 0.2369939 28
nan nan nan 0
nan nan nan 0
-1.908322 2.53493 0.5711257 10
nan nan nan 0
-3.229287 2.435122 0.02306702 102
-2.697074 2.459221 0 21
-2.247969 2.456576 -0.01722632 28
nan nan nan 0
-3.233183 2.43546 0.1182621 13
-2.703426 2.458219 0.08390702 24
-2.272593 2.474109 0.05678326 21
nan nan nan 0
nan nan nan 0
nan nan nan 0
-3.162054 2.387086 -0.544965 9
-3.133544 2.408368 -0.3705285 14
nan nan nan 0
-2.596769 2.378503 -0.2434501 9
-2.20937 2.43194 -0.2451887 21
nan nan nan 0
-3.224796 2.427381 -0.1626199 113
-2.678318 2.429472 -0.1667687 18
-2.223887 2.425185 -0.1703535 29
nan nan nan 0
-3.206151 2.431681 -0.06954783 16
-2.682708 2.451274 -0.08344281 23
-2.236061 2.452082 -0.09558862 18
nan nan nan 0
-1.821628 2.379076 -0.5362686 10
-1.813461 2.403436 -0.3343293 11
-1.726578 2.282937 0.1133723 2
-3.247427 2.474495 0.2352513 21
nan nan nan 0
-3.229141 2.484497 0.4953989 19
-1.890649 2.52974 0.568436 9
nan nan nan 0
-3.20881 2.437323 0.02298062 29
-2.681104 2.461861 0 20
-2.229299 2.453301 -0.01714778 27
nan nan nan 0
-3.224662 2.446731 0.1182621 44
-2.683764 2.45752 0.08355886 23
-2.257208 2.474637 0.05661223 23
nan nan nan 0
nan nan nan 0
nan nan nan 0
-3.137917 2.38614 -0.5422126 9
-3.113298 2.410166 -0.3691143 13
nan nan nan 0
-2.584783 2.384172 -0.2431013 9
-2.194193 2.43223 -0.2444355 19
nan nan nan 0
-3.204347 2.429584 -0.16201 112
-2.658752 2.428707 -0.1660699 17
-2.208688 2.425546 -0.1698302 28
nan nan nan 0
-3.181736 2.430739 -0.06919879 16
-2.663095 2.450475 -0.08309464 22
-2.220783 2.452459 -0.09529719 18
nan nan nan 0
-1.810343 2.381499 -0.5353763 10
-1.802089 2.405769 -0.3337702 9
-1.715606 2.284948 0.1131717 2
-3.250662 2.494917 0.2361226 27
-1.672529 2.252355 0.2249658 3
-3.208669 2.486649 0.4935708 22
-1.878884 2.532368 0.5675394 12
nan nan nan 0
-3.188357 2.439411 0.02289423 11
-2.661475 2.461027 0 21
-2.214026 2.45364 -0.01709542 28
nan nan nan 0
-3.208152 2.451914 0.1179672 46
-2.667816 2.460099 0.08332675 24
-2.241848 2.475087 0.0564412 21
nan nan nan 0
nan nan nan 0
nan nan nan 0
-3.113825 2.385055 -0.5394603 9
-3.093078 2.411851 -0.3677 14
-3.100895 2.400774 -0.2489981 8
-2.572788 2.389788 -0.2427525 8
-2.17904 2.432443 -0.2436822 18
nan nan nan 0
-3.187898 2.434701 -0.1616035 113
-2.639225 2.427835 -0.1653712 18
-2.196861 2.429535 -0.1695685 29
nan nan nan 0
-3.161333 2.432701 -0.068937 16
-2.64352 2.449569 -0.08274648 23
-2.208869 2.456478 -0.09515147 17
nan nan nan 0
-1.799062 2.383872 -0.534484 10
-1.787765 2.404059 -0.332652 9
-1.659972 2.226741 0.1099611 3
-3.222167 2.491011 0.2346705 56
-1.661708 2.254162 0.2245604 3
-3.188222 2.488688 0.4917428 33
-1.864212 2.53098 0.5657462 17
nan nan nan 0
-3.167929 2.441386 0.02280784 10
-2.641886 2.460085 0 22
-2.198779 2.453902 -0.01704306 28
nan nan nan 0
-3.183716 2.450925 0.1173773 12
-2.648218 2.459198 0.08297858 23
-2.226512 2.47546 0.05627016 23
nan nan nan 0
nan nan nan 0
nan nan nan 0
-3.093704 2.386851 -0.537396 9
-3.072884 2.413426 -0.3662858 14
-3.088557 2.40852 -0.248678 7
-2.564431 2.398754 -0.2427525 8
-2.167225 2.436307 -0.2433056 18
nan nan nan 0
-3.167488 2.436692 -0.1609937 119
-2.619737 2.426856 -0.1646724 18
-2.181699 2.429755 -0.1690451 30
nan nan nan 0
-3.137 2.431493 -0.06858795 16
-2.623984 2.448556 -0.08239832 23
-2.193627 2.456713 -0.09486004 19
nan nan nan 0
-1.784844 2.382252 -0.5326994 10
-1.773475 2.40228 -0.3315339 9
-1.669973 2.256653 0.1111651 3
-3.201624 2.493059 0.2337992 16
-1.653829 2.259949 0.2245604 3
-3.206852 2.521238 0.4960082 16
-1.849574 2.52952 0.5639531 12
nan nan nan 0
-3.143572 2.440188 0.02269264 10
-2.622335 2.459037 0 22
-2.183557 2.454088 -0.0169907 26
nan nan nan 0
-3.159325 2.449795 0.1167875 11
-2.628659 2.45819 0.08263043 22
-2.207873 2.472025 0.05601361 21
nan nan nan 0
nan nan nan 0
nan nan nan 0
-3.07361 2.388535 -0.5353318 9
-3.052716 2.414888 -0.3648716 15
-3.03692 2.385442 -0.2451575 8
-2.55241 2.404273 -0.2424037 11
-2.152111 2.43638 -0.2425523 18
nan nan nan 0
-3.139196 2.432462 -0.1599773 114
-2.603942 2.429176 -0.1642066 17
-2.169884 2.433627 -0.1687835 25
nan nan nan 0
-3.112714 2.430144 -0.06823891 15
-2.608132 2.450858 -0.08216621 22
-2.178411 2.456873 -0.09456862 18
nan nan nan 0
-1.770659 2.380563 -0.5309148 10
-1.762149 2.404443 -0.3309748 9
-1.632586 2.222147 0.1091585 3
-3.177176 2.491919 0.2326374 15
-1.64593 2.265708 0.2245604 3
-3.190243 2.526265 0.4947895 14
-1.837851 2.531974 0.5630565 13
nan nan nan 0
-3.123205 2.441923 0.02260625 10
-2.602824 2.457883 0 21
-2.16836 2.454198 -0.01693834 27
nan nan nan 0
-3.131039 2.445455 0.1160502 10
-2.60914 2.457076 0.08228226 23
-2.1926 2.472234 0.05584257 21
nan nan nan 0
nan nan nan 0
-0.2618432 0.2084652 -0.07708719 10
-3.053541 2.390109 -0.5332675 10
-3.028679 2.413143 -0.362986 14
-3.028575 2.396028 -0.2451575 8
-2.540381 2.409736 -0.242055 17
-2.140307 2.440127 -0.2421757 18
nan nan nan 0
-3.114915 2.431132 -0.1591642 110
-2.588162 2.431415 -0.1637407 18
-2.154759 2.433706 -0.1682601 29
nan nan nan 0
-3.092411 2.431741 -0.06797712 16
-2.588664 2.449646 -0.08181804 22
-2.163221 2.456956 -0.09427719 25
nan nan nan 0
-1.759423 2.382766 -0.5300226 11
-1.747914 2.402533 -0.3298567 8
-1.618948 2.219748 0.1087572 3
-3.156695 2.493727 0.2317661 16
-1.632198 2.263343 0.2237497 4
-3.161986 2.521939 0.4917428 12
-1.823265 2.530382 0.5612633 11
nan nan nan 0
-3.098933 2.440459 0.02249106 10
-2.583354 2.456623 0 24
-2.156485 2.457992 -0.01691216 26
nan nan nan 0
-3.102821 2.440946 0.1153129 11
-2.58966 2.455856 0.0819341 24
-2.177352 2.472365 0.05567154 21
nan nan nan 0
nan nan nan 0
nan nan nan 0
-3.033499 2.391572 -0.5312033 10
-3.004692 2.411259 -0.3611003 14
-2.996753 2.38796 -0.2432372 6
-2.524737 2.411703 -0.2413574 18
-2.125232 2.44006 -0.2414224 20
nan nan nan 0
-3.08675 2.42658 -0.1581478 115
-2.568769 2.430143 -0.163042 20
-2.139662 2.433709 -0.1677367 28
nan nan nan 0
-3.06821 2.430127 -0.06762807 16
-2.572856 2.451774 -0.08158594 26
-2.148056 2.456963 -0.09398576 18
nan nan nan 0
-1.745292 2.380947 -0.5282379 11
-1.733714 2.400553 -0.3287385 10
-1.614111 2.229438 0.1089578 3
-3.13624 2.495423 0.2308948 15
-1.624287 2.269027 0.2237497 4
-3.137671 2.520549 0.4893054 11
-1.811566 2.532725 0.5603667 11
nan nan nan 0
-3.074708 2.438855 0.02237587 12
-2.567537 2.458713 0 22
-2.141328 2.457961 -0.0168598 26
nan nan nan 0
-3.094282 2.451762 0.1153129 10
-2.573838 2.45798 0.08170199 23
-2.162131 2.47242 0.05550051 22
nan nan nan 0
nan nan nan 0
nan nan nan 0
-3.013484 2.392924 -0.529139 10
-2.98463 2.412361 -0.3596861 13
-2.972816 2.385935 -0.241957 8
-2.50911 2.413588 -0.2406598 22
-2.110183 2.439917 -0.2406691 19
nan nan nan 0
-3.066497 2.428054 -0.157538 113
-2.553035 2.432209 -0.1625762 18
-2.121308 2.429873 -0.1669517 29
nan nan nan 0
-3.047971 2.431486 -0.06736629 15
-2.553457 2.450362 -0.08123778 22
-2.129644 2.453118 -0.09354862 24
nan nan nan 0
-1.734083 2.383041 -0.5273457 11
-1.719549 2.398502 -0.3276203 8
-1.615042 2.247247 0.1095598 3
-3.111913 2.493891 0.2297331 15
-1.607722 2.262478 0.2225337 4
-3.117267 2.522137 0.4874774 11
-1.799874 2.535017 0.5594701 14
nan nan nan 0
-3.054444 2.440227 0.02228948 11
-2.551737 2.460722 0 23
-2.126196 2.457854 -0.01680744 27
nan nan nan 0
-3.077883 2.456325 0.115018 11
-2.554428 2.45656 0.08135383 24
-2.146935 2.4724 0.05532947 21
nan nan nan 0
nan nan nan 0
-0.2558405 0.2082087 -0.07582346 9
-2.989624 2.391077 -0.5263866 11
-2.960733 2.410216 -0.3578004 14
-2.945045 2.380641 -0.2403568 6
-2.493502 2.415395 -0.2399622 26
-2.098408 2.443484 -0.2402925 20
nan nan nan 0
-3.046272 2.429415 -0.1569282 116
-2.53371 2.430738 -0.1618774 18
-2.106276 2.429714 -0.1664283 28
nan nan nan 0
-3.027761 2.432733 -0.0671045 15
-2.537695 2.452317 -0.08100567 23
-2.114546 2.452962 -0.09325718 18
-2.893603 4.042821 -0.1705074 20
-1.72288 2.385087 -0.5264534 10
-1.708293 2.400437 -0.3270613 9
nan nan nan 0
-3.087635 2.492219 0.2285714 15
-1.608407 2.280312 0.2237497 3
-3.093039 2.520483 0.48504 12
-1.785362 2.533232 0.557677 10
nan nan nan 0
-3.030308 2.438359 0.02217429 11
-2.535954 2.462651 0 24
-2.111092 2.457671 -0.01675508 27
-2.87943 4.043859 -0.05759019 18
-3.065391 2.463928 0.1148705 11
-2.538652 2.458511 0.08112172 25
-2.13503 2.476091 0.05524396 23
nan nan nan 0
nan nan nan 0
-0.2627019 0.2151011 -0.07835092 9
-2.969676 2.392195 -0.5243224 11
-2.940741 2.411083 -0.3563862 14
-2.917348 2.375182 -0.2387565 7
-2.474339 2.413641 -0.2389159 26
-2.0834 2.443202 -0.2395392 20
nan nan nan 0
-3.026075 2.430665 -0.1563183 111
-2.518022 2.432631 -0.1614116 20
-2.091271 2.42948 -0.165905 31
-2.945554 4.121791 -0.2924668 19
-3.007579 2.433869 -0.06684271 15
-2.518367 2.450708 -0.0806575 24
-2.096227 2.448932 -0.09282004 22
-2.870804 4.040668 -0.1699892 20
-1.711685 2.387083 -0.525561 10
-1.702763 2.410449 -0.3276203 9
-2.785514 3.940637 0.1922313 22
-3.063406 2.490409 0.2274096 16
-1.583338 2.261382 0.2213177 4
-3.068861 2.518692 0.4826026 12
-1.770884 2.531378 0.5558838 12
nan nan nan 0
-3.010111 2.439495 0.02208789 11
-2.516613 2.461007 0 22
-2.099258 2.46122 -0.0167289 28
-2.853772 4.037542 -0.05735632 19
-3.06066 2.477752 0.115018 10
-2.522894 2.460382 0.08088961 25
-2.119875 2.475931 0.05507293 21
nan nan nan 0
nan nan nan 0
-0.2581651 0.2130033 -0.07708719 10
-2.945906 2.390088 -0.52157 11
-2.920779 2.411841 -0.354972 15
-2.893587 2.372717 -0.2374763 9
-2.458778 2.415277 -0.2382183 27
-2.06842 2.442846 -0.238786 21
nan nan nan 0
-3.005906 2.431803 -0.1557085 113
-2.49877 2.430964 -0.1607128 18
-2.076294 2.42917 -0.1653816 30
-2.942684 4.148345 -0.2936285 19
-2.987426 2.434894 -0.06658092 16
-2.502653 2.45249 -0.0804254 25
-2.081197 2.448615 -0.09252862 24
-2.84518 4.034317 -0.1692981 19
-1.69765 2.385016 -0.5237765 10
-1.694338 2.416378 -0.3276203 9
-2.771742 3.950336 0.1922313 24
-3.039228 2.488459 0.2262479 15
-1.569764 2.258699 0.220507 3
-3.048562 2.519918 0.4807746 9
-1.759239 2.533498 0.5549872 11
nan nan nan 0
-2.989943 2.440519 0.0220015 10
-2.500878 2.462764 0 23
-2.084196 2.460898 -0.01667655 28
-2.83106 4.035192 -0.05718092 18
-3.032603 2.472657 0.1142807 10
-2.503585 2.458672 0.08054145 25
-2.104747 2.475694 0.05490189 22
-2.850202 4.046162 0.05998547 18
nan nan nan 0
nan nan nan 0
-2.926027 2.390972 -0.5195057 10
-2.904679 2.415667 -0.3540291 14
-2.869879 2.370116 -0.2361961 8
-2.439689 2.413327 -0.237172 29
-2.056674 2.446233 -0.2384093 21
nan nan nan 0
-2.985767 2.432831 -0.1550987 111
-2.48313 2.432685 -0.160247 18
-2.061344 2.428785 -0.1648583 29
-2.951141 4.191267 -0.295952 19
-2.963434 2.432642 -0.06623188 16
-2.483398 2.450683 -0.08007723 23
-2.069415 2.452043 -0.0923829 19
-2.822496 4.031932 -0.1687799 19
-1.686483 2.386905 -0.5228841 11
-1.685893 2.422277 -0.3276203 8
-2.783591 3.996914 0.1940372 24
-3.022812 2.492713 0.225667 15
-2.701665 3.923818 0.3842658 21
-3.024474 2.517864 0.4783372 10
-1.744817 2.531513 0.553194 11
nan nan nan 0
-2.965939 2.438263 0.02188631 10
-2.485162 2.464441 0 23
-2.069161 2.460501 -0.01662419 27
-2.811252 4.036837 -0.05706399 19
-3.02782 2.486394 0.1144281 10
-2.487875 2.46037 0.08030935 25
-2.09287 2.479204 0.05481637 22
-2.824619 4.039684 0.05974113 18
nan nan nan 0
nan nan nan 0
-2.910006 2.394888 -0.5181296 10
-2.884768 2.416219 -0.3526149 15
-2.853907 2.373749 -0.235556 7
-2.424179 2.414791 -0.2364744 29
-2.041737 2.445738 -0.2376561 21
nan nan nan 0
-2.965657 2.433748 -0.1544889 112
-2.46395 2.430821 -0.1595482 18
-2.046422 2.428326 -0.1643349 26
-2.893665 4.140128 -0.2915955 19
-2.943352 2.433431 -0.06597009 15
-2.467733 2.452294 -0.07984512 24
-2.054428 2.451587 -0.09209147 24
-2.805559 4.037654 -0.1686071 20
-1.675323 2.388744 -0.5219919 11
-1.677428 2.428147 -0.3276203 6
-2.780967 4.023057 0.1948399 23
-3.002124 2.494221 0.2247957 15
-2.67604 3.91722 0.3826445 27
-3.003365 2.519905 0.4765091 12
-1.729546 2.530062 0.5514009 11
nan nan nan 0
-2.944564 2.440594 0.02179991 11
-2.464205 2.464228 0 22
-2.052437 2.461463 -0.01657183 29
-2.777306 4.02387 -0.05671318 19
-2.978411 2.467752 0.1129535 10
-2.466494 2.460617 0.07996118 25
-2.075187 2.481003 0.05464534 21
-2.803416 4.048346 0.05968005 18
nan nan nan 0
nan nan nan 0
-2.893574 2.399227 -0.5167534 11
-2.864044 2.41766 -0.3512007 14
-2.829458 2.37189 -0.2342758 9
-2.407845 2.417018 -0.2357769 29
-2.025548 2.44623 -0.2369028 19
nan nan nan 0
-2.940023 2.433429 -0.1536758 111
-2.446661 2.434079 -0.1590824 18
-2.02941 2.429564 -0.1638115 29
-2.901109 4.189675 -0.2942094 19
-2.920749 2.437171 -0.0657083 16
-2.449945 2.455964 -0.07961302 24
-2.040091 2.457037 -0.09194576 23
-2.778018 4.038469 -0.1680889 19
-1.658034 2.38881 -0.5202073 11
-1.659949 2.428102 -0.3265022 7
-2.747193 4.015966 0.1938366 23
-2.98268 2.501936 0.2242149 15
-2.657551 3.929787 0.3826445 26
-2.976733 2.5207 0.4740717 13
-1.715297 2.533806 0.5505043 14
nan nan nan 0
-2.922366 2.443813 0.02171352 10
-2.446816 2.467431 0 22
-2.035741 2.462328 -0.01651947 28
-2.743517 4.01069 -0.05636238 19
-2.945009 2.461011 0.1120688 10
-2.449114 2.46384 0.07972907 25
-2.058831 2.481615 0.05447431 23
-2.765243 4.026087 0.05919137 19
nan nan nan 0
nan nan nan 0
-2.886039 2.416009 -0.5174415 11
-2.841663 2.420964 -0.3497865 13
-2.811038 2.37827 -0.2336357 9
-2.389841 2.420824 -0.2350793 28
-2.008107 2.447684 -0.2361495 19
nan nan nan 0
-2.917859 2.436645 -0.1530659 106
-2.425435 2.434123 -0.1583836 18
-2.01285 2.430349 -0.1632882 29
-2.863793 4.17296 -0.2921763 18
-2.895622 2.436024 -0.06535926 16
-2.433031 2.458677 -0.07938091 24
-2.02429 2.457134 -0.09165433 27
-2.759679 4.044975 -0.1679161 19
-1.646484 2.390813 -0.519315 10
-1.640335 2.417414 -0.3242659 8
-2.724753 4.013122 0.1932346 24
-2.962913 2.502168 0.2233436 15
-2.644505 3.938579 0.3826445 25
-2.957455 2.520398 0.4722437 11
-1.704592 2.535095 0.5496076 13
nan nan nan 0
-2.89978 2.43962 0.02159833 11
-2.428948 2.464004 0 23
-2.022511 2.460275 -0.01646711 28
-2.743533 4.034886 -0.05659624 20
-2.92366 2.455365 0.111479 10
-2.432534 2.459162 0.07938091 24
-2.046832 2.478567 0.05430327 22
-2.761734 4.040612 0.05931354 19
nan nan nan 0
nan nan nan 0
-2.854841 2.406949 -0.513313 10
-2.822271 2.420667 -0.3483723 14
-2.795529 2.381119 -0.2329956 10
-2.371317 2.418057 -0.234033 29
-1.994539 2.445899 -0.2353963 20
nan nan nan 0
-2.899552 2.435162 -0.1524561 109
-2.411593 2.433795 -0.1579178 18
-2.003307 2.431755 -0.1630265 29
-2.84724 4.172192 -0.2915955 18
-2.877769 2.433928 -0.06509747 17
-2.416488 2.453935 -0.07903275 23
-2.015114 2.458206 -0.09150861 26
-2.74489 4.042952 -0.1675706 20
-1.639116 2.389908 -0.5184227 12
-1.638042 2.424967 -0.324825 7
-2.710756 4.010535 0.1928333 24
-2.941984 2.495988 0.2221818 16
-2.632798 3.940422 0.3822391 26
-2.939966 2.517948 0.4704157 12
-1.692938 2.531065 0.5478145 11
nan nan nan 0
-2.878094 2.434311 0.02148314 10
-2.415483 2.463218 0 24
-2.01247 2.46204 -0.01644093 28
-2.726665 4.034241 -0.05647931 19
-2.904894 2.45437 0.1110366 10
-2.418214 2.459244 0.07914881 24
-2.032697 2.477252 0.05413224 22
-2.739911 4.037328 0.05913028 19
nan nan nan 0
nan nan nan 0
-2.830873 2.39695 -0.5098726 11
-2.805445 2.417333 -0.346958 15
-2.790119 2.387456 -0.2329956 21
-2.358853 2.416297 -0.2333354 26
-1.982278 2.443018 -0.234643 18
nan nan nan 0
-2.881701 2.433092 -0.1518463 113
-2.394689 2.429435 -0.1572191 19
-1.996509 2.43734 -0.1630265 32
-2.815994 4.151189 -0.2895624 19
-2.859523 2.432255 -0.06483568 15
-2.401771 2.454373 -0.07880064 24
-2.004228 2.460648 -0.0913629 20
-2.726597 4.043263 -0.1672251 19
-1.625242 2.387471 -0.5166381 11
-1.624049 2.422406 -0.3237068 7
-2.691183 4.011669 0.1924319 24
-2.921855 2.496532 0.2213105 15
-2.621777 3.953744 0.3826445 7
-2.91611 2.51525 0.4679783 11
-1.678667 2.528752 0.5460213 10
nan nan nan 0
-2.858146 2.434633 0.02139675 12
-2.3964 2.460893 0 22
-1.997567 2.461282 -0.01638857 29
-2.712566 4.043734 -0.05647931 19
-2.888687 2.458028 0.1107417 11
-2.402626 2.460521 0.0789167 24
-2.017726 2.476577 0.0539612 23
-2.720224 4.038568 0.05900811 18
nan nan nan 0
-0.2491742 0.2161421 -0.07582346 9
-2.807395 2.393985 -0.5071202 11
-2.785698 2.41734 -0.3455438 16
-2.781769 2.39718 -0.2329956 14
-2.343457 2.417357 -0.2326378 26
-1.970613 2.446038 -0.2342664 19
nan nan nan 0
-2.861758 2.433445 -0.1512365 111
-2.379202 2.430645 -0.1567532 21
-1.981692 2.436543 -0.1625031 31
-2.798703 4.156851 -0.289272 19
-2.839611 2.432481 -0.0645739 16
-2.386218 2.455575 -0.07856853 25
-1.989345 2.459853 -0.09107147 23
-2.704142 4.040288 -0.1667068 19
-1.614151 2.389048 -0.5157458 10
-1.618328 2.432202 -0.3242659 3
-2.674399 4.016876 0.1922313 25
-2.901758 2.496964 0.2204392 15
-2.60796 3.962872 0.3826445 8
-2.896059 2.515666 0.4661502 12
-1.667132 2.530484 0.5451248 11
nan nan nan 0
-2.838231 2.434845 0.02131035 11
-2.38084 2.462059 0 24
-1.985828 2.464345 -0.01636239 30
-2.692902 4.044848 -0.05636238 19
-2.87249 2.461604 0.1104467 10
-2.383578 2.458133 0.07856853 26
-2.002785 2.475829 0.05379017 21
-2.697788 4.03556 0.05882486 19
nan nan nan 0
nan nan nan 0
-2.780212 2.387666 -0.5036798 12
-2.765984 2.417238 -0.3441295 14
-2.769611 2.403611 -0.2326756 15
-2.328082 2.418339 -0.2319403 28
-1.952727 2.441216 -0.2331365 18
nan nan nan 0
-2.838048 2.430444 -0.1504234 109
-2.363737 2.431777 -0.1562874 22
-1.963771 2.431787 -0.1617181 28
nan nan nan 0
-2.819732 2.432599 -0.06431212 17
-2.370686 2.4567 -0.07833643 25
-1.977619 2.462883 -0.09092575 28
-2.678982 4.033041 -0.1660158 19
-1.603069 2.390577 -0.5148535 11
nan nan nan 0
-2.654862 4.017845 0.19183 25
-2.877916 2.494024 0.2192775 15
-2.599551 3.980303 0.3834552 8
-2.872301 2.51271 0.4637128 11
-1.655604 2.532166 0.5442281 14
nan nan nan 0
-2.818349 2.434948 0.02122396 10
-2.365301 2.463145 0 23
-1.970971 2.46345 -0.01631003 30
-2.670512 4.0417 -0.05618697 19
-2.856303 2.465096 0.1101518 10
-2.368044 2.459241 0.07833643 25
-1.987874 2.475006 0.05361914 23
-2.678166 4.036614 0.05870269 19
nan nan nan 0
nan nan nan 0
-2.760609 2.387654 -0.5016155 12
-2.750047 2.420311 -0.3431867 14
-2.75368 2.406708 -0.2320355 17
-2.312729 2.419244 -0.2312427 28
nan nan nan 0
nan nan nan 0
-2.818183 2.430564 -0.1498135 108
-2.344821 2.429238 -0.1555886 19
-1.949027 2.430832 -0.1611947 32
nan nan nan 0
-2.799888 2.432607 -0.06405032 16
-2.355175 2.457746 -0.07810432 25
-1.956557 2.454132 -0.0903429 23
-2.656651 4.029842 -0.1654976 19
-1.589279 2.387957 -0.513069 12
nan nan nan 0
-2.635352 4.018726 0.1914286 25
-2.857897 2.494224 0.2184062 15
-2.58023 3.980982 0.3826445 7
-2.852327 2.512895 0.4618848 12
-1.641416 2.529667 0.542435 10
nan nan nan 0
-2.798502 2.434942 0.02113757 11
-2.349784 2.464153 0 24
-1.959252 2.466398 -0.01628385 30
-2.650914 4.04263 -0.05607004 19
-2.832572 2.461959 0.109562 10
-2.352532 2.46027 0.07810432 25
-1.976107 2.478019 0.05353362 22
-2.65857 4.037582 0.05858052 19
nan nan nan 0
nan nan nan 0
-2.74104 2.387534 -0.4995512 10
-2.730392 2.420007 -0.3417725 14
-2.737761 2.409723 -0.2313954 20
-2.297399 2.420071 -0.2305451 26
-1.923298 2.439121 -0.2316299 23
nan nan nan 0
-2.798351 2.430576 -0.1492037 118
-2.329411 2.430201 -0.1551228 18
-1.921885 2.414171 -0.1596247 31
nan nan nan 0
-2.783845 2.435792 -0.0638758 16
-2.336238 2.455094 -0.07775616 27
-1.941779 2.453106 -0.09005147 26
-2.631643 4.022353 -0.1648066 20
-1.578229 2.38938 -0.5121766 11
nan nan nan 0
-2.618587 4.02371 0.191228 26
-2.837911 2.494315 0.2175349 15
-2.558246 3.977381 0.3814285 8
-2.836105 2.516259 0.4606661 12
-1.62992 2.53124 0.5415384 12
nan nan nan 0
-2.778689 2.434828 0.02105117 11
-2.334288 2.465083 0 21
-1.944443 2.465367 -0.01623149 28
-2.631342 4.043471 -0.05595311 20
-2.812665 2.461974 0.1091196 10
-2.337042 2.461221 0.07787222 26
-1.958142 2.473139 0.05327707 25
-2.64719 4.051025 0.0586416 19
nan nan nan 0
nan nan nan 0
-2.721505 2.387307 -0.497487 11
-2.710773 2.419595 -0.3403583 14
-2.718117 2.409352 -0.2304353 22
-2.28209 2.420821 -0.2298476 26
-1.914773 2.445819 -0.2316299 12
nan nan nan 0
-2.778554 2.430479 -0.1485939 109
-2.314023 2.431085 -0.154657 18
-1.922728 2.432622 -0.1604097 16
-2.677712 4.099335 -0.282592 19
-2.764058 2.435597 -0.06361402 17
-2.320784 2.455971 -0.07752405 27
nan nan nan 0
-2.606721 4.014738 -0.1641155 20
-1.56719 2.390755 -0.5112844 11
nan nan nan 0
-2.599115 4.024426 0.1908267 7
-2.817959 2.494298 0.2166636 15
-2.533642 3.969471 0.3798071 7
-2.816188 2.51624 0.458838 10
-1.618434 2.532764 0.5406418 11
nan nan nan 0
-2.762665 2.437907 0.02099358 11
-2.318815 2.465935 0 21
-1.911183 2.440632 -0.01602205 8
-2.609088 4.040023 -0.05577771 19
-2.789037 2.45858 0.1085298 10
-2.321573 2.462094 0.07764011 26
-1.949497 2.479959 0.05327707 20
-2.633033 4.060241 0.0586416 20
nan nan nan 0
-0.249019 0.2236273 -0.07708719 9
-2.702005 2.386973 -0.4954227 12
-2.691191 2.419076 -0.338944 15
-2.698509 2.408873 -0.2294751 25
-2.266805 2.421493 -0.22915 24
nan nan nan 0
nan nan nan 0
-2.758792 2.430273 -0.1479841 114
-2.298657 2.431893 -0.1541911 18
-1.901904 2.423599 -0.159363 37
-2.676939 4.129615 -0.2840442 19
-2.748051 2.438605 -0.0634395 17
-2.305352 2.456771 -0.07729194 26
-1.912318 2.450834 -0.08946861 16
-2.592691 4.023812 -0.1641155 20
-1.55616 2.392082 -0.5103921 11
nan nan nan 0
-2.58236 4.029265 0.190626 7
-2.798043 2.494171 0.2157923 15
-2.503802 3.95301 0.377375 7
-2.8 2.519426 0.4576194 11
-1.606957 2.534239 0.5397452 15
nan nan nan 0
-2.746653 2.440904 0.02093598 10
-2.303364 2.466709 0 22
-1.887319 2.427543 -0.01589115 6
-2.589584 4.040681 -0.05566077 19
-2.76921 2.458364 0.1080874 10
-2.306128 2.462889 0.077408 26
-1.913165 2.451265 0.05250742 12
-2.624246 4.077821 0.05876378 18
nan nan nan 0
-0.2555245 0.2308593 -0.07961464 10
-2.682542 2.386532 -0.4933585 12
-2.67534 2.421784 -0.3380012 15
-2.682652 2.411617 -0.228835 20
-2.251543 2.422088 -0.2284524 27
nan nan nan 0
-2.568 4.036074 -0.3875433 9
-2.742807 2.433268 -0.1475775 112
-2.283313 2.432622 -0.1537253 18
-1.902632 2.442045 -0.160148 34
-2.678684 4.16414 -0.2857868 19
-2.728324 2.438206 -0.0631777 16
-2.289943 2.457493 -0.07705984 26
-1.882342 2.429824 -0.08844861 11
-2.578629 4.032838 -0.1641155 20
-1.54514 2.393362 -0.5094998 11
nan nan nan 0
-2.562927 4.029817 0.1902247 25
-2.778161 2.493936 0.214921 15
-2.492634 3.965949 0.3777803 8
-2.780142 2.519203 0.4557913 12
-1.592877 2.531496 0.5379521 11
nan nan nan 0
-2.726924 2.440491 0.02084959 11
-2.287936 2.467405 0 23
-1.894097 2.453915 -0.01602205 12
-2.570107 4.041252 -0.05554384 19
-2.745688 2.454714 0.1074976 10
-2.290705 2.463607 0.07717589 25
nan nan nan 0
-2.588506 4.053224 0.0582751 19
nan nan nan 0
nan nan nan 0
-2.663114 2.385984 -0.4912942 11
-2.65582 2.421063 -0.336587 16
-2.663105 2.410937 -0.2278749 21
-2.236304 2.422606 -0.2277549 25
nan nan nan 0
-2.548584 4.03658 -0.3867291 10
-2.726836 2.436182 -0.147171 112
-2.267993 2.433275 -0.1532595 18
nan nan nan 0
nan nan nan 0
-2.708634 2.437699 -0.06291592 17
-2.27116 2.45447 -0.07671167 25
nan nan nan 0
-2.564536 4.041815 -0.1641155 20
-1.53413 2.394593 -0.5086074 12
nan nan nan 0
-2.542819 4.030727 0.1898234 25
-2.761587 2.497416 0.2143401 15
-2.480019 3.979723 0.3781857 8
-2.75577 2.516495 0.4533539 11
-1.582703 2.53787 0.5379521 13
nan nan nan 0
-2.709244 2.445204 0.02079199 11
-2.266991 2.466327 0 22
nan nan nan 0
-2.546424 4.044405 -0.0554269 19
-2.723373 2.457121 0.1070552 10
-2.272293 2.467025 0.07694378 24
-1.883869 2.454972 0.05225086 8
-2.563335 4.057365 0.05815292 19
nan nan nan 0
nan nan nan 0
-2.643306 2.385791 -0.4892299 11
-2.635492 2.421157 -0.3351727 14
-2.642334 2.411533 -0.2269147 26
-2.219821 2.42421 -0.2270573 25
nan nan nan 0
-2.526378 4.038764 -0.385915 10
-2.708748 2.441379 -0.1467644 112
-2.250571 2.435814 -0.1527936 18
nan nan nan 0
-2.661139 4.210845 -0.2875294 19
-2.686 2.440367 -0.06265414 16
-2.252809 2.457779 -0.07647956 28
nan nan nan 0
-2.542102 4.050064 -0.1639428 19
-1.516321 2.39427 -0.5068229 12
nan nan nan 0
-2.517106 4.035061 0.1894221 25
-2.737842 2.501278 0.2134688 15
-2.460541 3.991796 0.3781857 7
-2.728827 2.516495 0.4509165 12
-1.56815 2.541109 0.5370554 11
nan nan nan 0
-2.687015 2.447389 0.0207056 11
-2.249469 2.468807 0 22
nan nan nan 0
-2.52682 4.050791 -0.05536843 19
-2.701952 2.458434 0.1066128 10
-2.255624 2.46875 0.07671167 24
nan nan nan 0
-2.53714 4.050219 0.05790858 19
nan nan nan 0
nan nan nan 0
-2.620203 2.389146 -0.4871657 12
-2.612667 2.423867 -0.3337585 15
-2.619917 2.413831 -0.2259546 19
-2.201666 2.427258 -0.2263597 27
nan nan nan 0
-2.505406 4.045947 -0.3855079 15
-2.679562 2.436399 -0.145748 112
-2.23317 2.438249 -0.1523278 18
nan nan nan 0
-2.648766 4.230423 -0.2881103 19
-2.665107 2.441017 -0.06239235 16
-2.236195 2.459409 -0.07624745 28
nan nan nan 0
-2.526532 4.059795 -0.1639428 19
-1.505345 2.395378 -0.5059306 11
nan nan nan 0
-2.495132 4.03107 0.1888201 26
-2.721737 2.504071 0.2128879 15
-2.449187 4.004615 0.3785911 7
-2.70182 2.509146 0.4478698 12
-1.55671 2.542368 0.5361589 13
nan nan nan 0
-2.671076 2.450006 0.020648 11
-2.234124 2.469232 0 23
nan nan nan 0
-2.507412 4.051078 -0.0552515 19
-2.682283 2.457738 0.1061704 10
-2.24027 2.469208 0.07647956 26
nan nan nan 0
-2.517717 4.050552 0.05778642 19
nan nan nan 0
-0.2626469 0.2445611 -0.08340581 9
-2.600888 2.388246 -0.4851014 11
-2.593263 2.422793 -0.3323443 14
-2.600486 2.412797 -0.2249944 18
-2.1865 2.42752 -0.2256622 26
-1.685891 2.256837 -0.2097851 9
-2.483457 4.04192 -0.3842866 14
-2.659971 2.435633 -0.1451382 117
-2.21792 2.438643 -0.151862 19
nan nan nan 0
-2.607687 4.197216 -0.2852059 19
-2.64553 2.440153 -0.06213056 17
-2.220893 2.459784 -0.07601535 23
nan nan nan 0
-2.509725 4.064334 -0.16377 20
-1.494379 2.396439 -0.5050383 12
nan nan nan 0
-2.475826 4.031234 0.1884187 25
-2.70198 2.503396 0.2120166 14
-2.430032 4.004612 0.3777803 7
-2.682156 2.508408 0.4460418 10
-1.54528 2.543577 0.5352623 14
nan nan nan 0
-2.651473 2.449154 0.02056161 12
-2.218804 2.469581 0 21
nan nan nan 0
-2.490644 4.055542 -0.05519303 18
-2.673688 2.467086 0.1061704 10
-2.224941 2.469589 0.07624745 24
nan nan nan 0
-2.498323 4.050799 0.05766424 19
nan nan nan 0
nan nan nan 0
-2.581611 2.387241 -0.4830371 12
-2.573899 2.421614 -0.3309301 16
-2.581095 2.411656 -0.2240343 20
-2.171359 2.427706 -0.2249646 24
-1.654266 2.230653 -0.2067721 9
-2.464155 4.042048 -0.3834725 15
-2.633063 2.427999 -0.1441218 109
-2.202694 2.438961 -0.1513961 22
nan nan nan 0
-2.585176 4.193536 -0.2843346 19
-2.625992 2.439183 -0.06186878 16
-2.205615 2.460081 -0.07578324 23
nan nan nan 0
-2.490311 4.064543 -0.1634245 20
-1.480843 2.393264 -0.5032537 12
nan nan nan 0
-2.45655 4.031313 0.1880174 25
-2.682261 2.502613 0.2111453 15
-2.413474 4.008797 0.377375 8
-2.666148 2.51096 0.4448231 12
-1.533861 2.544738 0.5343657 10
nan nan nan 0
-2.635576 2.451595 0.02050401 10
-2.203509 2.469853 0 23
nan nan nan 0
-2.473875 4.059939 -0.05513456 19
-2.657727 2.469611 0.1058755 9
-2.209637 2.469894 0.07601535 25
nan nan nan 0
-2.481563 4.055228 0.05760315 19
nan nan nan 0
-0.2430798 0.2300692 -0.07708719 9
-2.562373 2.386129 -0.4809729 11
-2.554575 2.420329 -0.3295158 15
-2.565383 2.413824 -0.2233942 23
-2.159557 2.431543 -0.2246158 23
-1.661235 2.2565 -0.2086553 22
-2.444882 4.042091 -0.3826583 16
-2.613573 2.426994 -0.143512 114
-2.187494 2.439202 -0.1509303 18
nan nan nan 0
nan nan nan 0
-2.606493 2.438106 -0.06160699 17
-2.190363 2.460302 -0.07555113 28
-1.693174 2.29095 -0.08189147 11
-2.468335 4.060392 -0.1629063 20
-1.469913 2.394221 -0.5023614 11
nan nan nan 0
-2.437304 4.031307 0.1876161 25
-2.66258 2.501723 0.210274 15
-2.394366 4.008635 0.3765643 8
-2.650156 2.513432 0.4436044 11
-1.522452 2.54585 0.5334691 12
nan nan nan 0
-2.619693 2.453955 0.02044642 11
-2.188239 2.470048 0 23
-1.766846 2.399582 -0.01539373 10
-2.457107 4.064269 -0.0550761 19
-2.652745 2.482283 0.106023 9
-2.191037 2.466387 0.07566719 26
-1.732533 2.343655 0.04917225 13
-2.462213 4.055313 0.05748099 19
nan nan nan 0
-0.2600715 0.2472981 -0.08340581 10
-2.546793 2.388295 -0.4795967 13
-2.535291 2.418939 -0.3281016 15
-2.546059 2.412484 -0.222434 21
-2.144454 2.431588 -0.2239183 26
-1.656287 2.266312 -0.2090319 22
-2.428199 4.046324 -0.3822512 14
-2.597777 2.429289 -0.1431055 111
-2.175642 2.443095 -0.1506974 17
-1.758071 2.382488 -0.1530827 21
nan nan nan 0
-2.587034 2.436923 -0.0613452 16
-2.175136 2.460446 -0.07531902 28
-1.741291 2.373445 -0.08466004 11
-2.446419 4.056138 -0.162388 20
-1.458996 2.395131 -0.5014691 11
nan nan nan 0
-2.418087 4.031216 0.1872148 26
-2.642938 2.500726 0.2094027 15
-2.377822 4.012677 0.376159 7
-2.630585 2.5124 0.4417764 13
-1.511054 2.546914 0.5325726 14
nan nan nan 0
-2.603827 2.456234 0.02038882 10
-2.172994 2.470167 0 22
-1.746667 2.389582 -0.01528901 10
-2.442905 4.072821 -0.0550761 20
-2.629493 2.477839 0.1054331 9
-2.175796 2.466527 0.07543508 24
-1.727297 2.35372 0.04925777 11
-2.442892 4.055311 0.05735882 19
nan nan nan 0
-0.2556589 0.2449156 -0.08214208 10
-2.527623 2.386987 -0.4775325 12
-2.516049 2.417444 -0.3266874 15
-2.526777 2.41104 -0.2214739 23
-2.132665 2.435308 -0.2235695 23
-1.642516 2.264005 -0.2082786 22
-2.414059 4.054776 -0.3822512 13
-2.585638 2.434923 -0.1429022 115
-2.160479 2.443196 -0.1502315 18
-1.758589 2.4007 -0.1538677 21
nan nan nan 0
-2.571247 2.439069 -0.06117068 17
-2.159934 2.460515 -0.07508691 24
-1.762393 2.419927 -0.08611719 10
-2.424563 4.05178 -0.1618697 20
-1.450626 2.400209 -0.5014691 11
nan nan nan 0
-2.398901 4.031039 0.1868135 25
-2.623336 2.499623 0.2085314 15
-2.366322 4.025253 0.3765643 9
-2.611053 2.511263 0.4399483 12
-1.499668 2.547929 0.5316759 12
nan nan nan 0
-2.587976 2.458432 0.02033123 12
-2.157775 2.470209 0 23
-1.706041 2.35113 -0.01500104 10
-2.421018 4.068425 -0.05490069 19
-2.599044 2.466396 0.1045484 10
-2.160581 2.46659 0.07520297 26
-1.689658 2.319311 0.0484026 11
-2.423602 4.055225 0.05723665 19
nan nan nan 0
-0.2371209 0.2293009 -0.07582346 10
-2.515681 2.392388 -0.4768444 12
-2.496847 2.415843 -0.3252731 15
-2.507536 2.40949 -0.2205137 24
-2.117602 2.435213 -0.2228719 25
-1.605495 2.229246 -0.2045123 22
-2.394833 4.05459 -0.381437 13
-2.569862 2.43707 -0.1424956 114
-2.145342 2.44322 -0.1497657 18
-1.750198 2.406823 -0.1538677 19
nan nan nan 0
-2.555477 2.441134 -0.06099616 17
-2.144759 2.460507 -0.07485481 23
-1.739307 2.405804 -0.08538861 10
-2.400221 4.043019 -0.1611787 20
-1.439717 2.401034 -0.5005768 13
nan nan nan 0
-2.379746 4.030778 0.1864122 26
-2.603774 2.498414 0.2076601 16
-2.354762 4.037796 0.3769697 8
-2.595131 2.513467 0.4387296 12
-1.485821 2.544643 0.5298828 10
nan nan nan 0
-2.568523 2.457099 0.02024483 13
-2.142583 2.470176 0 23
-1.697824 2.357071 -0.01500104 9
-2.396655 4.059618 -0.05466682 18
-2.575944 2.461664 0.1039585 10
-2.145393 2.466578 0.07497086 25
-1.690333 2.337353 0.04865915 11
-2.404341 4.055053 0.05711448 19
nan nan nan 0
nan nan nan 0
-2.50015 2.394316 -0.4754682 12
-2.481258 2.417608 -0.3243303 14
-2.491928 2.4113 -0.2198736 25
-2.105826 2.438817 -0.2225231 26
-1.632464 2.283532 -0.2090319 21
-2.393236 4.084439 -0.3834725 12
-2.554103 2.439136 -0.1420891 113
-2.130232 2.443168 -0.1492999 17
-1.762227 2.44127 -0.1556995 20
nan nan nan 0
-2.543332 2.446579 -0.06090889 17
-2.132884 2.464201 -0.07473876 25
nan nan nan 0
-2.378501 4.038447 -0.1606605 19
-1.42882 2.401812 -0.4996845 11
nan nan nan 0
-2.360621 4.030433 0.1860109 26
-2.587847 2.500561 0.2070792 16
-2.343143 4.050308 0.377375 7
-2.575669 2.512131 0.4369016 12
-1.474472 2.545553 0.5289862 11
nan nan nan 0
-2.549112 2.455661 0.02015844 13
-2.127417 2.470067 0 21
-2.95643 4.137067 -0.02641544 19
-2.372383 4.050691 -0.05443296 20
-2.542089 2.446422 0.1029263 12
-2.130231 2.466489 0.07473876 25
-1.65012 2.298548 0.04771847 10
-2.385113 4.054797 0.05699231 19
nan nan nan 0
-0.249567 0.2442537 -0.08087836 8
-2.488207 2.399596 -0.4747801 11
-2.465688 2.419292 -0.3233875 16
-2.476338 2.41303 -0.2192335 24
-2.090803 2.438583 -0.2218256 26
-1.598541 2.252604 -0.2056422 20
-2.35897 4.058276 -0.3802158 15
-2.53836 2.441123 -0.1416826 110
-2.118419 2.446816 -0.149067 21
-3.020674 4.217758 -0.2697918 23
nan nan nan 0
-2.527584 2.448497 -0.06073437 17
-2.117749 2.464053 -0.07450665 25
nan nan nan 0
-2.36439 4.046725 -0.1606605 20
-1.415442 2.398302 -0.4978999 12
nan nan nan 0
-2.339024 4.025681 0.1854089 7
-2.568355 2.499152 0.206208 15
-2.326515 4.054137 0.3769697 7
-2.559792 2.514162 0.4356829 13
-1.463135 2.546414 0.5280896 13
-2.601144 2.570582 0.9692773 21
-2.529742 2.454116 0.02007205 12
-2.112278 2.469881 0 21
nan nan nan 0
-2.353215 4.050296 -0.05431603 20
-2.529939 2.451808 0.1027789 10
-2.115096 2.466325 0.07450665 24
-1.665278 2.336878 0.0484026 6
-2.368429 4.058776 0.05693122 19
nan nan nan 0
nan nan nan 0
-2.472699 2.401378 -0.4734039 11
-2.450135 2.420898 -0.3224446 14
-2.460766 2.41468 -0.2185934 24
-2.075808 2.438274 -0.221128 26
-2.809688 3.991374 -0.3657117 12
-2.339821 4.057846 -0.3794016 18
-2.519041 2.439559 -0.1410727 113
-2.103348 2.446624 -0.1486011 17
-2.988583 4.203853 -0.2682218 26
nan nan nan 0
-2.50827 2.446849 -0.06047259 17
-2.10264 2.463829 -0.07427453 26
-2.867249 4.056878 -0.1436744 21
-2.35275 4.059279 -0.1608332 19
-1.404584 2.398978 -0.4970076 11
nan nan nan 0
-2.322468 4.029489 0.1852082 8
-2.552474 2.501127 0.2056271 15
-2.30989 4.057899 0.3765643 8
-2.547467 2.519597 0.4350735 13
-1.449382 2.542949 0.5262964 14
nan nan nan 0
-2.510414 2.452467 0.01998566 13
-2.097167 2.46962 0 23
-2.959125 4.202587 -0.02670342 21
-2.336571 4.054151 -0.05425756 20
-2.517783 2.45714 0.1026314 12
-2.099987 2.466085 0.07427453 26
-2.877292 4.069833 0.08457627 25
-2.354247 4.067019 0.05693122 19
nan nan nan 0
-0.240876 0.2392896 -0.07835092 10
-2.457209 2.403081 -0.4720277 12
-2.434602 2.422424 -0.3215019 15
-2.445212 2.416252 -0.2179533 25
-2.060839 2.43789 -0.2204304 24
-2.798592 4.005245 -0.3660883 17
-2.318235 4.053002 -0.3781804 17
-2.503345 2.441372 -0.1406662 111
-2.088305 2.446358 -0.1481353 18
-2.988278 4.234663 -0.2695302 26
nan nan nan 0
-2.49257 2.448594 -0.06029806 17
-2.090793 2.467342 -0.07415848 27
-2.861676 4.079139 -0.1441115 21
-2.336081 4.063133 -0.1606605 20
-1.393739 2.399607 -0.4961154 12
nan nan nan 0
-2.303439 4.028892 0.1848069 7
-2.533053 2.499519 0.2047558 16
-2.290821 4.057252 0.3757536 8
-2.538656 2.528474 0.4350735 12
-1.438084 2.543706 0.5253998 9
-2.572886 2.578437 0.965395 34
-2.494698 2.454214 0.01992806 13
-2.082083 2.469285 0 23
-2.947299 4.21699 -0.0267296 21
-2.319929 4.057938 -0.05419909 19
-2.502051 2.458919 0.1023365 11
-2.084907 2.46577 0.07404242 25
nan nan nan 0
-2.340036 4.075212 0.05693122 20
nan nan nan 0
-0.2330829 0.2334043 -0.07582346 11
-2.441738 2.404704 -0.4706516 11
-2.419088 2.423872 -0.320559 15
-2.429678 2.417744 -0.2173132 23
-2.042691 2.433613 -0.2193841 27
-2.790273 4.023185 -0.3668416 21
-2.299166 4.052395 -0.3773662 13
-2.484098 2.439611 -0.1400564 116
-2.073289 2.446016 -0.1476694 19
-2.956299 4.220524 -0.2679601 26
nan nan nan 0
-2.473329 2.446749 -0.06003627 17
-2.075727 2.466979 -0.07392637 24
-2.873111 4.126026 -0.1454229 22
-2.321884 4.071262 -0.1606605 20
-1.380458 2.395922 -0.4943308 13
nan nan nan 0
-2.286902 4.032558 0.1846062 8
-2.51722 2.50132 0.2041749 15
-2.274215 4.060873 0.3753483 7
-2.529815 2.53732 0.4350735 11
-1.426799 2.544416 0.5245032 13
-2.601318 2.625086 0.9796301 16
-2.479001 2.45588 0.01987046 10
-2.070239 2.472706 0 24
-2.926865 4.219034 -0.02667724 21
-2.303289 4.06166 -0.05414063 20
-2.486336 2.460618 0.1020416 12
-2.073071 2.469206 0.07392637 26
-2.880226 4.134956 0.08551696 21
-2.325797 4.083356 0.05693122 20
nan nan nan 0
nan nan nan 0
-2.419241 2.399287 -0.4678992 12
-2.403594 2.425241 -0.3196162 16
-2.414164 2.419158 -0.2166732 20
-2.027793 2.433069 -0.2186865 27
-2.750784 3.995929 -0.3634518 22
-2.282568 4.056051 -0.3769591 12
-2.468451 2.441253 -0.1396498 113
-2.06152 2.449419 -0.1474365 19
-2.927303 4.210314 -0.2666517 8
nan nan nan 0
-2.454131 2.444799 -0.05977449 16
-2.060689 2.466541 -0.07369427 28
-2.884252 4.173042 -0.1467344 21
-2.305203 4.07499 -0.1604877 20
-1.369653 2.396451 -0.4934385 14
nan nan nan 0
-2.270368 4.03616 0.1844056 8
-2.497872 2.499516 0.2033036 15
