# .PCD v0.7 - Point Cloud Data file format
VERSION 0.7
FIELDS x y z intensity
SIZE 4 4 4 4
TYPE F F F F
COUNT 1 1 1 1
WIDTH 1679
HEIGHT 1
VIEWPOINT 0 0 0 1 0 0 0
POINTS 1679
DATA ascii
2.349796 -5.157755 -1.020784 19
3.27264 -7.326497 -0.8984401 18
15.73534 -35.17981 1.546278 28
28.92841 -34.64338 2.623778 43
12.41371 -28.15815 2.499755 15
12.61451 -15.25665 2.425809 40
9.801642 -22.24072 4.422863 11
12.42642 -15.12559 5.234615 23
28.98947 -34.60601 0.2597847 31
17.39815 -25.25158 0 20
14.36097 -25.5559 -0.1532828 24
10.95733 -24.49356 -0.3133257 18
28.91833 -34.48449 1.326688 37
54.64518 -79.06839 2.230557 9
nan nan nan 0
15.8368 -35.22547 0.471393 17
nan nan nan 0
nan nan nan 0
4.74794 -5.681026 -1.023185 25
6.132411 -7.465903 -0.9112362 23
8.044495 -9.722106 -0.8068434 13
6.551376 -9.556776 -0.8074312 15
5.048428 -9.058719 -0.7803857 37
3.917788 -8.827175 -0.7856708 36
10.91286 -13.00956 -0.6893049 22
8.586654 -12.39487 -0.7013134 14
6.713164 -11.91522 -0.7146475 12
5.236795 -11.64474 -0.7406061 8
15.36222 -18.44688 -0.4183342 33
11.65491 -16.9549 -0.4767497 20
9.217083 -16.468 -0.5490517 9
6.837876 -15.32313 -0.5787233 9
2.329758 -5.16144 -1.019892 20
3.245038 -7.333331 -0.897881 18
nan nan nan 0
28.97619 -34.94778 2.639171 40
12.48081 -28.58041 2.533398 31
12.57063 -15.3121 2.427637 38
9.70428 -22.22972 4.413897 26
nan nan nan 0
29.02199 -34.89148 0.261167 26
17.1603 -25.09342 0 17
14.352 -25.75 -0.1541468 24
10.87176 -24.53166 -0.3133257 16
28.95451 -34.77341 1.333914 32
54.45368 -79.38232 2.234039 9
nan nan nan 0
15.69544 -35.23944 0.4708432 23
nan nan nan 0
0.2083027 -0.2557639 -0.07582346 10
4.724915 -5.693755 -1.022497 25
6.100017 -7.479552 -0.9102933 30
8.004171 -9.742418 -0.8062033 13
6.517977 -9.579586 -0.8074312 16
5.142151 -9.303216 -0.7999707 22
3.87894 -8.822546 -0.7840424 37
10.85459 -13.03222 -0.6884918 16
8.534844 -12.41243 -0.7006147 13
6.676402 -11.94729 -0.7151708 13
5.194086 -11.65838 -0.7403156 10
15.26905 -18.46573 -0.4175488 34
11.58157 -16.97484 -0.4761694 23
9.161966 -16.50444 -0.5491974 9
6.780308 -15.33776 -0.5783777 9
2.309723 -5.165048 -1.019 22
3.217428 -7.340061 -0.8973219 18
nan nan nan 0
13.13179 -15.95576 1.200072 32
12.04874 -27.85531 2.465301 22
12.53592 -15.37896 2.431293 32
9.597356 -22.19572 4.400448 25
12.78271 -15.78232 5.431317 33
29.07835 -35.20845 0.2627797 16
17.23829 -25.39724 0 18
nan nan nan 0
nan nan nan 0
nan nan nan 0
54.25503 -79.6876 2.237288 12
5.228668 -9.41375 0.1835194 22
16.92613 -38.36347 0.5118313 27
nan nan nan 0
nan nan nan 0
4.698707 -5.702574 -1.021121 30
6.061333 -7.485332 -0.9084077 34
7.960648 -9.758704 -0.8052432 13
6.478914 -9.594012 -0.8067335 16
5.114438 -9.329854 -0.800724 20
3.838184 -8.813181 -0.782007 36
10.79629 -13.05464 -0.6876787 15
8.485832 -12.43389 -0.7001489 15
6.627397 -11.95742 -0.7143857 12
5.151346 -11.67188 -0.7400252 8
15.16642 -18.47256 -0.4165017 35
11.50262 -16.98619 -0.4753571 19
nan nan nan 0
6.71471 -15.33387 -0.5773412 10
2.289691 -5.16858 -1.018107 21
3.187836 -7.34213 -0.8962037 18
nan nan nan 0
13.12657 -16.06333 1.204719 43
nan nan nan 0
nan nan nan 0
10.34624 -24.16007 4.78329 22
12.72148 -15.81932 5.42873 33
29.1265 -35.51849 0.2643348 15
17.2082 -25.54434 0 21
5.190449 -9.465017 -0.05631279 12
10.41925 -23.96043 -0.3050818 15
29.0726 -35.41502 1.350724 13
54.07449 -80.02145 2.24135 10
5.118609 -9.291809 0.1807829 39
16.82213 -38.49104 0.5127475 20
nan nan nan 0
0.2157962 -0.2683669 -0.07961464 9
4.675634 -5.71511 -1.020433 30
6.028924 -7.49869 -0.9074649 38
7.917109 -9.774804 -0.804283 12
6.445385 -9.61657 -0.8067335 16
5.096123 -9.373935 -0.8029838 19
3.801483 -8.812795 -0.7807858 34
10.72846 -13.06523 -0.6862558 17
8.436775 -12.45517 -0.699683 15
nan nan nan 0
5.104578 -11.67606 -0.7391539 9
15.01338 -18.41691 -0.4140583 36
11.51856 -17.13825 -0.4784905 18
5.157464 -9.443842 -0.3125573 7
6.649223 -15.32971 -0.5763047 9
2.269662 -5.172033 -1.017215 20
3.160228 -7.348647 -0.8956447 18
12.35074 -28.67796 1.252513 34
13.11131 -16.15943 1.208495 32
11.96099 -28.19109 2.487594 17
12.13284 -15.09867 2.373405 31
10.23113 -24.12358 4.768945 17
11.84325 -14.83349 5.075441 8
29.21704 -35.88357 0.266293 10
17.13839 -25.63335 0 25
5.121557 -9.417186 -0.05592009 9
10.32171 -23.9645 -0.3046726 18
29.19514 -35.81844 1.362226 24
53.87001 -80.32181 2.244484 9
5.134067 -9.397372 0.1824932 20
16.74923 -38.69177 0.5146412 21
nan nan nan 0
0.2179398 -0.2728476 -0.08087836 10
4.649405 -5.723712 -1.019057 28
5.98096 -7.492468 -0.904165 44
7.873554 -9.790719 -0.8033229 12
6.406251 -9.630704 -0.806036 17
5.046814 -9.360943 -0.8003473 16
3.760921 -8.803091 -0.7787503 31
10.65752 -13.07163 -0.6846296 16
8.382099 -12.46796 -0.6987514 15
5.184181 -9.508723 -0.5654899 6
5.051901 -11.66632 -0.7374113 9
14.98675 -18.51583 -0.4151055 36
11.5197 -17.26983 -0.4810437 15
5.091156 -9.400257 -0.3105173 7
6.583846 -15.32527 -0.5752681 9
2.249638 -5.17541 -1.016323 21
3.13067 -7.350488 -0.8945265 18
12.38575 -29.038 1.266359 43
13.11121 -16.27506 1.213723 17
nan nan nan 0
12.08006 -15.14093 2.373405 36
11.28914 -26.8805 5.306897 18
11.76439 -14.84068 5.063794 39
22.07142 -27.30374 0.2019876 16
17.07369 -25.73051 0 17
5.043572 -9.351386 -0.05542268 9
10.24192 -24.00959 -0.3047895 18
29.21458 -36.09882 1.369009 26
53.67241 -80.6342 2.247965 10
5.075043 -9.366881 0.1815525 16
12.48389 -29.11358 0.3865459 28
nan nan nan 0
nan nan nan 0
4.626285 -5.736054 -1.018369 30
5.960958 -7.521099 -0.9051078 40
7.829985 -9.806449 -0.8023627 13
6.32312 -9.578091 -0.799758 16
4.990608 -9.334529 -0.796581 13
3.726292 -8.806984 -0.7779361 37
10.59925 -13.09322 -0.6838165 23
8.324662 -12.47638 -0.6975868 14
nan nan nan 0
5.00525 -11.67012 -0.73654 10
14.8813 -18.51738 -0.4139711 33
11.56421 -17.46831 -0.4854537 16
5.018123 -9.343112 -0.3080401 6
6.51858 -15.32057 -0.5742316 9
2.229617 -5.178711 -1.01543 21
3.103065 -7.356792 -0.8939674 18
nan nan nan 0
12.95451 -16.19601 1.204429 18
11.6395 -27.9748 2.461247 39
nan nan nan 0
11.20657 -26.947 5.312277 24
11.72147 -14.89304 5.067677 44
22.01041 -27.4235 0.2023044 17
nan nan nan 0
4.963752 -9.280746 -0.05489908 9
10.11915 -23.95307 -0.3036202 18
29.27938 -36.4382 1.378004 25
53.64411 -81.20477 2.258642 14
4.999737 -9.305264 0.1800132 14
12.38414 -29.16158 0.386607 16
nan nan nan 0
0.2038073 -0.2593603 -0.07582346 9
4.603136 -5.748306 -1.017681 26
5.931587 -7.537951 -0.9046364 38
7.789504 -9.825904 -0.8017226 12
6.202157 -9.466607 -0.7885969 18
4.906634 -9.254972 -0.788295 11
3.689758 -8.806146 -0.7767149 37
10.54722 -13.12236 -0.6834099 24
8.272788 -12.49287 -0.696888 15
nan nan nan 0
4.944988 -11.64157 -0.7336357 9
14.7386 -18.47153 -0.4117895 32
11.63218 -17.70491 -0.4909083 13
4.9479 -9.289986 -0.3057087 6
6.45343 -15.3156 -0.5731952 9
2.209601 -5.181935 -1.014538 20
3.073542 -7.358407 -0.8928493 19
nan nan nan 0
29.37758 -36.98121 2.745761 33
11.74671 -28.51294 2.505024 30
12.17968 -15.4862 2.414232 39
nan nan nan 0
11.78543 -15.08225 5.118146 40
21.85845 -27.42979 0.201786 9
16.78148 -25.67748 0 16
4.889172 -9.218502 -0.05442784 9
10.05862 -24.0436 -0.3043218 23
29.3297 -36.76285 1.386409 23
53.62343 -81.79283 2.269783 40
4.929624 -9.25206 0.1786449 14
16.55238 -39.36281 0.5212384 29
nan nan nan 0
nan nan nan 0
4.576872 -5.75659 -1.016305 27
5.905238 -7.55861 -0.9046364 41
7.745893 -9.841276 -0.8007625 13
6.226185 -9.576006 -0.7959213 18
4.814001 -9.157291 -0.7785026 12
3.655182 -8.809764 -0.7759007 38
10.50446 -13.163 -0.6836132 16
8.215411 -12.5008 -0.6957234 15
nan nan nan 0
4.913989 -11.68177 -0.7350878 9
nan nan nan 0
11.57577 -17.75378 -0.4911404 14
4.86411 -9.209965 -0.302503 7
6.388392 -15.31035 -0.5721586 9
2.191499 -5.189617 -1.014538 21
3.045942 -7.364498 -0.8922902 17
20.55467 -49.6335 2.15608 6
nan nan nan 0
11.69603 -28.67376 2.515563 18
12.13472 -15.54035 2.416059 38
11.96483 -29.34778 5.769536 21
11.84229 -15.26446 5.166028 39
nan nan nan 0
16.78698 -25.88272 0 17
4.817412 -9.160275 -0.05398279 16
10.02244 -24.19405 -0.3057835 22
29.40604 -37.12355 1.396141 24
53.57204 -82.33985 2.279764 84
4.859943 -9.198482 0.1772767 15
16.49557 -39.6142 0.5238039 26
nan nan nan 0
nan nan nan 0
4.553679 -5.768646 -1.015617 27
5.878818 -7.579176 -0.9046364 43
7.705346 -9.860394 -0.8001224 12
6.246818 -9.681494 -0.8028969 16
4.772791 -9.156351 -0.776996 15
3.616844 -8.804027 -0.7742724 38
10.46156 -13.2035 -0.6838165 15
8.158079 -12.50849 -0.6945589 16
nan nan nan 0
4.873182 -11.69885 -0.7350878 9
13.99098 -17.78824 -0.3943371 27
nan nan nan 0
4.787893 -9.142757 -0.2997344 28
6.323471 -15.30485 -0.5711221 10
2.171477 -5.192694 -1.013646 18
3.018337 -7.370487 -0.8917311 18
nan nan nan 0
nan nan nan 0
11.52872 -28.54804 2.500971 14
12.06823 -15.56693 2.413622 38
3.840514 -9.504734 1.861314 35
11.58551 -15.04175 5.076735 36
nan nan nan 0
16.73171 -25.99582 0 17
4.780786 -9.168169 -0.05393043 32
9.962581 -24.28903 -0.3065435 20
29.42768 -37.41845 1.403367 20
53.50121 -82.86228 2.289048 114
4.779101 -9.122385 0.1754808 40
16.38768 -39.74551 0.5247812 25
nan nan nan 0
nan nan nan 0
4.530457 -5.780611 -1.014928 30
5.846248 -7.591768 -0.9036936 41
7.66476 -9.879347 -0.7994823 13
6.186083 -9.66124 -0.7994092 17
4.729359 -9.150808 -0.7751129 17
3.57859 -8.798129 -0.7726441 36
10.40613 -13.22816 -0.6832067 19
8.10351 -12.52012 -0.6936272 14
4.779251 -9.141942 -0.538537 19
4.834217 -11.72041 -0.7353783 9
13.88879 -17.78576 -0.3932027 26
11.54339 -17.97717 -0.4950862 14
4.765159 -9.177158 -0.3003173 18
6.258666 -15.29907 -0.5700856 9
2.15146 -5.195695 -1.012753 20
2.990727 -7.376371 -0.8911721 18
20.73937 -51.08586 2.212867 9
29.5709 -38.03548 2.800943 7
11.42345 -28.57423 2.499755 26
12.09557 -15.71512 2.430074 37
3.834678 -9.586603 1.874763 43
11.47131 -15.00155 5.04956 43
nan nan nan 0
16.67586 -26.10884 0 18
4.757936 -9.202568 -0.05403515 21
9.862695 -24.28659 -0.3060758 19
29.52453 -37.81242 1.414279 16
53.37885 -83.30949 2.296244 106
4.765659 -9.174507 0.1761649 38
16.2734 -39.86264 0.5255754 26
nan nan nan 0
nan nan nan 0
4.504163 -5.788577 -1.013552 27
5.822738 -7.616081 -0.904165 41
7.624134 -9.898139 -0.7988422 13
nan nan nan 0
4.697388 -9.167261 -0.7751129 18
3.538564 -8.787448 -0.7706087 35
10.36605 -13.27228 -0.6836132 17
8.046258 -12.52732 -0.6924626 15
4.749607 -9.163002 -0.5387987 13
4.791391 -11.73259 -0.7350878 9
13.71937 -17.69588 -0.3901485 31
11.46176 -17.98784 -0.4942738 15
4.74453 -9.215956 -0.3010459 15
6.192103 -15.2884 -0.5688763 9
2.133311 -5.203173 -1.012753 18
2.963113 -7.382154 -0.890613 18
16.04405 -39.9162 1.726269 17
13.60331 -17.62865 1.293301 36
11.3328 -28.6371 2.501781 18
12.0316 -15.74542 2.428246 39
3.781298 -9.549612 1.8649 42
11.45393 -15.08765 5.065089 45
13.64757 -17.62883 0.1281789 21
16.68367 -26.32314 0 18
4.732624 -9.232469 -0.05411369 26
9.703298 -24.1353 -0.3037371 17
nan nan nan 0
53.49539 -84.13646 2.313884 106
4.745046 -9.21331 0.1765925 37
16.18285 -40.03973 0.5271636 28
nan nan nan 0
nan nan nan 0
4.480898 -5.800347 -1.012864 28
5.790094 -7.628433 -0.9032222 40
7.586504 -9.92073 -0.7985221 13
nan nan nan 0
4.683418 -9.219167 -0.7781259 29
3.498655 -8.776595 -0.7685732 38
10.28903 -13.26891 -0.6815805 16
7.981 -12.52164 -0.6905993 16
4.726719 -9.19729 -0.5398453 12
4.748538 -11.74461 -0.7347974 9
13.63617 -17.71593 -0.3895377 35
11.41493 -18.05309 -0.4949701 16
4.716875 -9.241366 -0.3013373 16
6.12755 -15.28209 -0.5678397 9
2.113289 -5.206028 -1.011861 21
2.935495 -7.387833 -0.8900539 19
30.79611 -77.41164 3.344584 177
13.55991 -17.6998 1.295044 14
11.24912 -28.71825 2.50543 20
11.98257 -15.79523 2.429465 33
3.78379 -9.654367 1.882832 43
11.68907 -15.50929 5.193204 34
13.62252 -17.72392 0.1285245 43
16.60765 -26.40662 0 20
13.88962 -27.33845 -0.1603514 21
nan nan nan 0
13.58948 -17.66189 0.6563397 37
nan nan nan 0
4.710584 -9.225365 0.176507 22
16.06155 -40.1424 0.5277745 33
nan nan nan 0
nan nan nan 0
4.454591 -5.808099 -1.011488 27
5.775421 -7.664493 -0.9051078 40
7.545791 -9.939206 -0.7978821 12
5.912577 -9.450665 -0.7767382 24
4.707253 -9.346792 -0.7875417 21
3.460692 -8.770208 -0.7669449 37
10.22436 -13.281 -0.6803608 17
7.947924 -12.5663 -0.6915309 14
4.705917 -9.235981 -0.5411538 13
4.703806 -11.75185 -0.7342165 9
13.5955 -17.79122 -0.3901485 32
11.36247 -18.10976 -0.4954344 15
nan nan nan 0
6.063117 -15.27551 -0.5668032 10
2.095104 -5.213374 -1.011861 21
2.907873 -7.39341 -0.8894948 17
30.61904 -77.75576 3.354817 136
nan nan nan 0
11.07498 -28.56682 2.488811 28
nan nan nan 0
3.716314 -9.580363 1.865797 42
11.60592 -15.51134 5.180263 42
nan nan nan 0
16.52597 -26.48139 0 20
13.74013 -27.27959 -0.1597231 35
nan nan nan 0
nan nan nan 0
nan nan nan 0
nan nan nan 0
15.95814 -40.29119 0.5289961 31
nan nan nan 0
nan nan nan 0
4.431287 -5.819674 -1.0108 28
5.721777 -7.648748 -0.9008651 37
7.508045 -9.961501 -0.797562 12
5.882184 -9.475484 -0.777087 23
4.674598 -9.363167 -0.7875417 18
3.435488 -8.796163 -0.7681661 37
10.15669 -13.28883 -0.6789379 18
7.901355 -12.58974 -0.691298 15
nan nan nan 0
4.66092 -11.76355 -0.7339261 9
13.52122 -17.82264 -0.3897995 26
11.33882 -18.21296 -0.4971752 15
8.310464 -16.56982 -0.5392888 10
5.998804 -15.26868 -0.5657668 9
2.075079 -5.216082 -1.010969 21
2.880248 -7.398884 -0.8889357 18
nan nan nan 0
nan nan nan 0
10.96449 -28.57738 2.486378 12
11.87498 -15.88247 2.430074 41
3.612435 -9.409552 1.829934 44
11.53442 -15.5285 5.172498 43
nan nan nan 0
16.44922 -26.56442 0 19
nan nan nan 0
9.513562 -24.39864 -0.3057835 22
nan nan nan 0
nan nan nan 0
nan nan nan 0
15.83747 -40.39785 0.5296681 20
nan nan nan 0
nan nan nan 0
4.407956 -5.831159 -1.010112 26
5.692073 -7.66468 -0.9003938 41
7.467245 -9.979661 -0.7969219 13
nan nan nan 0
4.540197 -9.173857 -0.7702166 31
3.393999 -8.780205 -0.7657236 37
10.09211 -13.30033 -0.6777183 17
7.862642 -12.62572 -0.6917638 14
6.073925 -12.1307 -0.7088905 12
4.616188 -11.77046 -0.7333452 8
nan nan nan 0
11.29094 -18.27794 -0.4978715 16
8.265921 -16.62559 -0.5401631 10
5.934612 -15.26158 -0.5647302 9
2.05506 -5.218714 -1.010077 18
2.852621 -7.404254 -0.8883767 18
nan nan nan 0
nan nan nan 0
11.97148 -31.53225 2.740124 8
11.74254 -15.82024 2.414232 34
3.579567 -9.422104 1.829934 49
11.46007 -15.54146 5.16344 38
nan nan nan 0
16.3721 -26.64724 0 22
nan nan nan 0
nan nan nan 0
nan nan nan 0
nan nan nan 0
nan nan nan 0
15.75963 -40.61603 0.5318061 17
nan nan nan 0
0.2043688 -0.2771681 -0.07961464 10
4.384598 -5.842551 -1.009424 26
5.656415 -7.672486 -0.8989795 41
7.429388 -10.00166 -0.7966018 13
nan nan nan 0
4.554242 -9.283659 -0.7781259 22
3.372218 -8.815276 -0.767759 33
10.03059 -13.31553 -0.6767019 18
7.802767 -12.6276 -0.6903663 15
6.031544 -12.15182 -0.7088905 13
4.573269 -11.78184 -0.7330548 9
nan nan nan 0
11.26103 -18.37265 -0.4993802 16
8.203419 -16.64537 -0.5398717 9
5.86875 -15.24955 -0.5635209 9
2.035049 -5.22127 -1.009184 18
2.824991 -7.409523 -0.8878176 20
nan nan nan 0
nan nan nan 0
13.82159 -36.79454 3.193703 15
11.66663 -15.83317 2.409966 31
3.538014 -9.411514 1.825451 46
11.39148 -15.56189 5.156969 40
nan nan nan 0
16.33365 -26.79388 0 22
13.24452 -26.99553 -0.157236 21
9.298429 -24.34769 -0.3043218 18
nan nan nan 0
nan nan nan 0
19.36184 -39.27536 0.7483589 17
nan nan nan 0
nan nan nan 0
0.1975544 -0.27017 -0.07708719 9
4.361216 -5.853851 -1.008736 28
5.58547 -7.631956 -0.8919083 48
7.388503 -10.0195 -0.7959617 13
5.640362 -9.302009 -0.7579041 47
4.441172 -9.133581 -0.7641904 39
3.346711 -8.84098 -0.7689803 30
9.966088 -13.32646 -0.6754822 18
7.748196 -12.63773 -0.6894346 14
5.971459 -12.13696 -0.7067971 13
4.523175 -11.77443 -0.7316025 9
13.97767 -18.83017 -0.4086481 30
11.14748 -18.3307 -0.4971752 17
8.134299 -16.65145 -0.5391431 10
5.8066 -15.24659 -0.5626572 9
2.015044 -5.22375 -1.008292 20
2.797359 -7.414689 -0.8872585 18
nan nan nan 0
nan nan nan 0
13.60803 -36.61366 3.173841 17
11.40025 -15.58546 2.366093 32
3.49658 -9.400751 1.820968 45
11.28881 -15.53515 5.13497 42
nan nan nan 0
16.27366 -26.90635 0 19
13.1349 -27.01012 -0.1570527 22
9.222215 -24.40338 -0.3046141 18
nan nan nan 0
nan nan nan 0
19.20488 -39.30229 0.7475893 18
nan nan nan 0
nan nan nan 0
0.2140663 -0.2940483 -0.08466953 10
4.334859 -5.86108 -1.00736 27
5.409471 -7.446104 -0.8678665 99
7.347586 -10.03718 -0.7953217 12
5.594998 -9.300272 -0.7561601 41
4.411426 -9.153521 -0.7645671 45
3.314085 -8.847939 -0.7685732 32
9.895673 -13.32909 -0.673856 18
7.693651 -12.64763 -0.688503 15
5.946562 -12.19363 -0.7088905 13
4.49445 -11.82282 -0.7336357 9
13.95636 -18.9392 -0.409957 37
11.08601 -18.37378 -0.4972912 16
8.054348 -16.63476 -0.5376859 10
5.74278 -15.23871 -0.5616207 9
1.995047 -5.226154 -1.0074 20
2.769726 -7.419753 -0.8866994 19
nan nan nan 0
54.46865 -74.24078 5.355308 7
13.4492 -36.57673 3.166545 23
11.32536 -15.59705 2.361828 37
3.472224 -9.435985 1.825451 103
11.44368 -15.86426 5.230732 44
22.36634 -30.39075 0.2171064 15
16.19508 -26.98871 0 21
13.06007 -27.09634 -0.1572884 20
9.152726 -24.47757 -0.3051403 16
nan nan nan 0
38.56613 -64.06185 1.735123 12
19.00438 -39.23861 0.7451093 17
16.12679 -42.88949 0.5593554 15
nan nan nan 0
0.2072469 -0.2870433 -0.08214208 10
4.31144 -5.872186 -1.006671 26
5.46212 -7.573905 -0.8805946 81
7.3037 -10.05066 -0.7943615 13
5.600853 -9.383984 -0.7613919 42
4.353672 -9.114872 -0.7600475 42
3.281451 -8.854781 -0.7681661 35
9.855018 -13.37159 -0.6742625 17
7.639129 -12.65731 -0.6875713 14
5.895272 -12.19633 -0.7078438 13
4.449641 -11.82909 -0.7330548 10
13.95512 -19.07656 -0.4118768 18
10.96531 -18.31801 -0.494738 17
7.972454 -16.6132 -0.5360832 9
5.680831 -15.23525 -0.5607569 9
1.976793 -5.233087 -1.0074 17
2.742091 -7.424713 -0.8861403 18
nan nan nan 0
12.02721 -16.52088 1.186712 16
13.25162 -36.43143 3.149926 13
11.28827 -15.66064 2.365484 21
3.454385 -9.489656 1.83352 84
11.3151 -15.80203 5.197086 42
22.35453 -30.59782 0.2180279 42
16.14937 -27.1267 0 21
12.98696 -27.18688 -0.1575502 22
nan nan nan 0
nan nan nan 0
38.32433 -64.16605 1.734311 24
14.59053 -30.39438 0.5760423 26
16.0676 -43.18919 0.5625318 13
nan nan nan 0
0.2177728 -0.3033061 -0.08719698 8
4.285077 -5.8792 -1.005295 28
5.351555 -7.475595 -0.8669236 75
7.259809 -10.06396 -0.7934014 13
5.568063 -9.403477 -0.7613919 41
nan nan nan 0
3.235108 -8.824061 -0.7645024 36
9.802379 -13.39785 -0.673856 16
7.584635 -12.66675 -0.6866397 14
5.84835 -12.20783 -0.7073204 13
4.399628 -11.82115 -0.7316025 8
12.08422 -16.64185 -0.3582979 13
10.95236 -18.44213 -0.4970591 16
7.907976 -16.62739 -0.535646 9
5.618976 -15.23154 -0.5598931 9
1.956796 -5.235345 -1.006507 18
2.714455 -7.429571 -0.8855813 17
nan nan nan 0
11.94314 -16.52636 1.184098 40
10.75318 -29.88402 2.580013 16
11.55709 -16.15189 2.433731 37
3.512749 -9.756252 1.882832 57
11.22068 -15.78633 5.178969 43
12.01544 -16.57163 0.1176677 23
16.08002 -27.22596 0 21
12.92407 -27.29984 -0.1579428 24
nan nan nan 0
11.84283 -16.31581 0.5936697 44
nan nan nan 0
14.49508 -30.46769 0.5764698 12
nan nan nan 0
nan nan nan 0
nan nan nan 0
4.261621 -5.890111 -1.004607 30
5.437968 -7.652412 -0.8853086 47
7.218821 -10.08113 -0.7927613 12
5.530151 -9.414256 -0.7606943 42
nan nan nan 0
3.189021 -8.793129 -0.7608387 39
9.752614 -13.42794 -0.6736528 17
7.530168 -12.67598 -0.685708 15
5.792855 -12.20111 -0.7057503 13
4.208457 -11.42886 -0.7063349 10
11.97634 -16.615 -0.3568144 38
10.92091 -18.53624 -0.4985678 16
7.843496 -16.64133 -0.5352088 9
5.557216 -15.22759 -0.5590294 9
1.938509 -5.242144 -1.006507 21
2.686819 -7.434328 -0.8850222 18
13.51431 -37.33708 1.593232 31
11.89994 -16.58822 1.185551 13
nan nan nan 0
11.48627 -16.17191 2.430684 40
3.508329 -9.851883 1.898971 44
11.16551 -15.8254 5.178969 28
11.94875 -16.6013 0.1175813 37
16.0051 -27.31643 0 23
12.83719 -27.36289 -0.1580476 25
nan nan nan 0
11.93195 -16.55976 0.6010426 35
nan nan nan 0
18.86104 -40.00523 0.7558844 23
nan nan nan 0
nan nan nan 0
nan nan nan 0
4.238143 -5.900931 -1.003919 29
5.399737 -7.655085 -0.883423 46
7.17491 -10.09407 -0.7918012 13
nan nan nan 0
4.257984 -9.159964 -0.7600475 35
3.149908 -8.780748 -0.7588032 36
9.708605 -13.46595 -0.673856 14
7.475729 -12.68498 -0.6847764 15
5.739604 -12.19866 -0.704442 13
nan nan nan 0
11.90663 -16.64044 -0.3564654 22
nan nan nan 0
7.789588 -16.67766 -0.5355003 9
5.495552 -15.22339 -0.5581656 9
1.920199 -5.248878 -1.006507 19
2.659183 -7.438981 -0.8844631 20
13.50846 -37.73211 1.608081 13
nan nan nan 0
12.8479 -36.50709 3.144657 12
nan nan nan 0
3.436394 -9.757336 1.878349 50
nan nan nan 0
nan nan nan 0
13.14302 -22.61286 0 18
12.76899 -27.46648 -0.1583879 22
nan nan nan 0
nan nan nan 0
nan nan nan 0
18.82708 -40.2973 0.7601603 23
16.44769 -45.66948 0.5925856 8
nan nan nan 0
nan nan nan 0
4.214642 -5.911659 -1.003231 29
5.387269 -7.694266 -0.88578 41
7.133874 -10.1109 -0.791161 13
5.584145 -9.659889 -0.7774358 22
4.209304 -9.138539 -0.7570344 37
3.130883 -8.824573 -0.7616528 31
9.615 -13.43477 -0.6706036 17
7.421319 -12.69375 -0.6838446 14
5.69066 -12.20505 -0.7036569 13
nan nan nan 0
nan nan nan 0
nan nan nan 0
7.70614 -16.65032 -0.5337517 9
5.435664 -15.22365 -0.5574746 9
1.901865 -5.255549 -1.006507 23
2.631547 -7.443532 -0.883904 18
nan nan nan 0
nan nan nan 0
12.36018 -35.51619 3.055481 14
nan nan nan 0
3.292478 -9.453331 1.817381 109
10.91963 -15.70869 5.115558 18
22.30708 -31.4452 0.2218293 44
13.05402 -22.64127 0 30
12.66885 -27.5018 -0.1583356 30
8.577347 -24.21882 -0.2999952 17
nan nan nan 0
13.05949 -22.57803 0.6046411 36
18.7451 -40.4898 0.7625548 18
13.46388 -37.79508 0.4897185 25
nan nan nan 0
0.1965502 -0.2827663 -0.07961464 9
4.191116 -5.922295 -1.002543 28
5.366064 -7.721196 -0.8867228 43
7.092808 -10.12757 -0.7905209 14
5.634775 -9.826426 -0.7892944 18
4.167032 -9.130494 -0.7551512 37
3.103355 -8.844854 -0.762467 37
9.568044 -13.46826 -0.6706036 16
7.369445 -12.70662 -0.6831459 16
5.627085 -12.17951 -0.7010401 14
4.120345 -11.56165 -0.7118531 12
13.73245 -19.47652 -0.41528 31
nan nan nan 0
7.631309 -16.64078 -0.532586 10
5.375841 -15.22369 -0.5567836 9
1.883508 -5.262156 -1.006507 21
2.603912 -7.447981 -0.8833449 17
nan nan nan 0
nan nan nan 0
12.46305 -36.21888 3.112229 33
10.78098 -15.5211 2.315517 21
3.243469 -9.418248 1.808416 72
10.82082 -15.68312 5.094853 44
nan nan nan 0
nan nan nan 0
12.56863 -27.53676 -0.1582832 31
8.517529 -24.3194 -0.3008722 20
nan nan nan 0
13.00051 -22.65817 0.6055696 7
18.62658 -40.60497 0.7634954 17
16.26629 -46.1746 0.5976557 16
nan nan nan 0
0.1927479 -0.2795157 -0.07835092 10
4.167568 -5.932838 -1.001855 24
5.341908 -7.743977 -0.8871943 40
7.051714 -10.14408 -0.7898809 14
5.632507 -9.902392 -0.7938287 18
4.170042 -9.222222 -0.761554 33
3.070831 -8.850924 -0.7620599 35
9.520973 -13.50157 -0.6706036 18
7.320063 -12.7236 -0.6826801 16
5.584537 -12.19907 -0.7010401 14
4.078304 -11.57126 -0.7115627 11
13.67872 -19.54481 -0.4157163 28
nan nan nan 0
7.558706 -16.63546 -0.531566 8
5.316085 -15.22348 -0.5560926 8
1.865128 -5.268699 -1.006507 19
2.577898 -7.457025 -0.8833449 18
54.09527 -156.2892 6.641009 14
60.2181 -86.4266 6.1267 14
12.25954 -36.03569 3.092772 25
10.73238 -15.56681 2.316736 28
3.213739 -9.438828 1.810209 101
nan nan nan 0
nan nan nan 0
15.87136 -27.97646 0 27
12.46625 -27.5668 -0.1582046 27
8.411331 -24.28756 -0.3001121 27
nan nan nan 0
nan nan nan 0
18.51575 -40.73801 0.7647782 17
16.15105 -46.3633 0.5993661 15
nan nan nan 0
0.2057725 -0.2999107 -0.08466953 10
4.143998 -5.943289 -1.001167 27
5.297957 -7.737942 -0.8843658 41
7.010591 -10.16042 -0.7892407 12
5.561133 -9.856835 -0.7885969 18
4.115414 -9.186666 -0.757411 32
3.031846 -8.838017 -0.7600245 35
9.465186 -13.52245 -0.6699938 17
7.268177 -12.73607 -0.6819813 15
5.548106 -12.23213 -0.7018251 13
4.014918 -11.51942 -0.7074966 11
13.62468 -19.61296 -0.4161526 31
10.53172 -18.6109 -0.4955505 12
7.496489 -16.65263 -0.5312746 9
5.256395 -15.22305 -0.5554015 9
1.845104 -5.270532 -1.005615 20
2.550249 -7.461276 -0.8827859 18
19.63778 -57.37295 2.433993 26
59.8763 -86.57881 6.122634 13
12.23212 -36.37114 3.117904 12
10.63872 -15.54685 2.308205 40
3.166673 -9.408023 1.802139 44
10.7491 -15.81419 5.11297 8
nan nan nan 0
15.81039 -28.09706 0 25
12.35768 -27.58277 -0.1580476 25
8.310313 -24.26947 -0.2995274 17
nan nan nan 0
nan nan nan 0
nan nan nan 0
16.0233 -46.51867 0.6006488 15
nan nan nan 0
0.2130839 -0.3124908 -0.08846071 9
4.117584 -5.949578 -0.9997905 26
5.268115 -7.752273 -0.8838944 40
6.97226 -10.18071 -0.7889207 13
5.468219 -9.771734 -0.7802261 30
4.073213 -9.178187 -0.7555279 35
2.999379 -8.843824 -0.7596174 36
9.435039 -13.58002 -0.6712134 16
7.223675 -12.76136 -0.6819813 15
5.50742 -12.25598 -0.7020869 13
3.942198 -11.43897 -0.7016879 13
13.55045 -19.65217 -0.4159781 34
10.44712 -18.61268 -0.494622 15
7.430174 -16.66043 -0.5306917 8
5.196774 -15.22239 -0.5547106 9
1.826696 -5.27694 -1.005615 20
2.522601 -7.465424 -0.8822268 18
19.48062 -57.56893 2.439411 105
60.08788 -87.53624 6.175492 8
12.2308 -36.79196 3.150331 25
11.31523 -16.65929 2.467854 33
3.138464 -9.433024 1.804829 81
nan nan nan 0
nan nan nan 0
15.73902 -28.2001 0 20
12.25321 -27.60745 -0.1579428 27
8.255985 -24.38832 -0.3006383 19
54.56994 -79.14308 2.835193 11
nan nan nan 0
15.70962 -35.21402 0.6589082 23
15.9011 -46.69264 0.602176 16
nan nan nan 0
0.2092191 -0.3092684 -0.08719698 10
4.093984 -5.959835 -0.9991025 25
5.221523 -7.741737 -0.8805946 40
6.931066 -10.19674 -0.7882805 13
5.429234 -9.78204 -0.7795286 31
4.04115 -9.19235 -0.7555279 35
2.965327 -8.84479 -0.7588032 33
9.353526 -13.56353 -0.6687741 17
7.166857 -12.76472 -0.6808168 15
5.466636 -12.27969 -0.7023485 13
3.926361 -11.52354 -0.7060444 13
13.4733 -19.68698 -0.4157163 35
10.41856 -18.71455 -0.4963628 15
7.365915 -16.67255 -0.5302545 9
5.13722 -15.2215 -0.5540195 9
1.806676 -5.278628 -1.004723 22
2.493385 -7.464756 -0.8811086 20
19.29222 -57.67448 2.441016 59
59.8185 -87.79908 6.179268 13
11.9126 -36.25679 3.10088 13
11.25423 -16.69457 2.467245 38
3.105518 -9.443922 1.804829 107
nan nan nan 0
nan nan nan 0
nan nan nan 0
12.14269 -27.61802 -0.1577596 27
8.153363 -24.36483 -0.2999952 19
54.35262 -79.4197 2.838289 96
nan nan nan 0
18.33061 -41.47839 0.7750402 17
15.76513 -46.82842 0.6032144 9
nan nan nan 0
0.2108971 -0.3139707 -0.08846071 9
4.067569 -5.965909 -0.9977263 27
5.186153 -7.747512 -0.8791803 42
6.89264 -10.21673 -0.7879605 13
nan nan nan 0
3.993121 -9.169829 -0.7525148 32
2.93287 -8.850354 -0.7583961 35
9.289185 -13.57136 -0.6675545 17
7.102812 -12.75476 -0.6789534 15
5.421724 -12.29413 -0.7020869 13
3.868608 -11.48514 -0.7028496 16
13.38202 -19.70081 -0.4150182 30
nan nan nan 0
7.297657 -16.67527 -0.529526 9
5.085636 -15.24408 -0.5541922 9
1.788239 -5.284903 -1.004723 21
2.465758 -7.468696 -0.8805496 19
19.08451 -57.7225 2.440214 112
nan nan nan 0
3.202008 -9.848016 0.8390615 34
nan nan nan 0
3.060393 -9.417272 1.797656 66
nan nan nan 0
20.79579 -30.656 0.2131323 9
5.196335 -9.467657 0 14
12.06018 -27.69232 -0.1579428 26
8.022763 -24.25548 -0.2982996 16
nan nan nan 0
5.181544 -9.409731 0.2484715 27
18.26991 -41.73448 0.7786319 17
14.28856 -42.93613 0.5523917 23
nan nan nan 0
0.1960751 -0.2947875 -0.08214208 10
4.043941 -5.975972 -0.9970382 28
5.139781 -7.736556 -0.8758804 40
6.854156 -10.23659 -0.7876405 13
5.171947 -9.473878 -0.7519748 16
3.955167 -9.169974 -0.7513849 34
2.901959 -8.860538 -0.7583961 34
9.222095 -13.57479 -0.6661316 17
7.067906 -12.79696 -0.679885 13
5.376778 -12.30841 -0.7018251 12
3.820621 -11.47489 -0.7013975 10
13.33274 -19.77642 -0.415629 30
5.18263 -9.466165 -0.2496321 6
7.229468 -16.67772 -0.5287974 10
5.023014 -15.23326 -0.5531558 9
1.768224 -5.286446 -1.003831 19
2.438135 -7.472532 -0.8799905 19
18.87204 -57.75552 2.438809 120
58.1776 -86.68522 6.072098 12
3.170656 -9.868625 0.8398722 39
12.39523 -18.66591 2.746325 18
3.041013 -9.470057 1.805726 101
nan nan nan 0
20.63 -30.64132 0.2125276 8
5.117823 -9.402306 0 11
11.92384 -27.64243 -0.1574192 24
7.92718 -24.25006 -0.2978904 15
54.02876 -80.14116 2.850529 78
5.136683 -9.405826 0.2478913 17
18.14599 -41.84845 0.7795726 17
15.50965 -47.15582 0.6060243 11
nan nan nan 0
0.1813898 -0.2755049 -0.07582346 11
4.017527 -5.981833 -0.995662 28
5.120971 -7.766912 -0.8772946 40
6.815618 -10.25629 -0.7873205 12
5.100839 -9.4217 -0.7463942 16
3.923134 -9.183725 -0.7513849 33
2.869481 -8.865872 -0.757989 37
9.16068 -13.58619 -0.6651152 17
nan nan nan 0
5.329816 -12.31793 -0.7013018 13
3.300614 -10.02758 -0.6119439 9
13.27197 -19.8353 -0.4158908 37
5.120924 -9.431487 -0.2482394 6
7.15938 -16.67529 -0.5279231 11
nan nan nan 0
1.74976 -5.292586 -1.003831 22
2.408993 -7.471537 -0.8788723 18
3.195791 -9.882362 0.4155647 20
57.88849 -86.90855 6.07355 10
3.133178 -9.870131 0.8390615 42
12.31634 -18.68834 2.743279 30
3.012393 -9.494683 1.808416 47
nan nan nan 0
18.78911 -28.1193 0.1945578 13
5.049334 -9.354121 0 11
11.78603 -27.58733 -0.1568695 24
3.201152 -9.89917 -0.1212025 16
53.84319 -80.47048 2.855542 119
5.070481 -9.36217 0.2462665 15
12.49617 -29.09531 0.5409803 16
15.40212 -47.3856 0.6082845 6
nan nan nan 0
0.1831441 -0.280139 -0.07708719 10
3.993872 -5.991703 -0.994974 27
5.085644 -7.77225 -0.8758804 37
6.777027 -10.27586 -0.7870004 13
5.015998 -9.342776 -0.738721 14
3.834743 -9.064192 -0.7404625 38
2.838516 -8.875834 -0.757989 34
9.096521 -13.59318 -0.6638955 17
5.111148 -9.409806 -0.4975109 7
5.282854 -12.32728 -0.7007784 14
3.256341 -10.01056 -0.6102013 12
13.21648 -19.90233 -0.4163271 28
5.028707 -9.339286 -0.2453381 7
7.091353 -16.67719 -0.5271946 10
3.181462 -9.873513 -0.3572536 35
1.729751 -5.293983 -1.002938 20
2.381393 -7.475165 -0.8783132 19
3.15824 -9.883937 0.4151634 40
nan nan nan 0
3.104661 -9.900032 0.8406829 37
11.48743 -17.56433 2.572052 36
2.985105 -9.523918 1.812002 45
nan nan nan 0
18.75994 -28.28888 0.1952777 36
4.978884 -9.301166 0 9
11.70914 -27.67435 -0.1571313 28
3.163539 -9.900758 -0.1210856 30
53.65321 -80.79533 2.860409 147
4.985719 -9.28294 0.2437133 15
12.39649 -29.14336 0.5410658 28
3.168665 -9.851809 0.1259573 38
nan nan nan 0
nan nan nan 0
3.970198 -6.001478 -0.9942859 27
5.080189 -7.82334 -0.8796517 39
6.738382 -10.29528 -0.7866803 13
4.943495 -9.28539 -0.7327917 11
3.812709 -9.100516 -0.7423456 33
2.806017 -8.880935 -0.7575819 35
9.029659 -13.59572 -0.6624727 18
nan nan nan 0
5.235891 -12.33646 -0.7002551 14
3.177151 -9.88403 -0.6017787 17
13.16068 -19.96921 -0.4167634 32
4.960748 -9.290647 -0.2435973 6
7.031156 -16.69723 -0.5270488 8
3.151517 -9.898844 -0.3577719 34
1.711262 -5.299989 -1.002938 20
2.353797 -7.478692 -0.8777542 18
3.119215 -9.880608 0.4145614 42
57.07771 -87.00172 6.052058 11
nan nan nan 0
11.36389 -17.50859 2.558038 41
2.973624 -9.604775 1.825451 116
nan nan nan 0
18.84529 -28.63399 0.1972072 39
4.897141 -9.225753 0 9
11.57963 -27.63665 -0.1566862 23
3.121447 -9.887897 -0.1207932 40
53.69541 -81.47452 2.877809 200
4.918026 -9.234115 0.2419725 15
nan nan nan 0
3.141816 -9.886639 0.1262627 39
nan nan nan 0
0.2107636 -0.3256465 -0.09098815 10
3.946503 -6.011163 -0.9935977 28
5.042054 -7.824295 -0.877766 39
6.699684 -10.31455 -0.7863603 13
4.876113 -9.23643 -0.7275599 9
3.763732 -9.072319 -0.7389559 35
2.764626 -8.85737 -0.7547324 34
8.982147 -13.62716 -0.6624727 17
nan nan nan 0
5.188928 -12.34545 -0.6997317 13
3.147155 -9.909334 -0.60265 23
13.069 -19.98156 -0.4160654 33
4.890851 -9.237231 -0.2417404 6
6.972829 -16.72167 -0.5270488 9
3.112455 -9.895483 -0.3572536 37
1.692751 -5.30593 -1.002938 19
2.324734 -7.477371 -0.876636 18
3.087676 -9.900976 0.4149627 40
56.42776 -86.6692 6.015173 13
nan nan nan 0
10.679 -16.58037 2.416669 36
2.941515 -9.619802 1.826347 109
12.90423 -20.17191 6.405771 3
nan nan nan 0
4.820644 -9.158733 0 20
11.49267 -27.7 -0.1568171 23
3.088398 -9.903507 -0.1208517 39
53.58852 -81.93332 2.887393 209
4.8484 -9.180511 0.2401156 17
17.98523 -43.11743 0.7984719 18
3.105791 -9.892775 0.1262016 40
nan nan nan 0
0.1882255 -0.2941338 -0.08087836 9
3.922789 -6.020755 -0.9929097 25
4.942243 -7.728662 -0.865038 45
6.663639 -10.33788 -0.7863603 14
4.804505 -9.178278 -0.7216306 18
3.718786 -9.053116 -0.7363195 34
2.726365 -8.843152 -0.752697 35
8.929051 -13.65007 -0.6620661 17
nan nan nan 0
5.141967 -12.35427 -0.6992083 13
3.103595 -9.89168 -0.6009074 27
12.98011 -19.99771 -0.4154545 29
4.816739 -9.17459 -0.2396514 16
6.906789 -16.72743 -0.526466 9
3.080854 -9.915832 -0.3575991 36
1.672745 -5.307113 -1.002046 18
2.295709 -7.475939 -0.8755178 20
nan nan nan 0
56.16822 -86.93271 6.01982 11
12.94537 -42.91154 3.642419 30
10.60502 -16.59246 2.413013 36
2.848308 -9.4322 1.788691 113
12.75606 -20.09452 6.366949 40
nan nan nan 0
4.786331 -9.171071 0 34
11.4035 -27.75845 -0.1569218 22
nan nan nan 0
53.49268 -82.41332 2.897716 219
4.793128 -9.153101 0.2389551 46
nan nan nan 0
3.078632 -9.927435 0.126507 36
nan nan nan 0
0.2005023 -0.3149896 -0.08719698 10
3.899057 -6.030254 -0.9922217 30
4.920574 -7.754268 -0.8659807 44
6.630203 -10.36528 -0.7866803 14
4.765543 -9.181714 -0.7205843 16
3.69655 -9.089137 -0.7382028 32
2.686788 -8.824005 -0.7502545 35
8.878627 -13.67696 -0.6618628 15
nan nan nan 0
5.095007 -12.36291 -0.698685 13
3.079374 -9.935833 -0.6029404 27
12.95085 -20.10593 -0.4167634 29
4.766212 -9.15588 -0.238723 23
6.857812 -16.77457 -0.5271946 10
3.044759 -9.921747 -0.3574263 10
1.654209 -5.31292 -1.002046 19
2.26816 -7.479151 -0.8749588 21
nan nan nan 0
55.76743 -86.97698 6.009364 11
12.77133 -42.87526 3.635528 25
10.6534 -16.79698 2.437387 37
2.806949 -9.413798 1.783311 113
12.84034 -20.38408 6.444594 8
18.47136 -28.71624 0.1964296 31
4.758886 -9.196604 0 23
11.32349 -27.83977 -0.1571575 26
nan nan nan 0
53.44827 -82.97767 2.910987 209
4.765757 -9.178647 0.2391872 43
nan nan nan 0
3.048345 -9.952465 0.1266903 8
nan nan nan 0
0.1914611 -0.3035394 -0.08340581 10
3.875306 -6.039662 -0.9915335 29
4.927988 -7.826137 -0.8721091 40
6.577925 -10.36309 -0.78476 13
4.747162 -9.2249 -0.722677 15
3.64991 -9.064982 -0.7351897 35
2.658834 -8.842877 -0.7510687 33
8.822711 -13.69528 -0.661253 16
4.770754 -9.160938 -0.4798093 18
5.048051 -12.37137 -0.6981617 13
3.049048 -9.960842 -0.6038117 18
12.98833 -20.31948 -0.4202539 30
4.752571 -9.207994 -0.2396514 16
6.778594 -16.74744 -0.5255917 10
4.629078 -15.28447 -0.5507372 6
1.634212 -5.313958 -1.001154 22
2.240617 -7.482262 -0.8743997 21
nan nan nan 0
55.49833 -87.22587 6.01314 12
12.54288 -42.65183 3.612828 23
10.62115 -16.87606 2.44348 32
2.793481 -9.489613 1.795863 110
nan nan nan 0
nan nan nan 0
4.729038 -9.217608 0 28
11.14595 -27.67968 -0.1560317 25
7.174387 -23.90971 -0.291459 17
53.44365 -83.61009 2.926618 182
4.742844 -9.213003 0.2396514 45
nan nan nan 0
nan nan nan 0
nan nan nan 0
0.1982984 -0.3163817 -0.08719698 9
3.851537 -6.048977 -0.9908454 28
4.884799 -7.817971 -0.8692807 46
6.531067 -10.3691 -0.7834799 14
4.737607 -9.285841 -0.7261649 26
3.62747 -9.100826 -0.7370728 33
2.623704 -8.83777 -0.7498474 37
8.766775 -13.71337 -0.6606432 18
4.745624 -9.190847 -0.480508 13
5.002966 -12.38429 -0.6978999 12
3.01426 -9.971425 -0.6038117 10
12.92 -20.36891 -0.4203412 31
4.724956 -9.233425 -0.2398836 17
6.703367 -16.72925 -0.5242803 10
4.577127 -15.30533 -0.5509099 6
1.615653 -5.31963 -1.001154 19
2.211675 -7.480506 -0.8732815 20
18.21069 -61.49831 2.574455 6
nan nan nan 0
12.39115 -42.68578 3.612018 31
nan nan nan 0
2.764449 -9.513478 1.798553 110
nan nan nan 0
17.69239 -27.93223 0.1902093 11
4.696834 -9.234058 0 6
11.00853 -27.61624 -0.1554558 18
7.124941 -24.04967 -0.2928622 18
53.5129 -84.36588 2.946524 174
4.710655 -9.229502 0.2396514 19
nan nan nan 0
nan nan nan 0
nan nan nan 0
0.1971928 -0.317072 -0.08719698 10
3.82775 -6.058199 -0.9901573 28
4.839102 -7.805369 -0.8659807 47
6.4816 -10.37069 -0.7818796 14
4.975405 -9.83638 -0.7680188 37
nan nan nan 0
2.595636 -8.856441 -0.7506616 35
8.716174 -13.73967 -0.6604398 17
4.72262 -9.22514 -0.4814397 14
4.955999 -12.3924 -0.6973766 13
3.485379 -11.68012 -0.7069157 13
12.85947 -20.43081 -0.4206902 29
9.19702 -18.12453 -0.470947 13
6.632035 -16.72002 -0.5232602 10
4.527913 -15.33559 -0.5514282 6
1.595665 -5.320524 -1.000261 18
2.184161 -7.483411 -0.8727224 18
nan nan nan 0
nan nan nan 0
12.23932 -42.7192 3.611207 30
12.66057 -20.42947 2.946191 29
2.724457 -9.499425 1.79407 42
nan nan nan 0
18.23883 -29.01814 0.1971784 31
nan nan nan 0
10.88821 -27.59403 -0.1551154 17
7.038145 -24.06479 -0.2927453 14
nan nan nan 0
nan nan nan 0
18.45966 -46.52424 0.8555117 10
nan nan nan 0
nan nan nan 0
0.1960848 -0.3177584 -0.08719698 10
3.803946 -6.06733 -0.9894693 26
4.850985 -7.885789 -0.873052 43
6.434834 -10.37629 -0.7805994 13
4.923147 -9.818021 -0.7652285 42
nan nan nan 0
2.564706 -8.865447 -0.7506616 37
8.662835 -13.76155 -0.6600333 17
6.562724 -12.92895 -0.6742951 11
4.910874 -12.40498 -0.6971149 13
3.440361 -11.67785 -0.7060444 13
12.80132 -20.49677 -0.4211265 29
nan nan nan 0
6.559021 -16.70585 -0.5220945 10
4.464578 -15.31772 -0.5502189 8
1.577083 -5.326061 -1.000261 21
2.156653 -7.486213 -0.8721634 18
16.65383 -57.71653 2.411118 15
nan nan nan 0
12.08336 -42.73768 3.609181 33
12.53457 -20.38478 2.933395 28
2.68326 -9.480474 1.788691 47
nan nan nan 0
18.28299 -29.31494 0.1987622 31
14.78352 -29.56477 0 30
10.71362 -27.4316 -0.1539897 17
nan nan nan 0
nan nan nan 0
nan nan nan 0
18.32456 -46.6582 0.8567944 17
nan nan nan 0
nan nan nan 0
0.1949744 -0.3184409 -0.08719698 10
3.780125 -6.076368 -0.9887812 26
4.789685 -7.847457 -0.8669236 43
6.398575 -10.39869 -0.7805994 14
4.864417 -9.786018 -0.7613919 40
3.505023 -9.06855 -0.7314233 27
2.533744 -8.874346 -0.7506616 35
8.625339 -13.80865 -0.6608464 15
6.508571 -12.93393 -0.6733634 14
4.8639 -12.41275 -0.6965916 13
3.409319 -11.72335 -0.7080774 15
12.74024 -20.55832 -0.4214756 35
8.867227 -17.78124 -0.4603861 21
6.489809 -16.70069 -0.5212203 10
4.412462 -15.33801 -0.5503917 8
1.557106 -5.32681 -0.9993691 18
2.129153 -7.488915 -0.8716043 18
18.42608 -64.70802 2.700669 12
nan nan nan 0
11.91268 -42.70279 3.602695 30
12.47109 -20.44111 2.935223 11
2.654112 -9.503998 1.79138 76
nan nan nan 0
nan nan nan 0
nan nan nan 0
10.56013 -27.31959 -0.1531519 17
6.842593 -24.01717 -0.2915759 15
nan nan nan 0
nan nan nan 0
18.17607 -46.75916 0.8574786 16
nan nan nan 0
nan nan nan 0
0.1964374 -0.3232145 -0.08846071 11
3.756286 -6.085314 -0.9880931 28
4.733873 -7.817308 -0.861738 41
6.359636 -10.4167 -0.7802793 14
4.828022 -9.798466 -0.7610431 38
3.471566 -9.076072 -0.7310467 33
2.524327 -8.959896 -0.757175 33
8.545485 -13.78773 -0.6584072 18
6.456693 -12.94317 -0.6726646 15
4.818737 -12.425 -0.6963298 13
3.362876 -11.71598 -0.7069157 19
12.68935 -20.63673 -0.4221737 35
nan nan nan 0
6.420712 -16.69526 -0.520346 9
4.357532 -15.34851 -0.5502189 8
1.537144 -5.327485 -0.9984767 20
2.10166 -7.491518 -0.8710452 23
nan nan nan 0
39.14809 -63.96952 4.361444 5
14.7467 -53.58916 4.517556 16
13.7802 -22.76406 3.262442 19
2.643085 -9.593837 1.806622 119
nan nan nan 0
18.12762 -29.52282 0.1993094 32
14.64292 -29.80188 0 26
10.48792 -27.417 -0.1534923 17
6.787108 -24.14198 -0.2928037 17
nan nan nan 0
nan nan nan 0
18.08094 -46.99962 0.8607283 11
nan nan nan 0
nan nan nan 0
0.1978694 -0.3280021 -0.08972443 12
3.729842 -6.089946 -0.9867169 29
4.72452 -7.863644 -0.865038 44
6.320649 -10.43457 -0.7799593 13
4.776272 -9.779407 -0.7582528 34
3.441627 -9.092799 -0.7314233 33
2.47306 -8.89662 -0.7510687 39
8.478975 -13.78769 -0.6569842 17
6.40483 -12.9522 -0.6719659 15
4.771759 -12.43242 -0.6958065 14
3.334184 -11.77088 -0.7095296 16
12.60943 -20.6681 -0.4219119 27
nan nan nan 0
6.349955 -16.68487 -0.519326 10
4.303929 -15.36363 -0.5502189 8
1.518538 -5.332818 -0.9984767 23
2.074175 -7.494019 -0.8704861 21
19.08667 -68.85038 2.868018 19
38.84423 -63.97352 4.35244 8
14.61697 -53.85194 4.535391 14
13.63164 -22.69717 3.24599 22
2.59542 -9.55078 1.79676 97
nan nan nan 0
17.9568 -29.47491 0.1985606 30
14.53004 -29.83484 0 26
10.37091 -27.39733 -0.1531781 17
6.587964 -23.75118 -0.2877755 23
nan nan nan 0
nan nan nan 0
17.97369 -47.21196 0.8634648 15
nan nan nan 0
nan nan nan 0
0.1992703 -0.3328036 -0.09098815 11
3.705986 -6.098699 -0.9860289 26
4.707245 -7.897184 -0.8669236 46
6.279043 -10.44802 -0.7793192 13
4.722541 -9.755617 -0.7551138 34
3.402875 -9.086078 -0.7299168 30
2.430154 -8.861937 -0.7474049 36
8.412569 -13.78736 -0.6555613 18
6.333192 -12.92066 -0.6691709 15
4.723017 -12.435 -0.6950215 14
3.283685 -11.74879 -0.7074966 21
12.52944 -20.69916 -0.4216501 28
8.724224 -17.96305 -0.4627072 19
6.277588 -16.66951 -0.5181602 10
4.250274 -15.37856 -0.5502189 9
1.498587 -5.333348 -0.9975845 19
2.046698 -7.496418 -0.869927 22
20.56024 -75.18628 3.129076 4
38.5769 -64.03604 4.347503 8
15.65265 -58.4761 4.920467 11
nan nan nan 0
2.672611 -9.973208 1.874763 43
12.32521 -20.83441 6.475652 17
17.76066 -29.38338 0.1975239 34
14.44972 -29.9349 0 26
10.39445 -27.75176 -0.1549584 17
6.524793 -23.84637 -0.2886525 20
nan nan nan 0
nan nan nan 0
17.84402 -47.36798 0.8651751 15
13.28716 -48.21867 0.6106057 8
nan nan nan 0
0.2031728 -0.3417406 -0.0935156 11
3.682115 -6.107358 -0.9853407 27
4.692331 -7.934984 -0.8692807 46
6.239977 -10.46559 -0.7789992 15
4.703567 -9.80352 -0.7575552 33
3.371138 -9.097901 -0.7299168 31
2.39661 -8.860744 -0.7465908 37
8.351448 -13.79528 -0.6545449 16
6.301151 -12.96964 -0.6705684 16
4.674314 -12.43738 -0.6942364 13
3.232056 -11.72168 -0.7051731 24
12.45453 -20.73849 -0.4215629 30
8.661468 -17.99339 -0.4627072 18
6.205406 -16.65386 -0.5169945 10
4.195254 -15.38848 -0.5500462 9
1.479961 -5.338547 -0.9975845 18
2.01923 -7.498718 -0.869368 19
20.24694 -75.06946 3.12125 22
nan nan nan 0
15.45225 -58.54484 4.921683 12
12.03543 -20.36122 2.899271 29
2.647814 -10.02053 1.881936 48
12.23529 -20.84815 6.466593 42
17.84061 -29.74961 0.1995686 31
14.3732 -30.04379 0 31
10.24019 -27.63315 -0.1540944 17
nan nan nan 0
38.44298 -64.01609 2.202004 13
14.45445 -30.10577 0.7744281 35
nan nan nan 0
13.07551 -48.10554 0.6085899 8
nan nan nan 0
0.2070153 -0.3507087 -0.09604306 13
3.658228 -6.115926 -0.9846526 27
4.674688 -7.968482 -0.8711663 46
6.198322 -10.47872 -0.7783591 14
4.67146 -9.824383 -0.7579041 31
3.337645 -9.104931 -0.7295401 30
2.365665 -8.869055 -0.7465908 38
8.290374 -13.80294 -0.6535285 15
6.251505 -12.98256 -0.6701025 14
4.629131 -12.44895 -0.6939747 14
3.219894 -11.83887 -0.7115627 17
12.38206 -20.78184 -0.4215629 27
8.566315 -17.95585 -0.4609663 21
6.131681 -16.63321 -0.5156831 9
4.140217 -15.3982 -0.5498735 9
1.460024 -5.338934 -0.9966922 19
1.990499 -7.496116 -0.8682498 21
nan nan nan 0
38.27913 -64.55711 4.364638 11
nan nan nan 0
11.89145 -20.27897 2.8816 37
2.628906 -10.0916 1.893591 50
nan nan nan 0
17.73921 -29.816 0.1995974 38
14.28109 -30.12089 0 32
nan nan nan 0
6.414684 -24.10394 -0.2912251 18
38.28324 -64.25723 2.205691 15
nan nan nan 0
nan nan nan 0
12.8441 -47.91425 0.6055967 9
nan nan nan 0
0.2082937 -0.3555685 -0.09730678 13
3.634327 -6.124401 -0.9839645 25
4.671906 -8.027761 -0.8758804 40
6.15918 -10.49599 -0.778039 14
4.637138 -9.840629 -0.7579041 34
3.30924 -9.125901 -0.7302934 31
2.334692 -8.877259 -0.7465908 34
8.229348 -13.81034 -0.6525121 16
6.214757 -13.02233 -0.6710342 15
4.583925 -12.46034 -0.6937131 14
3.110123 -11.59449 -0.6961697 18
12.32217 -20.84645 -0.4219992 30
8.524955 -18.03083 -0.4621269 23
6.068448 -16.64042 -0.515246 10
4.083884 -15.4029 -0.5495279 9
1.441379 -5.343998 -0.9966922 21
1.963065 -7.49821 -0.8676907 22
nan nan nan 0
38.27629 -65.06892 4.390197 8
16.188 -63.11664 5.296627 11
11.73322 -20.17024 2.860273 35
2.550936 -9.933937 1.862211 43
nan nan nan 0
17.75705 -30.08441 0.2009797 35
14.20563 -30.23391 0 30
nan nan nan 0
6.317829 -24.07782 -0.2906404 16
38.22403 -64.6701 2.215276 6
nan nan nan 0
nan nan nan 0
12.63079 -47.78478 0.6033977 9
nan nan nan 0
0.2095407 -0.3604414 -0.0985705 14
3.610411 -6.132784 -0.9832765 26
4.58656 -7.9449 -0.865038 46
6.119992 -10.51311 -0.777719 14
4.581649 -9.811566 -0.7544162 34
3.263906 -9.099851 -0.7272803 31
2.30369 -8.885354 -0.7465908 35
8.165828 -13.81318 -0.6512926 19
6.15431 -13.01234 -0.6694038 15
4.540402 -12.47627 -0.6937131 12
3.03905 -11.48944 -0.6891993 18
12.22909 -20.85484 -0.4213011 29
8.481054 -18.10121 -0.4631714 21
6.001846 -16.638 -0.5145174 10
4.028831 -15.41223 -0.5493551 8
1.421456 -5.344241 -0.9957999 23
1.935642 -7.500205 -0.8671317 22
nan nan nan 0
38.31563 -65.6591 4.420982 5
16.20686 -64.11977 5.376073 7
11.695 -20.26695 2.868195 34
2.524674 -9.976167 1.868487 44
nan nan nan 0
17.66204 -30.16346 0.2010949 38
14.15067 -30.39209 0 26
nan nan nan 0
nan nan nan 0
nan nan nan 0
nan nan nan 0
nan nan nan 0
12.44501 -47.756 0.6024814 10
nan nan nan 0
0.2082812 -0.3611706 -0.0985705 15
3.58648 -6.141075 -0.9825884 24
4.581084 -7.999726 -0.8692807 41
6.08076 -10.53009 -0.7773989 14
4.528514 -9.786761 -0.7512771 28
3.223792 -9.087692 -0.7253972 30
2.272661 -8.893342 -0.7465908 32
8.107446 -13.82437 -0.6504794 21
6.09825 -13.01113 -0.6682392 15
4.496824 -12.49204 -0.6937131 14
3.027845 -11.61108 -0.6958792 20
12.12353 -20.84123 -0.4201666 31
8.451504 -18.20324 -0.4650283 18
5.937017 -16.64002 -0.5139346 11
3.972517 -15.41652 -0.5490097 10
1.401549 -5.34441 -0.9949076 19
1.908228 -7.5021 -0.8665726 20
nan nan nan 0
13.0256 -22.50842 1.510836 42
15.90951 -63.88097 5.351348 8
11.66858 -20.38516 2.879163 39
2.498147 -10.01833 1.874763 54
nan nan nan 0
13.11284 -22.57744 0.1501516 35
14.05916 -30.47308 0 31
nan nan nan 0
5.74851 -22.54673 -0.2716386 10
12.97085 -22.30629 0.7601508 40
nan nan nan 0
13.45238 -37.69032 0.6838791 25
12.25337 -47.70231 0.6012597 9
nan nan nan 0
0.21194 -0.370226 -0.1010979 15
3.560051 -6.14499 -0.9812122 25
4.5236 -7.963746 -0.8636237 47
6.041484 -10.54693 -0.7770789 13
4.51512 -9.847846 -0.754765 29
3.177205 -9.056545 -0.7220075 28
2.241603 -8.901221 -0.7465908 37
8.054112 -13.84395 -0.6500729 17
6.044378 -13.01422 -0.6673076 14
4.451517 -12.50296 -0.6934514 13
2.930233 -11.39918 -0.6825193 17
12.0807 -20.93537 -0.4212138 28
8.371196 -18.19631 -0.4640998 20
5.870583 -16.63707 -0.5132059 10
3.916223 -15.4206 -0.5486642 9
1.382885 -5.34927 -0.9949076 20
1.880824 -7.503895 -0.8660135 19
nan nan nan 0
12.96684 -22.58838 1.51316 25
15.68405 -63.92643 5.350537 9
nan nan nan 0
2.471357 -10.06043 1.881039 48
12.10919 -21.4834 6.597297 29
13.03645 -22.62741 0.1501804 45
13.99012 -30.60382 0 24
nan nan nan 0
6.009356 -23.91959 -0.2879509 21
13.02781 -22.58518 0.7681136 40
nan nan nan 0
nan nan nan 0
12.04754 -47.58969 0.599305 9
nan nan nan 0
0.2130923 -0.3751374 -0.1023617 15
3.536108 -6.153088 -0.9805241 27
4.48599 -7.962145 -0.861738 39
6.004632 -10.56795 -0.7770789 13
4.449762 -9.795434 -0.7495333 31
3.145572 -9.06758 -0.7220075 26
2.210519 -8.908991 -0.7465908 35
7.998243 -13.859 -0.6494631 18
5.982204 -12.99895 -0.6654442 15
4.409504 -12.52313 -0.6937131 13
nan nan nan 0
nan nan nan 0
8.307628 -18.22542 -0.4640998 22
5.80589 -16.63859 -0.5126231 10
3.861159 -15.42933 -0.5484914 9
1.364204 -5.354064 -0.9949076 22
1.853432 -7.505589 -0.8654544 21
26.37243 -106.623 4.409882 111
nan nan nan 0
17.49921 -72.41942 6.056646 17
12.04489 -21.38705 3.008954 22
2.414296 -9.978148 1.864004 41
12.12843 -21.69414 6.649061 33
nan nan nan 0
13.95336 -30.80733 0 26
nan nan nan 0
nan nan nan 0
nan nan nan 0
nan nan nan 0
16.772 -48.04942 0.8698785 10
11.85111 -47.51017 0.5977778 9
nan nan nan 0
0.2142127 -0.3800613 -0.1036254 16
3.509696 -6.156793 -0.979148 25
4.465462 -7.990788 -0.8631523 39
5.957899 -10.57146 -0.7757987 13
4.407351 -9.792713 -0.7481381 35
3.094502 -9.021907 -0.7174878 32
2.178227 -8.911811 -0.7461837 33
7.939883 -13.8695 -0.6486499 16
5.940938 -13.02884 -0.6659101 15
4.357557 -12.51487 -0.6924047 14
2.875923 -11.52107 -0.6886184 17
11.92437 -21.00182 -0.4208648 28
8.250133 -18.26797 -0.464448 25
5.737997 -16.63041 -0.5117488 9
3.804888 -15.43301 -0.5481459 10
1.345507 -5.358794 -0.9949076 18
1.82605 -7.507185 -0.8648953 21
26.11123 -107.1706 4.428744 84
nan nan nan 0
17.30398 -72.72248 6.076913 12
11.607 -20.77915 2.917552 39
2.381726 -9.996087 1.865797 42
13.03666 -23.51012 7.192581 17
17.32057 -30.55064 0.2020452 43
13.92967 -31.04288 0 19
9.334912 -27.21297 -0.1504292 20
nan nan nan 0
nan nan nan 0
15.74299 -34.95283 0.8890895 19
16.64821 -48.23526 0.8721875 11
