# .PCD v0.7 - Point Cloud Data file format
VERSION 0.7
FIELDS x y z intensity
SIZE 4 4 4 4
TYPE F F F F
COUNT 1 1 1 1
WIDTH 1625
HEIGHT 1
VIEWPOINT 0 0 0 1 0 0 0
POINTS 1625
DATA ascii
-25.93828 -17.51754 -0.1636762 23
nan nan nan 0
nan nan nan 0
nan nan nan 0
nan nan nan 0
-45.89426 -25.34108 0.6400487 8
nan nan nan 0
nan nan nan 0
-4.842902 -4.773005 -0.9392389 43
-6.466705 -6.266031 -0.8490101 25
-7.95947 -7.768024 -0.7108287 32
-8.457833 -6.881083 -0.7596479 18
-8.979106 -6.017911 -0.8135296 19
-9.325292 -5.090689 -0.8646449 13
-9.952017 -9.843884 -0.5679498 91
nan nan nan 0
-10.92398 -7.395438 -0.6892645 14
-11.52174 -6.363852 -0.7635503 12
-13.95262 -13.7035 -0.340671 34
-13.91338 -11.34916 -0.4159374 30
-14.01939 -9.433515 -0.4914945 35
-14.75514 -8.094456 -0.5804507 9
-5.646356 -3.128126 -1.163551 34
-7.950758 -4.328618 -1.014169 37
nan nan nan 0
nan nan nan 0
-16.99454 -9.149442 1.566653 24
-9.24474 -8.951385 1.575161 40
-15.00874 -8.077703 3.0995 21
-8.868367 -8.532971 3.287002 36
-22.00426 -21.58554 0.1773079 5
-23.62624 -19.17762 0 7
-25.99927 -17.42689 -0.1636762 21
nan nan nan 0
nan nan nan 0
nan nan nan 0
-40.44548 -27.2213 0.8332772 8
-46.14909 -25.27196 0.6423699 9
nan nan nan 0
nan nan nan 0
-4.972703 -4.867012 -0.9612576 30
-6.495708 -6.250326 -0.8499528 29
-7.997282 -7.750616 -0.7117889 32
-8.49344 -6.860923 -0.7606943 18
-9.012513 -5.994813 -0.8146594 17
-9.439445 -5.110252 -0.8736007 12
-10.01838 -9.840606 -0.5697793 106
nan nan nan 0
-10.9663 -7.368398 -0.6903113 14
-11.55702 -6.330784 -0.7644216 9
-13.97174 -13.62678 -0.3399729 29
-14.01895 -11.35401 -0.4179103 21
-14.07301 -9.398396 -0.4922231 31
-14.84038 -8.07393 -0.5826966 11
-5.665868 -3.113128 -1.165336 33
-8.027048 -4.333848 -1.021996 39
nan nan nan 0
-33.0034 -32.05316 2.674604 34
nan nan nan 0
-9.383207 -9.022297 1.593442 25
-15.04986 -8.032207 3.10219 40
-8.957437 -8.558708 3.309001 79
-21.95415 -21.38647 0.1763 6
-27.69879 -22.32381 0 11
-26.32222 -17.51048 -0.1653256 18
-23.62064 -12.77249 -0.3135596 21
nan nan nan 0
nan nan nan 0
nan nan nan 0
-46.43475 -25.21807 0.6451188 10
nan nan nan 0
-0.2386323 -0.2277276 -0.07582346 10
-4.865459 -4.728716 -0.9371747 43
-6.521082 -6.231056 -0.8504242 28
-8.031475 -7.729576 -0.712429 36
-8.529009 -6.840598 -0.7617407 18
-9.045868 -5.971555 -0.8157893 21
-9.44405 -5.070207 -0.8723795 14
-10.05982 -9.812555 -0.5701858 100
-10.21833 -8.278044 -0.6114075 16
-11.00442 -7.338383 -0.6910963 12
-11.59221 -6.297546 -0.7652929 11
-14.0623 -13.61967 -0.34102 33
-14.1286 -11.3614 -0.4199993 22
-14.1349 -9.368541 -0.4932431 29
-14.92125 -8.050533 -0.5847695 11
-5.689666 -3.100384 -1.168013 36
-7.82304 -4.188672 -0.9940426 91
-49.01989 -26.27946 2.232331 7
-33.09713 -31.92044 2.673152 33
-23.30003 -12.33277 2.141026 17
-9.332122 -8.910627 1.579427 48
-15.18217 -8.034811 3.123708 42
-8.836667 -8.384382 3.253355 41
-21.93525 -21.2193 0.1755512 7
-27.86243 -22.29572 0 7
-26.41239 -17.43778 -0.1655088 18
nan nan nan 0
nan nan nan 0
-38.31435 -30.74805 1.13965 10
-43.48052 -28.82485 0.8916854 7
-46.71178 -25.15775 0.6477454 9
nan nan nan 0
-0.2601391 -0.247227 -0.08340581 9
-4.999438 -4.825293 -0.9598815 29
-6.546402 -6.211682 -0.8508956 28
-8.065619 -7.708393 -0.7130691 33
-8.560637 -6.816999 -0.7624382 18
-9.079169 -5.948137 -0.8169192 18
-9.210886 -4.903854 -0.8491757 15
-10.10836 -9.79129 -0.570999 106
nan nan nan 0
-11.05495 -7.316456 -0.6926664 14
-11.62731 -6.264141 -0.7661642 12
-14.25385 -13.70916 -0.3445105 40
-14.20724 -11.3432 -0.4211599 18
-14.11323 -9.283442 -0.4913488 42
-15.00214 -8.02667 -0.5868426 11
-5.709114 -3.085175 -1.169797 34
-7.890294 -4.189267 -1.000751 62
-49.34514 -26.23246 2.242966 24
nan nan nan 0
-23.33852 -12.24905 2.14062 19
-9.309172 -8.826756 1.570286 101
-15.32775 -8.043441 3.147916 46
-8.700736 -8.197752 3.192533 59
-21.89021 -21.02828 0.1746009 8
-27.96358 -22.21698 0 9
-26.64039 -17.45507 -0.166556 18
-23.24567 -12.3609 -0.3074205 16
nan nan nan 0
-37.01411 -29.49267 1.09787 12
-43.65605 -28.72235 0.8932247 9
-46.99336 -25.09816 0.6504331 10
nan nan nan 0
-0.2402163 -0.2260561 -0.07582346 9
-4.891208 -4.687774 -0.9357985 45
-6.575287 -6.195626 -0.8518385 28
-8.099711 -7.687064 -0.7137092 33
-8.596117 -6.796358 -0.7634845 17
-9.11242 -5.92456 -0.8180491 19
-9.51889 -5.025069 -0.8760433 13
-10.17127 -9.783663 -0.5726252 100
-10.18612 -8.134805 -0.6060503 15
-11.12216 -7.305229 -0.6952832 13
-11.66232 -6.230567 -0.7670355 10
-14.3486 -13.70422 -0.3456449 38
-14.0744 -11.15689 -0.4160535 24
-14.30878 -9.340653 -0.4970317 29
-15.07422 -7.997661 -0.5885702 12
-5.732863 -3.072188 -1.172474 32
nan nan nan 0
-49.70601 -26.20214 2.255206 5
-33.9376 -32.27691 2.722816 7
-23.27945 -12.11461 2.131297 34
-9.314644 -8.770383 1.566021 39
-15.35573 -7.989889 3.147916 45
-9.018369 -8.438027 3.298649 78
-21.82603 -20.82057 0.1735066 17
-28.10377 -22.16879 0 9
nan nan nan 0
-23.1383 -12.20043 -0.3054326 17
nan nan nan 0
-37.17172 -29.40671 1.099495 14
-41.29045 -26.96003 0.8428552 7
-47.27068 -25.03456 0.6530598 10
nan nan nan 0
nan nan nan 0
-5.000741 -4.759519 -0.9536887 35
-6.604139 -6.179441 -0.8527813 27
-8.137383 -7.669016 -0.7146693 32
-8.627635 -6.772471 -0.7641822 17
-9.149805 -5.903525 -0.8195557 18
nan nan nan 0
-10.20536 -9.748098 -0.5726252 103
nan nan nan 0
-11.18106 -7.288168 -0.6973766 14
-11.70164 -6.199159 -0.7681972 13
-14.29844 -13.56114 -0.3432888 37
-14.07399 -11.07678 -0.4148929 21
-14.36646 -9.30695 -0.4979059 34
-15.14628 -7.968244 -0.5902976 11
-5.756591 -3.059074 -1.175151 33
-8.170492 -4.264985 -1.032619 39
-49.99199 -26.13028 2.264035 8
-34.08997 -32.19595 2.726011 9
-23.27287 -12.00815 2.126838 29
nan nan nan 0
-15.40976 -7.94976 3.153296 44
-8.902761 -8.271653 3.245591 35
-21.92398 -20.76833 0.1737082 33
-28.2164 -22.0983 0 9
-26.92966 -17.37709 -0.1676032 23
-23.24721 -12.15432 -0.3063096 29
nan nan nan 0
-36.99897 -29.06063 1.091372 29
-41.51857 -26.90273 0.8455917 13
-47.51271 -24.95075 0.6551977 10
nan nan nan 0
-0.2522512 -0.2344314 -0.07961464 10
nan nan nan 0
-6.632958 -6.163132 -0.8537241 28
-8.17867 -7.65421 -0.7159495 35
-8.663024 -6.751514 -0.7652285 17
-9.187154 -5.882301 -0.8210621 17
-9.155549 -4.75209 -0.8394057 16
-10.22483 -9.698658 -0.571812 104
-10.45063 -8.227267 -0.618395 16
-11.25675 -7.281632 -0.7005167 12
-11.74973 -6.172192 -0.7699398 11
-14.37116 -13.53515 -0.3438997 34
-14.04955 -10.97833 -0.4130361 25
-14.42409 -9.27296 -0.4987803 31
-15.21831 -7.938422 -0.5920252 10
-5.780297 -3.04583 -1.177828 33
nan nan nan 0
-50.16718 -25.99928 2.267848 10
-34.28223 -32.15188 2.7324 10
-23.35458 -11.94726 2.130486 35
-9.590134 -8.904458 1.601972 110
-15.45932 -7.907115 3.157779 31
-8.95287 -8.260185 3.253355 40
nan nan nan 0
-28.41968 -22.09789 0 9
-26.84277 -17.18862 -0.1666869 18
-23.27174 -12.0639 -0.3060758 22
nan nan nan 0
-37.10807 -28.93745 1.091604 16
-44.32448 -28.50155 0.9007501 8
-47.80795 -24.89325 0.6580687 9
nan nan nan 0
nan nan nan 0
-5.00498 -4.697355 -0.948184 40
-6.661745 -6.146697 -0.8546669 26
-8.219953 -7.639209 -0.7172297 30
-8.694426 -6.727339 -0.765926 17
-9.220258 -5.858215 -0.8221921 19
-9.189811 -4.729214 -0.8410341 21
-10.24772 -9.652627 -0.5712022 105
-10.45961 -8.175356 -0.6172304 15
-11.2905 -7.247688 -0.7010401 12
-11.79334 -6.142661 -0.771392 10
-14.51322 -13.57371 -0.3461685 41
-14.10753 -10.94455 -0.4136163 27
-14.41845 -9.198365 -0.4974688 37
-15.29032 -7.908194 -0.5937527 10
-5.80398 -3.032459 -1.180505 35
-8.235444 -4.225967 -1.037092 34
nan nan nan 0
-34.42713 -32.06264 2.735014 10
-23.41837 -11.87693 2.132514 22
-9.610217 -8.860831 1.600145 50
-15.50437 -7.861997 3.161365 27
-9.010126 -8.254996 3.263708 35
nan nan nan 0
-28.58371 -22.06578 0 9
-27.11784 -17.23157 -0.1680221 20
nan nan nan 0
nan nan nan 0
-36.96776 -28.62107 1.084524 24
nan nan nan 0
-48.04116 -24.80189 0.6600845 9
nan nan nan 0
nan nan nan 0
-5.021346 -4.679856 -0.948184 40
-6.690496 -6.130135 -0.8556098 29
-8.261229 -7.624012 -0.7185099 30
-8.729722 -6.706067 -0.7669724 17
-9.257522 -5.836627 -0.8236986 12
-9.335029 -4.762717 -0.8528395 31
-10.25582 -9.592897 -0.5697793 103
-10.48808 -8.138795 -0.6172304 16
-11.31573 -7.208233 -0.7010401 14
-11.84133 -6.115189 -0.7731346 12
-14.53854 -13.50255 -0.3456449 40
-14.16149 -10.90744 -0.4140806 25
-14.45469 -9.150653 -0.4976145 32
-15.35786 -7.87528 -0.5953075 10
-5.836381 -3.023478 -1.184966 34
-8.245714 -4.194943 -1.036533 31
nan nan nan 0
-34.58281 -31.98295 2.7385 10
-23.45523 -11.79288 2.132108 9
nan nan nan 0
-15.40865 -7.746007 3.136261 39
-9.12816 -8.304786 3.29606 93
nan nan nan 0
-28.74786 -22.03279 0 10
nan nan nan 0
-23.47568 -11.9624 -0.3076544 19
nan nan nan 0
-36.98421 -28.42787 1.082087 24
-28.40849 -17.98889 0.5745029 10
-48.31438 -24.7297 0.6626501 10
nan nan nan 0
-0.2441249 -0.2218293 -0.07582346 9
-5.008596 -4.635365 -0.9426793 44
-6.719213 -6.113447 -0.8565526 27
-8.295146 -7.601875 -0.71915 28
-8.764974 -6.684629 -0.7680188 17
-9.286293 -5.809564 -0.8244519 19
-9.502833 -4.806497 -0.8666803 30
-10.35511 -9.618266 -0.5734383 100
-10.50852 -8.096039 -0.6167645 16
-11.35349 -7.176692 -0.7018251 14
-11.88482 -6.085183 -0.7745868 10
-14.51946 -13.39069 -0.3440742 30
-14.2233 -10.87616 -0.4147769 24
-14.48231 -9.097482 -0.4974688 34
-15.42089 -7.839729 -0.5966896 10
-5.86879 -3.014308 -1.189428 35
-8.229244 -4.150491 -1.032619 36
-51.10565 -25.81029 2.297946 8
-34.76408 -31.9262 2.744018 11
-23.32674 -11.62649 2.116705 20
-10.35824 -9.418099 1.714092 33
-15.33872 -7.643939 3.116535 28
-9.189336 -8.302025 3.307707 44
nan nan nan 0
-28.97182 -22.04433 0 9
nan nan nan 0
-23.5039 -11.87362 -0.307479 27
nan nan nan 0
-37.12694 -28.33196 1.083364 20
-44.93377 -28.23264 0.9070784 6
nan nan nan 0
nan nan nan 0
nan nan nan 0
-5.075758 -4.664811 -0.9523126 36
-6.747896 -6.096634 -0.8574954 30
-8.332698 -7.582953 -0.7201102 27
-8.804158 -6.666039 -0.7694138 18
-9.319225 -5.785 -0.8255818 15
-9.283389 -4.655035 -0.8451049 15
-10.44368 -9.63289 -0.5764874 99
-10.62795 -8.12911 -0.6221216 16
-11.38693 -7.142323 -0.7023485 13
-11.92825 -6.054948 -0.7760389 10
-14.58085 -13.35344 -0.3444232 25
-14.28904 -10.8476 -0.4155892 27
-14.51822 -9.049518 -0.4976145 34
-15.47941 -7.801585 -0.5978988 9
-5.905591 -3.007178 -1.194781 32
-8.265908 -4.132837 -1.035414 39
-51.12395 -25.59596 2.294736 32
-34.9417 -31.8652 2.749246 10
-23.25101 -11.48763 2.106166 34
-10.36896 -9.361922 1.710436 30
-15.41824 -7.616476 3.127295 40
-9.167949 -8.224725 3.28959 35
-21.91792 -20.04838 0.1708572 12
-29.10045 -21.98225 0 10
-26.82102 -16.65131 -0.1650899 18
-23.52285 -11.78031 -0.3071866 32
nan nan nan 0
-37.30927 -28.26558 1.085801 24
-42.55024 -26.52843 0.857051 6
-48.8923 -24.59623 0.6682089 8
nan nan nan 0
-0.2527587 -0.2267021 -0.07835092 9
-5.201672 -4.747305 -0.9729552 25
-6.776542 -6.079695 -0.8584382 28
-8.366517 -7.560515 -0.7207502 27
-8.839333 -6.644259 -0.7704602 17
-9.352098 -5.760276 -0.8267117 20
-9.295118 -4.620386 -0.8446978 17
-10.45883 -9.579497 -0.575471 97
-10.6483 -8.085921 -0.6216558 16
-11.43723 -7.118358 -0.7039186 13
-11.97607 -6.026726 -0.7777815 11
nan nan nan 0
-14.32283 -10.79465 -0.4154732 21
-14.64324 -9.05661 -0.5008202 32
-15.53784 -7.763129 -0.5991081 10
-5.942414 -2.999826 -1.200135 34
-8.311457 -4.119386 -1.039328 41
nan nan nan 0
-35.11561 -31.8 2.754183 11
-23.35811 -11.43926 2.112246 43
-10.3905 -9.315728 1.708608 26
-15.45357 -7.566932 3.129088 21
-10.0834 -8.983335 3.607937 17
-21.98037 -19.96502 0.1707996 9
-29.25701 -21.94054 0 10
-26.89175 -16.56545 -0.1651685 18
-23.51457 -11.67369 -0.3065435 34
nan nan nan 0
-37.55152 -28.24335 1.089979 19
-42.75313 -26.44812 0.8592744 12
-49.0405 -24.45664 0.669064 14
nan nan nan 0
nan nan nan 0
-5.130202 -4.649233 -0.956441 38
-6.805153 -6.062629 -0.859381 29
-8.403994 -7.541267 -0.7217104 29
-8.878459 -6.625298 -0.7718553 17
-9.384913 -5.735393 -0.8278416 19
-9.673372 -4.766128 -0.8776715 36
-10.4959 -9.546294 -0.5756743 96
-10.73628 -8.093811 -0.6251495 17
-11.479 -7.088883 -0.7049653 14
-12.01937 -5.996017 -0.7792338 11
-14.65517 -13.23456 -0.3439869 29
-14.39244 -10.76855 -0.4164017 23
-14.71311 -9.028963 -0.5021316 33
-15.60067 -7.726575 -0.6004901 9
-5.95725 -2.981264 -1.201028 33
-8.339167 -4.096912 -1.041005 36
nan nan nan 0
-35.28949 -31.73398 2.759121 10
-23.38444 -11.35113 2.11103 40
nan nan nan 0
-15.45333 -7.500066 3.123708 25
nan nan nan 0
-22.05363 -19.89153 0.1708284 7
-29.3655 -21.86216 0 10
-27.40591 -16.75046 -0.1679697 20
-23.55069 -11.58933 -0.306485 35
nan nan nan 0
-37.46965 -27.97751 1.084756 15
-42.86649 -26.3118 0.859702 13
-49.24658 -24.34512 0.6707133 11
nan nan nan 0
-0.2543352 -0.224932 -0.07835092 8
-5.087542 -4.578245 -0.9454317 45
-6.833726 -6.045438 -0.8603238 29
-8.437715 -7.518528 -0.7223505 29
-8.913555 -6.603175 -0.7729017 18
-9.421932 -5.712937 -0.8293481 16
-9.649639 -4.712671 -0.8740078 33
-10.57734 -9.553148 -0.5783169 96
-10.82844 -8.104177 -0.6288763 16
-11.51645 -7.056595 -0.7057503 12
-12.07155 -5.969501 -0.7812667 10
-14.74221 -13.22005 -0.3449468 35
-14.40988 -10.70334 -0.4158213 31
-14.72319 -8.964556 -0.5014031 34
-15.66792 -7.691877 -0.6020449 11
-5.958803 -2.956085 -1.199243 36
-8.357885 -4.069951 -1.041564 38
nan nan nan 0
-35.46333 -31.66714 2.764058 11
-23.76526 -11.43356 2.141836 20
-21.30481 -18.84182 3.487291 20
-15.43508 -7.424769 3.114742 48
-9.935491 -8.727769 3.53288 22
-22.1639 -19.85113 0.1711452 4
-14.41977 -10.6561 0 12
-27.76776 -16.83875 -0.1698285 24
-23.63144 -11.52677 -0.3070112 37
nan nan nan 0
-37.58314 -27.85846 1.085221 20
-45.85303 -27.92494 0.9176825 7
-23.83367 -11.68193 0.3238116 28
nan nan nan 0
-0.2551188 -0.2240428 -0.07835092 10
-5.206817 -4.652939 -0.9646981 28
-6.858525 -6.024836 -0.8607953 29
-8.475113 -7.498954 -0.7233106 28
-8.944586 -6.577932 -0.7735993 18
-9.446088 -5.682581 -0.8297247 18
-9.468618 -4.583526 -0.8560961 30
-10.61062 -9.516169 -0.5783169 107
-10.94486 -8.131872 -0.6340004 15
-11.55381 -7.024132 -0.7065354 12
-12.12818 -5.944889 -0.7835903 11
-14.73228 -13.11862 -0.3436379 34
-14.35061 -10.58177 -0.4130361 31
-14.94263 -9.026795 -0.5078145 22
-15.73512 -7.656805 -0.6035997 10
-5.942586 -2.922262 -1.193889 34
-8.389946 -4.04938 -1.043801 36
-23.83401 -11.52279 1.061687 43
-35.63714 -31.59945 2.768995 12
-23.72855 -11.31409 2.134945 34
-21.29961 -18.7051 3.475713 14
-15.62078 -7.446999 3.147019 26
nan nan nan 0
-22.26668 -19.80355 0.1714044 35
-14.4206 -10.57908 0 35
nan nan nan 0
-23.71655 -11.46596 -0.3075959 32
nan nan nan 0
-14.4503 -10.63184 0.4155892 24
-45.9759 -27.78022 0.9181956 9
-23.86981 -11.59648 0.3237505 44
nan nan nan 0
-0.248717 -0.2166681 -0.07582346 10
-5.215624 -4.628156 -0.963322 41
-6.887012 -6.007406 -0.861738 29
-8.508732 -7.475914 -0.7239507 24
-8.979576 -6.555494 -0.7746456 17
-9.491558 -5.664902 -0.8319846 18
-9.601408 -4.606431 -0.8666803 38
-10.66615 -9.499017 -0.5795365 103
-10.96112 -8.084723 -0.6333016 16
-11.56971 -6.978602 -0.706012 14
-12.14886 -5.902517 -0.7835903 10
-14.90529 -13.17975 -0.3466048 30
-14.30679 -10.47255 -0.410715 28
-14.95261 -8.961737 -0.507086 24
-15.80227 -7.621356 -0.6051545 11
-5.895237 -2.873524 -1.182289 36
-8.475766 -4.054331 -1.052746 34
-23.90112 -11.45247 1.062891 13
-35.81465 -31.53425 2.774223 13
-23.82648 -11.25886 2.140215 37
-21.35356 -18.62085 3.473886 34
-15.62888 -7.384027 3.143433 25
-9.977932 -8.642377 3.526409 23
-22.3544 -19.74226 0.1715483 154
-14.51806 -10.57284 0 23
-16.32252 -9.743865 -0.09932623 33
-23.75643 -11.38311 -0.3075959 36
-35.68863 -31.55602 1.404399 24
-14.4954 -10.58723 0.4158213 37
-16.31455 -9.781514 0.3247079 15
-23.9642 -11.5391 0.3244835 18
nan nan nan 0
nan nan nan 0
-5.272592 -4.645969 -0.9708909 34
-6.911701 -5.98659 -0.8622094 29
-8.546051 -7.456015 -0.7249109 24
-9.010482 -6.529964 -0.7753432 17
-9.524145 -5.639353 -0.8331144 18
nan nan nan 0
-10.74039 -9.498148 -0.5817725 100
-11.02151 -8.070022 -0.635165 16
-11.6497 -6.971498 -0.7094138 13
-12.1469 -5.849255 -0.7821381 9
-14.84604 -13.03525 -0.3441614 36
-14.29878 -10.39022 -0.4094384 30
-15.00958 -8.924811 -0.5079603 29
-15.86485 -7.58338 -0.6065365 11
-5.945116 -2.872158 -1.19032 33
-8.521304 -4.039601 -1.056659 34
nan nan nan 0
-35.98839 -31.4649 2.77916 9
-23.56322 -11.03408 2.113057 24
nan nan nan 0
-16.47884 -7.715021 3.309302 35
nan nan nan 0
-22.48708 -19.72016 0.1720379 153
nan nan nan 0
-16.36504 -9.691924 -0.09937859 32
-23.93604 -11.36657 -0.3094084 34
-36.00135 -31.60934 1.412362 12
nan nan nan 0
-16.27984 -9.68362 0.3233396 25
nan nan nan 0
nan nan nan 0
-0.2610646 -0.2245753 -0.07961464 10
-5.333472 -4.666705 -0.979148 33
-6.9401 -5.968924 -0.8631523 29
-8.583335 -7.435945 -0.7258711 28
-9.041318 -6.504299 -0.7760407 18
nan nan nan 0
nan nan nan 0
-10.83728 -9.516664 -0.5852282 95
-11.07385 -8.049124 -0.6365625 16
-11.69973 -6.946082 -0.7109839 13
-9.869345 -4.71127 -0.6340169 13
-14.81987 -12.92091 -0.3425035 29
-14.33902 -10.34317 -0.4095545 24
-15.16549 -8.945991 -0.5121859 21
-15.93188 -7.547196 -0.6080913 10
-5.959544 -2.853509 -1.191212 34
-8.377911 -3.93598 -1.037092 43
nan nan nan 0
-36.16584 -31.398 2.784388 10
-23.63324 -10.96644 2.115894 38
nan nan nan 0
-16.50121 -7.655382 3.308405 37
nan nan nan 0
-22.60101 -19.68096 0.1723835 152
nan nan nan 0
-16.39877 -9.63474 -0.09937859 12
-24.01176 -11.29997 -0.3098761 23
-36.19057 -31.55246 1.415458 13
nan nan nan 0
-16.34368 -9.644517 0.3239382 18
nan nan nan 0
nan nan nan 0
-0.2509723 -0.2140517 -0.07582346 10
-5.308634 -4.612298 -0.971579 41
-6.964677 -5.947897 -0.8636237 27
-8.620581 -7.415705 -0.7268312 32
-9.076142 -6.481397 -0.777087 18
nan nan nan 0
-9.883978 -4.61515 -0.8878486 42
-10.74622 -9.370378 -0.5785201 100
-11.12618 -8.027958 -0.63796 17
-11.75402 -6.922935 -0.7128157 12
nan nan nan 0
-15.01225 -12.99676 -0.3459067 28
-14.39942 -10.31052 -0.4102508 26
-15.0974 -8.83495 -0.5088345 25
-15.99884 -7.510637 -0.6096461 12
-5.9917 -2.843217 -1.195674 38
-8.441161 -3.929749 -1.043242 54
-53.38095 -24.88667 2.363963 5
-36.34326 -31.33023 2.789616 10
-23.68043 -10.88804 2.116705 37
-13.35847 -11.40223 2.151603 41
-16.54571 -7.605948 3.311991 36
nan nan nan 0
-22.72252 -19.64774 0.1727867 152
nan nan nan 0
nan nan nan 0
-24.10997 -11.24354 -0.3106362 20
-36.37983 -31.49464 1.418555 12
nan nan nan 0
nan nan nan 0
nan nan nan 0
nan nan nan 0
nan nan nan 0
-5.182306 -4.470696 -0.9454317 99
-6.989192 -5.92677 -0.8640952 30
-8.657793 -7.395297 -0.7277914 26
-9.114987 -6.461217 -0.7784822 17
-9.617213 -5.559264 -0.8361275 18
-9.918124 -4.588982 -0.889477 35
-10.79019 -9.342624 -0.57913 106
-11.18255 -8.009434 -0.6395904 16
-11.79968 -6.894455 -0.7141241 13
-10.01501 -4.69517 -0.6412777 11
-15.14849 -13.02251 -0.3480009 37
-14.48013 -10.29205 -0.4115274 30
-15.16705 -8.804776 -0.510146 26
-16.06574 -7.473701 -0.6112009 10
-5.970412 -2.807654 -1.189428 42
-8.314925 -3.835824 -1.02591 101
-53.64892 -24.78398 2.371989 7
-36.52445 -31.26486 2.795134 10
-23.74097 -10.81564 2.118732 37
-13.33385 -11.30097 2.141244 45
-16.49157 -7.511471 3.295853 28
nan nan nan 0
-22.83648 -19.6074 0.1731322 128
nan nan nan 0
-19.19708 -11.09893 -0.1158981 14
nan nan nan 0
-36.55396 -31.42285 1.421062 13
-38.54972 -27.3429 1.096362 20
-45.26913 -26.2858 0.8947639 14
-51.11005 -23.73037 0.6880004 6
nan nan nan 0
nan nan nan 0
-5.201638 -4.455804 -0.9461198 91
-7.017449 -5.908754 -0.865038 28
-8.694965 -7.374718 -0.7287514 26
-9.153799 -6.440844 -0.7798773 17
-9.649537 -5.533098 -0.8372574 18
-8.982553 -4.11869 -0.8039895 12
-10.88332 -9.357038 -0.5823824 94
-11.23893 -7.990613 -0.6412208 15
-11.81935 -6.850721 -0.7138624 14
-9.913611 -4.605561 -0.6337264 18
-15.07221 -12.86566 -0.3452086 30
-14.47105 -10.20974 -0.4102508 27
-15.22368 -8.766741 -0.5110202 25
-16.13258 -7.436388 -0.6127556 11
-5.998021 -2.795094 -1.192997 40
-8.653718 -3.955299 -1.066164 41
-53.90319 -24.67348 2.379414 8
-36.70562 -31.19861 2.800653 9
-23.85581 -10.76754 2.125623 32
-13.36942 -11.25116 2.140635 43
-16.6298 -7.504406 3.318268 22
-35.61105 -29.78981 12.42978 10
nan nan nan 0
nan nan nan 0
-19.201 -11.01196 -0.1156886 27
nan nan nan 0
-36.73945 -31.35997 1.424011 11
-38.80842 -27.32328 1.101004 17
-19.19467 -11.05723 0.3782415 15
-51.46966 -23.67926 0.6917266 8
nan nan nan 0
nan nan nan 0
-5.085218 -4.325209 -0.9220367 107
-7.041848 -5.887417 -0.8655093 29
-8.7321 -7.35397 -0.7297116 25
-9.192581 -6.420278 -0.7812725 17
-9.668793 -5.499382 -0.8372574 18
-9.264635 -4.208771 -0.8280074 29
-10.87414 -9.283294 -0.5801463 99
-11.29532 -7.971496 -0.6428512 14
-11.91678 -6.851722 -0.718311 12
-10.01126 -4.608458 -0.6389542 17
-15.0484 -12.75477 -0.3436379 30
-14.58848 -10.21652 -0.4125718 21
-15.22815 -8.698676 -0.510146 25
-16.2039 -7.400777 -0.6144831 10
-6.039018 -2.788553 -1.199243 40
-8.509014 -3.853422 -1.046596 60
-54.15735 -24.5615 2.386838 9
-36.88295 -31.12825 2.805881 10
-23.85685 -10.66794 2.12238 24
-13.42765 -11.22034 2.143682 42
-16.66936 -7.452331 3.320957 28
-35.76682 -29.70853 12.4479 10
nan nan nan 0
-30.7351 -21.41494 0 6
nan nan nan 0
-26.03412 -11.81009 -0.3338477 25
-36.93256 -31.30263 1.427255 10
nan nan nan 0
-19.1854 -10.96288 0.3773008 24
-51.70213 -23.56787 0.6937424 10
nan nan nan 0
nan nan nan 0
-5.145656 -4.345814 -0.9302937 101
-7.070013 -5.869164 -0.8664522 28
-8.76537 -7.32985 -0.7303517 29
-9.227233 -6.396678 -0.7823188 17
-9.727015 -5.487639 -0.8406472 15
-9.115633 -4.102865 -0.8133524 10
-10.84171 -9.190336 -0.5766907 102
-11.35171 -7.952083 -0.6444817 15
-12.03172 -6.862019 -0.7238063 7
-10.14539 -4.627283 -0.6465055 9
-15.10813 -12.71504 -0.3439869 36
-14.6692 -10.19692 -0.4138485 22
-15.24973 -8.64054 -0.5098545 29
-16.27061 -7.362699 -0.6160379 11
-6.182976 -2.828755 -1.226012 35
nan nan nan 0
-54.4296 -24.45625 2.395065 9
-37.06789 -31.06345 2.811689 10
nan nan nan 0
-13.45146 -11.16072 2.141244 45
-16.85271 -7.463766 3.352338 28
-13.22246 -10.90077 4.581097 38
nan nan nan 0
-25.838 -17.86884 0 8
nan nan nan 0
-26.36706 -11.85026 -0.3375896 23
-37.09513 -31.21858 1.42932 11
-39.23643 -27.21694 1.107735 15
nan nan nan 0
-52.01192 -23.49013 0.6967967 13
nan nan nan 0
-0.2730709 -0.2253384 -0.08214208 9
-5.430035 -4.553986 -0.979148 46
-7.098135 -5.850786 -0.867395 29
-8.802415 -7.308777 -0.7313119 25
-9.26594 -6.375741 -0.7837139 17
-9.689544 -5.422011 -0.8357509 16
-10.07228 -4.490595 -0.8976187 41
-10.9234 -9.194279 -0.5793332 104
-11.4122 -7.935225 -0.646345 16
-12.00344 -6.790483 -0.7206661 13
nan nan nan 0
-15.2483 -12.7424 -0.3461685 31
-14.7623 -10.1854 -0.4154732 25
-15.38437 -8.646011 -0.5133517 22
-16.34638 -7.328329 -0.6179382 11
-6.165917 -2.794989 -1.220658 36
-7.341281 -3.263879 -0.8995582 9
-54.7109 -24.35345 2.403694 9
-37.24899 -30.99454 2.817207 9
nan nan nan 0
-13.28738 -10.94639 2.108949 46
-16.90119 -7.414768 3.356821 23
-13.24548 -10.84231 4.575921 60
-23.71058 -19.78975 0.1776535 6
-25.92083 -17.79268 0 18
nan nan nan 0
-26.45395 -11.77848 -0.3381743 23
-37.2729 -31.1466 1.431974 11
-39.45882 -27.16769 1.111333 14
-45.74067 -25.71243 0.8969019 12
-52.23051 -23.36967 0.6986292 12
nan nan nan 0
nan nan nan 0
nan nan nan 0
-7.130067 -5.835438 -0.8688093 30
-8.839419 -7.287534 -0.732272 29
-9.300494 -6.3518 -0.7847603 19
-9.756369 -5.414762 -0.8398939 19
-10.30219 -4.549927 -0.9167515 33
-10.94776 -9.149681 -0.5789267 104
-11.4686 -7.915204 -0.6479754 16
-12.04014 -6.75587 -0.7214512 12
nan nan nan 0
-15.35808 -12.74338 -0.3476519 36
-14.89262 -10.19878 -0.4181424 22
-15.5105 -8.645783 -0.5165574 18
-16.41754 -7.291494 -0.6196657 12
-6.216042 -2.791557 -1.228689 33
-7.348081 -3.236233 -0.8989992 17
-54.99672 -24.25099 2.412523 10
-37.43391 -30.92792 2.823016 10
-26.36698 -11.45996 2.335185 14
-13.2679 -10.85279 2.099809 82
nan nan nan 0
-13.3432 -10.84476 4.596626 50
-29.96897 -24.83815 0.2239603 11
-26.08608 -17.77248 0 10
nan nan nan 0
-26.5315 -11.7022 -0.338642 22
-37.43139 -31.0578 1.433891 11
-39.60707 -27.06646 1.112841 16
-46.03974 -25.66946 0.9010068 11
-52.51746 -23.27836 0.701378 11
nan nan nan 0
-0.2561271 -0.207856 -0.07582346 10
-5.084084 -4.203246 -0.9110273 103
-7.158114 -5.816796 -0.869752 29
-8.880243 -7.269284 -0.7335522 30
-9.334993 -6.327693 -0.7858066 17
-9.797051 -5.39269 -0.8417771 20
-10.00749 -4.378271 -0.8890699 26
-11.01807 -9.14333 -0.5809594 99
-11.51264 -7.886415 -0.6489071 16
-12.04183 -6.701663 -0.7201427 12
-10.08832 -4.474294 -0.6398255 11
-15.38703 -12.67697 -0.3473029 30
-14.9612 -10.16922 -0.4190709 18
-15.54933 -8.596423 -0.5168488 20
-16.48863 -7.254251 -0.6213932 9
-6.212259 -2.763853 -1.226012 37
-7.391221 -3.224449 -0.9029127 36
-55.14972 -24.08886 2.415533 11
-37.61496 -30.85722 2.828534 10
-26.89664 -11.5786 2.378557 40
-13.22867 -10.74381 2.087622 90
-17.36827 -7.47538 3.439307 26
-13.29455 -10.72834 4.566862 41
-30.15585 -24.81601 0.224709 10
-26.08997 -17.6421 0 14
nan nan nan 0
-26.60884 -11.62552 -0.3391097 26
-23.48853 -19.34828 0.8966978 31
-39.77577 -26.97855 1.114931 16
-46.38281 -25.6489 0.9059666 12
-52.85476 -23.20744 0.7047988 11
nan nan nan 0
-0.260564 -0.2100619 -0.07708719 10
-5.530979 -4.54091 -0.9887812 45
-7.189992 -5.801158 -0.8711663 29
-8.917173 -7.247688 -0.7345123 28
-9.369439 -6.303425 -0.786853 17
-9.8377 -5.370399 -0.8436602 18
-10.5075 -4.553101 -0.9322208 31
-11.06148 -9.114348 -0.5815693 103
-11.55249 -7.854607 -0.6496059 16
-12.1045 -6.6813 -0.7224978 11
-10.05817 -4.418997 -0.6369212 14
-15.4544 -12.64218 -0.3478265 32
-15.02561 -10.13651 -0.4198833 20
-15.59678 -8.551703 -0.5174317 21
-16.56425 -7.218596 -0.6232935 10
-6.226372 -2.744132 -1.226904 36
-7.393307 -3.194694 -0.9017945 36
-54.7841 -23.70184 2.395868 34
-37.79984 -30.78879 2.834343 10
nan nan nan 0
-13.26224 -10.69446 2.087013 49
-17.40784 -7.42049 3.441997 31
-13.3583 -10.70301 4.575921 34
-23.61842 -19.29673 0.175436 5
-25.95627 -17.41996 0 8
nan nan nan 0
-26.97965 -11.67547 -0.3433194 24
nan nan nan 0
nan nan nan 0
-46.74822 -25.63828 0.9113543 12
-53.22889 -23.15039 0.7087082 11
nan nan nan 0
-0.2799142 -0.224592 -0.08340581 9
-5.462399 -4.45267 -0.9736432 49
-7.206315 -5.77291 -0.8706949 30
-8.957945 -7.229059 -0.7357926 25
-9.407976 -6.281763 -0.7882481 17
-9.878309 -5.347891 -0.8455434 18
-10.38134 -4.455537 -0.9196011 30
-11.11642 -9.094671 -0.5827889 101
-11.59226 -7.822617 -0.6503046 16
-12.16717 -6.66058 -0.724853 13
-12.66005 -5.507973 -0.8010163 10
-15.57215 -12.64806 -0.3494844 27
-15.04013 -10.07009 -0.419303 18
-15.65288 -8.511532 -0.518306 23
-16.63982 -7.1825 -0.6251938 11
-6.240423 -2.724346 -1.227796 34
nan nan nan 0
-54.93538 -23.53997 2.398878 8
-37.98082 -30.7163 2.839861 10
-28.07418 -11.85364 2.475434 7
-13.06323 -10.45882 2.049842 98
-17.42004 -7.353945 3.439307 26
-13.5505 -10.77964 4.628979 38
-30.58848 -24.81597 0.2266385 6
nan nan nan 0
nan nan nan 0
-27.00646 -11.57532 -0.343144 29
nan nan nan 0
nan nan nan 0
-46.94722 -25.53465 0.9134922 14
-53.44254 -23.02179 0.7104797 13
nan nan nan 0
nan nan nan 0
-5.601017 -4.533373 -0.995662 43
nan nan nan 0
-8.994802 -7.20711 -0.7367527 28
-9.442318 -6.257152 -0.7892944 18
-9.914491 -5.322807 -0.84705 18
-10.6216 -4.514684 -0.9395483 30
-11.17523 -9.077872 -0.5842118 98
-11.62364 -7.784885 -0.6505376 16
-12.23423 -6.641885 -0.7274697 13
-12.69295 -5.469668 -0.8018875 12
-15.55396 -12.5434 -0.3480882 28
-15.08352 -10.02306 -0.4195351 22
-15.72209 -8.478186 -0.5196174 21
-16.71534 -7.145964 -0.6270941 11
-6.236343 -2.696699 -1.225119 38
-8.509101 -3.605661 -1.035414 36
nan nan nan 0
-38.16175 -30.64292 2.845379 13
-27.15896 -11.35588 2.391123 28
-13.04528 -10.36991 2.041312 36
-17.45468 -7.296884 3.4411 22
-13.58426 -10.72928 4.627684 33
-30.70996 -24.73728 0.2268977 15
-27.08661 -17.90564 0 7
nan nan nan 0
-27.0421 -11.47903 -0.3430855 30
-38.2037 -30.80827 1.446867 10
-40.61017 -26.92797 1.130366 16
-47.17687 -25.44656 0.9162287 13
-53.77091 -22.94103 0.7137783 11
nan nan nan 0
-0.2664947 -0.2103839 -0.07835092 9
nan nan nan 0
-7.273775 -5.74407 -0.8739947 24
-9.031615 -7.184994 -0.7377129 30
-9.48077 -6.235119 -0.7906896 17
-9.946214 -5.295193 -0.8481798 18
-10.53164 -4.433164 -0.9301853 20
-11.23018 -9.057636 -0.5854315 99
-11.70481 -7.780213 -0.6535655 16
-12.28372 -6.613338 -0.7290398 12
-12.72115 -5.429244 -0.8024684 11
-15.71469 -12.5828 -0.3507061 26
-15.22273 -10.03916 -0.4224364 18
-15.80007 -8.449174 -0.5212203 21
-16.79081 -7.108989 -0.6289944 11
-6.286434 -2.692314 -1.23315 36
-8.475808 -3.556739 -1.029824 34
-56.4341 -23.71709 2.457069 6
-38.34653 -30.57177 2.851188 10
-27.80167 -11.51063 2.444223 28
-13.14761 -10.37659 2.05167 36
-17.54822 -7.264112 3.454549 36
-13.57983 -10.649 4.613449 35
-30.85469 -24.67678 0.2273296 13
-31.98575 -20.98454 0 10
nan nan nan 0
-27.19724 -11.43298 -0.3445472 33
-38.39294 -30.74034 1.449964 9
-40.74567 -26.81353 1.131526 17
-47.40207 -25.35482 0.9188797 17
-53.99804 -22.81545 0.715733 12
nan nan nan 0
nan nan nan 0
-5.609316 -4.47561 -0.9915335 43
-7.297698 -5.721719 -0.8744661 29
-9.068383 -7.162708 -0.738673 26
-9.519182 -6.212893 -0.7920847 17
-9.973456 -5.265096 -0.8489331 19
-10.51024 -4.381053 -0.9269286 31
-11.22274 -8.987137 -0.5833987 103
-11.76525 -7.761315 -0.6554288 16
-12.30232 -6.568069 -0.7287781 12
nan nan nan 0
-16.03239 -12.74572 -0.3568144 33
-15.30787 -10.01881 -0.4238291 22
-15.84713 -8.403334 -0.5218031 22
-16.87082 -7.073503 -0.6310675 11
-6.291263 -2.668436 -1.232258 34
-8.538655 -3.548073 -1.035973 36
-27.90417 -11.61563 1.212381 37
-38.53128 -30.49969 2.856997 9
-27.9708 -11.46642 2.455572 8
-13.09783 -10.26327 2.038265 35
-17.54161 -7.189764 3.448273 18
-13.59787 -10.58669 4.606979 36
-31.06592 -24.66844 0.2282511 13
-32.19289 -20.96007 0 7
nan nan nan 0
-27.30622 -11.36678 -0.3454242 40
-38.51957 -30.62169 1.450701 11
-41.09013 -26.83514 1.138489 10
-47.6537 -25.27587 0.9220439 15
-27.98531 -11.71228 0.3701751 16
nan nan nan 0
-0.2604239 -0.2024465 -0.07582346 9
-5.648181 -4.474471 -0.995662 43
-7.33333 -5.70845 -0.8763518 29
-9.105106 -7.140252 -0.7396331 28
-9.557555 -6.190477 -0.7934799 13
-10.00945 -5.239496 -0.8504397 20
nan nan nan 0
-11.30877 -8.991458 -0.5862446 93
-11.8257 -7.74209 -0.6572921 17
-12.334 -6.529757 -0.7293015 13
-12.86467 -5.384587 -0.8091484 9
-16.00224 -12.63081 -0.3551565 24
-15.17927 -9.859111 -0.419303 27
-15.93388 -8.378198 -0.5236974 22
-16.9508 -7.037547 -0.6331404 11
-6.291465 -2.642656 -1.230473 33
-8.652102 -3.559777 -1.048273 40
-28.04618 -11.56002 1.216796 9
-38.716 -30.4267 2.862805 9
nan nan nan 0
-13.14924 -10.22968 2.040702 32
-17.61219 -7.146971 3.457238 16
-13.5889 -10.5037 4.59145 40
-31.20681 -24.6032 0.2286543 11
-28.00334 -18.09319 0 15
nan nan nan 0
-27.42894 -11.30567 -0.3464766 43
nan nan nan 0
-41.23389 -26.72417 1.139882 13
-47.97172 -25.23038 0.9264907 15
-28.00754 -11.60687 0.3699308 17
nan nan nan 0
-0.261129 -0.2015362 -0.07582346 10
-5.636535 -4.433276 -0.9908454 43
-7.353212 -5.682816 -0.8763518 28
-9.141782 -7.117628 -0.7405933 29
-9.595887 -6.167867 -0.794875 17
-10.03652 -5.209117 -0.851193 19
nan nan nan 0
-11.23033 -8.865211 -0.5805529 104
-11.85265 -7.700764 -0.6572921 16
-12.36998 -6.493624 -0.7300866 13
-11.66583 -4.835571 -0.7324739 8
-16.09738 -12.61497 -0.3562908 29
-15.29761 -9.860236 -0.421624 20
-16.03394 -8.359488 -0.5260288 25
-17.03535 -7.003016 -0.6353863 10
nan nan nan 0
-8.572422 -3.49212 -1.037092 47
nan nan nan 0
-38.90461 -30.35587 2.868905 10
-26.34371 -10.58557 2.306 33
-13.21629 -10.208 2.045577 39
-22.87758 -9.188953 4.48652 31
-13.68294 -10.50033 4.610861 36
-31.3791 -24.56192 0.2292879 11
nan nan nan 0
nan nan nan 0
-27.5423 -11.24007 -0.3474121 37
-37.22194 -29.16809 1.394077 11
-28.35738 -18.23779 0.7818555 16
-48.20578 -25.13905 0.9293128 11
nan nan nan 0
nan nan nan 0
-0.2694061 -0.2066426 -0.07835092 9
nan nan nan 0
-7.396689 -5.675309 -0.8791803 28
-9.178411 -7.094834 -0.7415534 28
-9.646793 -6.153114 -0.7973164 18
-10.06795 -5.180892 -0.8523228 20
-10.81429 -4.375294 -0.9497253 26
-11.28479 -8.844455 -0.5817725 106
-11.89205 -7.667465 -0.6579909 16
-12.42801 -6.468844 -0.73218 12
-12.76339 -5.237846 -0.8004354 13
nan nan nan 0
-15.52984 -9.93339 -0.4270786 17
-16.12962 -8.337888 -0.5282146 24
-17.11987 -6.967981 -0.6376321 11
-6.327962 -2.606149 -1.234042 35
-8.57534 -3.458463 -1.035973 39
-57.60286 -23.26731 2.493589 6
-39.09319 -30.28408 2.875004 10
-26.27398 -10.4512 2.296678 35
-13.15341 -10.08627 2.030343 38
-22.71296 -9.030936 4.447967 26
-13.89619 -10.58719 4.67039 48
-31.53965 -24.51055 0.229835 11
nan nan nan 0
nan nan nan 0
-27.65091 -11.17194 -0.3482891 35
nan nan nan 0
-28.35767 -18.09835 0.7801148 10
-48.47087 -25.06247 0.9327335 12
-55.3258 -22.47123 0.7291106 8
nan nan nan 0
nan nan nan 0
-5.741667 -4.451529 -1.003919 47
-7.42437 -5.655491 -0.8801231 21
-9.214992 -7.071871 -0.7425135 30
-9.710354 -6.146085 -0.8008043 10
nan nan nan 0
nan nan nan 0
-11.32348 -8.81115 -0.5821791 104
-11.92716 -7.631291 -0.6584567 15
-12.48157 -6.441448 -0.7340118 13
-11.86119 -4.819712 -0.7426391 29
-16.31954 -12.60623 -0.3592578 37
-15.59818 -9.900552 -0.428007 17
-16.2209 -8.313441 -0.5302545 24
-17.17654 -6.921243 -0.6388413 11
-6.391705 -2.606294 -1.24475 30
-8.536591 -3.408274 -1.029824 33
-57.89248 -23.14955 2.502619 7
-39.28175 -30.21135 2.881103 10
-26.3845 -10.38862 2.303163 18
-13.36618 -10.17563 2.057764 46
-22.6299 -8.906589 4.425552 27
-14.30276 -10.81842 4.794623 15
-31.70418 -24.4614 0.230411 11
nan nan nan 0
nan nan nan 0
-27.76866 -11.10691 -0.349283 37
-37.06081 -28.62641 1.380511 15
nan nan nan 0
-48.70932 -24.97066 0.9356411 13
-55.48276 -22.30967 0.7301491 9
nan nan nan 0
nan nan nan 0
-5.733638 -4.413318 -0.9997905 44
-7.471847 -5.650574 -0.883423 10
-9.255491 -7.051765 -0.7437938 30
-9.702186 -6.093578 -0.7983628 16
-8.960358 -4.532348 -0.7555279 11
-10.53413 -4.176777 -0.9224507 38
-11.32255 -8.747123 -0.5805529 109
-11.95372 -7.589612 -0.6584567 16
-12.5351 -6.413756 -0.7358435 12
-11.9752 -4.817359 -0.7487382 18
-16.35551 -12.5431 -0.3590832 29
-15.67917 -9.875353 -0.4292836 18
-16.28546 -8.274877 -0.5314202 21
-17.23773 -6.876044 -0.6402233 10
-6.350566 -2.563747 -1.234935 35
-8.622387 -3.40763 -1.038769 38
-58.18663 -23.03189 2.511849 7
-39.47027 -30.13767 2.887202 9
-26.76425 -10.4303 2.333158 39
-13.45704 -10.17082 2.066295 37
-22.56459 -8.790068 4.406724 27
-14.2439 -10.6959 4.76227 44
-31.87272 -24.41444 0.2310158 11
-32.85462 -20.58352 0 7
nan nan nan 0
-27.92348 -11.0559 -0.3507447 32
nan nan nan 0
nan nan nan 0
nan nan nan 0
-55.92263 -22.26005 0.7349137 9
nan nan nan 0
nan nan nan 0
-5.682152 -4.342106 -0.9880931 56
-7.471631 -5.609504 -0.881066 21
-9.291984 -7.02845 -0.7447539 29
-9.736094 -6.06759 -0.7994092 14
-10.14839 -5.088583 -0.8545826 17
-10.81312 -4.243626 -0.9456545 43
-11.40453 -8.747093 -0.5831954 101
-12.02662 -7.577131 -0.6610188 16
-12.58859 -6.38577 -0.7376752 12
-11.9131 -4.744167 -0.7438008 20
-16.31171 -12.41929 -0.3571635 32
-15.67963 -9.799365 -0.4283552 20
-16.33657 -8.229219 -0.5321488 16
-17.29881 -6.830501 -0.6416054 11
-6.327487 -2.528808 -1.228689 34
-8.560176 -3.348595 -1.029824 46
-58.43879 -22.89605 2.519273 9
-39.67467 -30.07511 2.894463 11
-26.79119 -10.33323 2.332348 26
-13.48055 -10.11485 2.064467 34
-22.67317 -8.741312 4.421966 33
-13.93661 -10.38912 4.647096 31
-32.03336 -24.36055 0.2315629 11
-33.0579 -20.55055 0 8
nan nan nan 0
-28.03639 -10.98754 -0.3516802 36
-37.27566 -28.37909 1.3811 14
-42.41928 -26.4528 1.159727 12
nan nan nan 0
nan nan nan 0
nan nan nan 0
-0.272265 -0.2028609 -0.07835092 9
-5.713048 -4.33423 -0.9908454 49
-7.491166 -5.583389 -0.881066 28
-9.332417 -7.007964 -0.7460341 26
-9.757215 -6.033567 -0.7994092 17
nan nan nan 0
-10.89291 -4.231085 -0.9513536 39
-11.4032 -8.683005 -0.5815693 107
-12.08264 -7.553642 -0.6626492 15
-12.63757 -6.355245 -0.7392454 12
-11.95745 -4.713526 -0.7455434 17
-16.26325 -12.29291 -0.3551565 33
-15.69251 -9.7314 -0.4277749 22
-16.44568 -8.212328 -0.5347717 14
-17.36444 -6.786435 -0.6431602 10
-6.304243 -2.494061 -1.222443 37
-8.636697 -3.34377 -1.037651 108
-58.69071 -22.75874 2.526698 9
-39.83923 -29.98146 2.898819 10
-27.17632 -10.37286 2.362749 27
nan nan nan 0
-22.58864 -8.618306 4.399551 39
-13.91845 -10.30017 4.628979 31
-32.21396 -24.3209 0.2322541 10
-33.26986 -20.52166 0 8
-23.71556 -11.79001 -0.1384651 10
-28.17713 -10.92936 -0.3529665 43
-37.80107 -28.5713 1.396878 14
-42.63463 -26.38085 1.163093 16
-49.45116 -24.70046 0.9448769 16
nan nan nan 0
nan nan nan 0
nan nan nan 0
-5.830936 -4.391807 -1.008736 43
-5.070714 -3.7498 -0.5935056 15
-9.368818 -6.984298 -0.7469943 27
-9.79097 -6.007299 -0.8004555 18
-9.91083 -4.883238 -0.8316079 40
-11.04253 -4.244826 -0.9631591 13
-11.48125 -8.679318 -0.5840086 101
-12.14288 -7.532487 -0.6645125 16
-12.69989 -6.331138 -0.7416005 12
nan nan nan 0
-16.426 -12.32612 -0.3577743 16
-15.74766 -9.689663 -0.4283552 17
-16.53696 -8.185906 -0.5368117 12
-17.45328 -6.750998 -0.6455787 10
-6.340405 -2.482782 -1.227796 36
-8.764337 -3.357975 -1.051628 95
-58.99836 -22.64142 2.53653 7
-40.0476 -29.9199 2.90637 10
nan nan nan 0
-13.25164 -9.799092 2.018766 40
-22.77046 -8.596703 4.429139 33
-14.08663 -10.34878 4.672978 47
-32.35466 -24.2503 0.2326572 11
-27.98499 -17.12692 0 14
-23.77003 -11.71378 -0.1385436 16
-28.33181 -10.87571 -0.3544281 36
-37.94854 -28.47518 1.398648 20
-42.91815 -26.34956 1.168315 13
-49.63565 -24.57649 0.9467583 15
-56.55848 -21.82981 0.7402281 6
nan nan nan 0
nan nan nan 0
-5.814518 -4.347676 -1.003231 54
-5.103822 -3.746822 -0.5958626 33
-9.405169 -6.960463 -0.7479544 27
-9.82466 -5.980868 -0.8015018 17
nan nan nan 0
nan nan nan 0
-11.60336 -8.708196 -0.5886838 100
-12.19462 -7.505766 -0.6659101 15
-12.78011 -6.315518 -0.7450023 12
-12.30676 -4.752069 -0.7652929 14
-16.57715 -12.34937 -0.3601304 15
-15.74726 -9.613792 -0.4274268 19
-16.63723 -8.163349 -0.5391431 11
-17.53274 -6.711454 -0.6476517 12
-6.399508 -2.480152 -1.237612 35
-8.618008 -3.267564 -1.032619 97
-47.32095 -17.97198 2.031471 6
-40.24801 -29.8513 2.913341 10
-27.78962 -10.38514 2.409768 21
-13.27776 -9.746902 2.017547 38
-22.98927 -8.587696 4.465899 38
-14.04073 -10.23976 4.645802 42
-32.52335 -24.1999 0.233262 12
-28.0788 -17.04989 0 11
-23.81976 -11.63513 -0.138596 36
-28.50047 -10.82644 -0.3560652 27
-37.72709 -28.10365 1.386851 22
-43.02694 -26.20999 1.168779 15
nan nan nan 0
-47.36771 -18.09368 0.6190354 4
nan nan nan 0
nan nan nan 0
-5.889275 -4.371676 -1.013552 46
-7.581386 -5.528117 -0.8848372 27
-9.441469 -6.936458 -0.7489145 26
-9.858284 -5.954275 -0.8025482 18
nan nan nan 0
-11.06257 -4.164126 -0.9623449 36
-11.60565 -8.646735 -0.587261 99
-12.25058 -7.481379 -0.6675405 15
-12.76621 -6.253302 -0.7429089 12
-12.31861 -4.707303 -0.7650025 19
-14.42194 -10.66484 -0.312398 32
-15.74225 -9.535455 -0.4263822 18
-16.73754 -8.14019 -0.5414745 13
-17.61215 -6.671439 -0.6497248 11
-6.366773 -2.441974 -1.229581 34
-8.843403 -3.317617 -1.058337 109
-47.30856 -17.77857 2.028261 29
-14.46414 -10.6454 1.042657 12
-27.11516 -10.02552 2.348156 41
-13.16735 -9.595229 1.99561 38
nan nan nan 0
-14.26804 -10.32952 4.709212 25
-14.44746 -10.66802 0.1032112 10
-28.55785 -17.20466 0 9
-23.86473 -11.55409 -0.1386221 29
-28.65042 -10.76909 -0.3574684 23
-37.75264 -27.91829 1.384197 15
-43.29784 -26.16824 1.173654 10
-23.79893 -11.57857 0.4520427 26
nan nan nan 0
nan nan nan 0
-0.2866812 -0.2077475 -0.08214208 10
-5.952314 -4.386384 -1.021809 44
-7.592576 -5.495777 -0.8838944 25
-9.477715 -6.912285 -0.7498747 26
-9.891842 -5.92752 -0.8035945 18
nan nan nan 0
-11.03967 -4.111588 -0.9590882 40
nan nan nan 0
-12.30225 -7.454104 -0.668938 15
-12.78346 -6.206521 -0.7426472 13
-12.20888 -4.616657 -0.7571608 17
-14.45102 -10.60851 -0.3122235 37
-15.74973 -9.464994 -0.425686 19
-16.83789 -8.116433 -0.543806 13
-17.69148 -6.63095 -0.6517978 11
-6.356855 -2.412766 -1.226012 34
-9.372093 -3.47834 -1.120394 49
-60.01427 -22.31305 2.57004 6
-14.41257 -10.53003 1.036268 42
-27.30446 -9.987275 2.361532 35
-13.249 -9.584127 2.002923 43
-24.58258 -8.987418 4.763565 24
-14.17854 -10.18942 4.667801 29
-14.4201 -10.57021 0.1027505 39
-16.28776 -9.734302 0 31
nan nan nan 0
nan nan nan 0
-14.43274 -10.59105 0.5270182 37
-16.32126 -9.785185 0.440889 12
-23.87523 -11.5128 0.4527268 23
nan nan nan 0
nan nan nan 0
-0.2757639 -0.1980783 -0.07835092 9
-5.975579 -4.371434 -1.023185 41
-7.627876 -5.480867 -0.88578 25
-9.513906 -6.887943 -0.7508348 26
-9.925335 -5.900604 -0.8046409 17
-9.090934 -4.322775 -0.757411 113
-10.8622 -4.002476 -0.9423978 41
nan nan nan 0
-12.35816 -7.429132 -0.6705684 15
nan nan nan 0
-12.39325 -4.636914 -0.7676164 19
-14.48392 -10.55506 -0.3121363 32
-15.80414 -9.422761 -0.4262662 20
-16.93827 -8.092072 -0.5461374 14
-17.76138 -6.586515 -0.6535254 10
-6.434342 -2.416454 -1.239396 32
-8.861683 -3.254088 -1.057778 110
-31.33424 -11.52841 1.339399 38
-14.49367 -10.51191 1.039462 31
-27.48912 -9.946133 2.374504 29
-13.23804 -9.505964 1.99622 43
-24.62769 -8.906569 4.766255 34
-13.47108 -9.60954 4.423217 13
-14.50542 -10.55513 0.103096 19
-16.33455 -9.685038 0 34
nan nan nan 0
nan nan nan 0
-14.49386 -10.55827 0.527903 34
-16.33384 -9.715375 0.4403087 33
nan nan nan 0
-31.10993 -11.51359 0.4048103 37
nan nan nan 0
-0.280344 -0.1999901 -0.07961464 10
nan nan nan 0
-7.651013 -5.457101 -0.8862514 29
-9.550044 -6.863433 -0.751795 24
-9.993126 -5.893802 -0.8084775 17
-9.137543 -4.305887 -0.7600475 104
nan nan nan 0
-11.59466 -8.451122 -0.5821791 106
-12.40975 -7.401303 -0.6719659 16
-10.01855 -4.77841 -0.5796207 11
nan nan nan 0
-14.57332 -10.54255 -0.3132707 17
-15.88426 -9.395535 -0.4275428 19
-17.02966 -8.062832 -0.5481774 14
-17.83587 -6.543393 -0.6554256 10
-6.202864 -2.305056 -1.192997 59
-8.905686 -3.234991 -1.061691 110
nan nan nan 0
nan nan nan 0
-27.72075 -9.920606 2.391528 38
-13.15398 -9.376123 1.978549 33
-24.71884 -8.842073 4.777911 36
nan nan nan 0
-14.55838 -10.51615 0.1032112 12
-16.42428 -9.660922 0 16
-32.32927 -15.23568 -0.1869239 15
-29.20797 -10.63085 -0.3630228 24
nan nan nan 0
-16.39779 -9.676086 0.4411211 31
nan nan nan 0
-31.3753 -11.4874 0.4077424 8
nan nan nan 0
-0.2810404 -0.1990103 -0.07961464 9
-5.15071 -3.71211 -0.876623 12
-7.678137 -5.436117 -0.8871943 24
-9.590186 -6.841653 -0.7530752 27
-10.03516 -5.871481 -0.8102214 12
nan nan nan 0
nan nan nan 0
-11.68883 -8.45748 -0.5854315 101
-12.457 -7.370659 -0.6731305 15
-9.750747 -4.609027 -0.5631349 14
-12.32688 -4.514274 -0.7615173 16
-16.83075 -12.08735 -0.361003 22
-15.96007 -9.365334 -0.4287033 18
-17.12105 -8.033054 -0.5502174 14
-17.91967 -6.503238 -0.6576715 11
-6.363297 -2.33929 -1.222443 37
-9.501543 -3.413554 -1.131576 44
nan nan nan 0
nan nan nan 0
-27.70823 -9.807162 2.387475 46
-13.27573 -9.393241 1.991954 41
nan nan nan 0
-14.1857 -9.970924 4.635449 36
nan nan nan 0
nan nan nan 0
nan nan nan 0
-29.42366 -10.59315 -0.3652446 30
nan nan nan 0
nan nan nan 0
nan nan nan 0
nan nan nan 0
nan nan nan 0
-0.2895539 -0.2037246 -0.08214208 9
-4.974447 -3.558511 -0.8442829 12
nan nan nan 0
-9.626223 -6.816793 -0.7540354 28
-10.12461 -5.876487 -0.8158019 8
-9.86427 -4.564294 -0.8180491 33
-11.33543 -4.042306 -0.9798495 64
-11.58035 -8.317483 -0.5785201 112
-12.5085 -7.342305 -0.674528 16
-13.05428 -6.11424 -0.7533761 9
-12.75561 -4.620659 -0.7870754 17
-16.84435 -12.00821 -0.3603922 34
-16.02722 -9.329688 -0.4296318 18
-17.21243 -8.002734 -0.5522574 13
-17.99401 -6.459203 -0.6595717 9
-6.334425 -2.303641 -1.215304 37
-9.536815 -3.388671 -1.134371 49
-24.92493 -8.876307 1.061085 26
nan nan nan 0
-28.36793 -9.929235 2.441385 36
-13.45055 -9.446719 2.013282 31
-24.56637 -8.594616 4.736668 26
-15.19856 -10.60421 4.955091 18
nan nan nan 0
nan nan nan 0
nan nan nan 0
-29.56409 -10.52726 -0.3665309 21
nan nan nan 0
nan nan nan 0
nan nan nan 0
-61.26418 -21.94141 0.7945938 6
nan nan nan 0
-0.2981036 -0.2083819 -0.08466953 10
-6.040067 -4.290446 -1.023874 44
-7.732224 -5.393782 -0.8890799 30
-9.662201 -6.791763 -0.7549955 26
-10.10184 -5.816216 -0.8123141 17
-9.780427 -4.484138 -0.8097632 48
-11.13795 -3.928225 -0.9615307 28
-11.67845 -8.326342 -0.5819758 102
-12.55563 -7.311167 -0.6756926 16
-9.90045 -4.59548 -0.5699385 13
-12.62597 -4.523969 -0.778072 18
-16.83312 -11.91178 -0.3592578 28
-16.10297 -9.298686 -0.4307923 17
-17.30382 -7.971874 -0.5542974 12
-18.12005 -6.433104 -0.6633723 4
-6.314644 -2.271546 -1.20995 34
-9.506388 -3.340559 -1.12934 50
-24.94163 -8.784272 1.060483 33
-41.58146 -29.2932 2.957196 7
nan nan nan 0
-14.50506 -10.1124 2.166228 33
-24.52649 -8.484703 4.723219 44
-14.94172 -10.34754 4.859327 37
nan nan nan 0
-19.18238 -11.01487 0 31
-32.31888 -14.8192 -0.1859553 15
-25.22885 -8.885297 -0.3123318 12
-38.52893 -27.26302 1.391423 46
-19.18785 -11.05358 0.5131906 6
nan nan nan 0
-25.13152 -8.90519 0.3252777 18
nan nan nan 0
nan nan nan 0
-6.119733 -4.315046 -1.034883 42
-7.759186 -5.37243 -0.8900227 29
-9.702212 -6.769422 -0.7562757 29
-10.13074 -5.785867 -0.8130116 17
nan nan nan 0
nan nan nan 0
-11.65852 -8.250875 -0.5795365 107
-12.61567 -7.287285 -0.6775559 15
-10.10697 -4.648492 -0.5809291 11
-12.76403 -4.52317 -0.7856233 18
-16.98094 -11.92769 -0.3615266 34
-16.17437 -9.264785 -0.4318368 17
-17.3952 -7.940474 -0.5563374 13
-18.13297 -6.366506 -0.6630268 11
-6.294716 -2.239618 -1.204597 33
-9.663512 -3.357832 -1.146671 41
-25.06651 -8.73 1.064496 6
-41.78572 -29.21939 2.964457 9
nan nan nan 0
-14.46275 -10.00803 2.15465 46
-25.05865 -8.570855 4.82005 25
-13.17912 -9.058228 4.274396 11
-33.87394 -23.76488 0.2381 9
-19.2294 -10.9528 0 15
-32.62078 -14.82003 -0.1873952 13
-29.92489 -10.42085 -0.3700973 14
-38.66885 -27.15996 1.393045 37
-19.1916 -10.96669 0.5122622 36
-53.99399 -24.65388 1.014659 7
nan nan nan 0
nan nan nan 0
nan nan nan 0
-6.159089 -4.310714 -1.039011 38
-7.773792 -5.342492 -0.8895513 29
-9.738086 -6.744042 -0.7572358 27
-10.14654 -5.74801 -0.8126628 17
-9.352254 -4.209166 -0.7717232 7
nan nan nan 0
-11.73221 -8.241735 -0.5817725 104
-12.66703 -7.258106 -0.6789534 15
-10.16858 -4.633883 -0.5835459 12
-12.61014 -4.419225 -0.7751676 14
-17.10037 -11.92269 -0.3631845 30
-16.25442 -9.235436 -0.4331134 17
-17.49112 -7.910591 -0.5585231 12
-18.16924 -6.308084 -0.6635451 11
-6.279285 -2.209485 -1.200135 31
-9.637575 -3.311184 -1.142199 45
nan nan nan 0
-41.99406 -29.14737 2.972008 9
-28.96606 -9.799221 2.483946 11
-14.11315 -9.693257 2.097371 47
nan nan nan 0
nan nan nan 0
-33.96078 -23.64935 0.2381288 11
nan nan nan 0
nan nan nan 0
nan nan nan 0
-39.02168 -27.20492 1.402334 39
nan nan nan 0
-54.25736 -24.54562 1.017994 7
nan nan nan 0
nan nan nan 0
-0.2844708 -0.1940751 -0.07961464 9
nan nan nan 0
-7.812947 -5.32936 -0.8919083 27
-9.77801 -6.721322 -0.758516 27
-10.16654 -5.712556 -0.8126628 17
-10.52817 -4.694015 -0.8677648 26
-10.99921 -3.750348 -0.9460616 25
-11.84284 -8.257913 -0.585838 102
-12.72268 -7.231125 -0.6805838 15
-10.2211 -4.614791 -0.5856393 10
-13.6538 -4.731066 -0.8384822 14
-17.16244 -11.87715 -0.3636208 32
-16.32139 -9.198278 -0.4340418 18
-17.5916 -7.882177 -0.5608546 12
-18.23369 -6.259213 -0.6650999 11
-6.28696 -2.187552 -1.200135 31
-9.705541 -3.296669 -1.148908 45
nan nan nan 0
-42.20652 -29.07707 2.97985 10
-31.38228 -10.49419 2.68824 18
-14.17559 -9.663509 2.101637 44
-24.97324 -8.347396 4.792256 33
-14.75339 -9.990028 4.763564 20
-34.24054 -23.66714 0.2395111 8
nan nan nan 0
-32.43119 -14.46162 -0.1857196 16
-29.74606 -10.12634 -0.3669986 20
-39.2027 -27.12827 1.405431 47
-45.60162 -25.64058 1.213692 17
-54.56169 -24.45422 1.022099 7
nan nan nan 0
nan nan nan 0
-0.2891059 -0.1958605 -0.08087836 10
-6.205333 -4.278868 -1.041764 43
-7.835623 -5.304848 -0.8923798 27
-9.813774 -6.695592 -0.7594762 26
-10.20385 -5.686749 -0.814058 18
-10.508 -4.641128 -0.8647517 36
-11.03112 -3.718289 -0.9476899 28
-11.94141 -8.264884 -0.5892937 102
-12.7783 -7.203845 -0.6822143 15
nan nan nan 0
nan nan nan 0
-17.22851 -11.83416 -0.3641444 30
-16.39266 -9.163204 -0.4350863 17
-17.68753 -7.851133 -0.5630403 11
-18.29329 -6.208364 -0.6664819 12
-6.28525 -2.1624 -1.198351 31
-9.726412 -3.265928 -1.150026 37
-61.98774 -20.85494 2.625221 36
