# .PCD v0.7 - Point Cloud Data file format
VERSION 0.7
FIELDS x y z intensity
SIZE 4 4 4 4
TYPE F F F F
COUNT 1 1 1 1
WIDTH 1648
HEIGHT 1
VIEWPOINT 0 0 0 1 0 0 0
POINTS 1648
DATA ascii
-3.256978 2.440485 -0.02110093 31
-2.688696 2.422945 -0.04186251 8
nan nan nan 0
nan nan nan 0
-3.281197 2.448954 0.06935425 30
-2.734133 2.454655 0.0444088 8
nan nan nan 0
-0.2943226 0.1489276 -0.07582346 10
-9.647676 4.768044 -1.489709 18
-13.62793 6.880808 -1.442044 99
-24.10524 12.06117 -1.726344 8
-21.03845 13.02609 -1.727519 10
-3.199243 2.415331 -0.2998007 17
-2.650012 2.403758 -0.2890291 7
-35.88781 17.65746 -1.625792 76
-30.32647 18.57181 -1.656507 64
-3.243138 2.424856 -0.2101289 71
-2.655192 2.384359 -0.2053366 9
-37.20835 18.47652 -0.7244493 21
nan nan nan 0
-3.235438 2.433118 -0.1168629 46
-2.681055 2.421128 -0.1235185 8
-2.626775 2.35475 -0.6326363 9
-2.624622 2.38658 -0.3947098 9
-2.704168 2.454028 0.1450764 10
nan nan nan 0
-2.721025 2.496117 0.297117 13
nan nan nan 0
-2.761755 2.534494 0.6760264 8
nan nan nan 0
-40.30295 20.04787 0.259036 23
-34.0601 21.14502 0 14
-3.236472 2.442798 -0.02102239 95
-2.66913 2.422219 -0.04168711 8
-43.16135 21.44115 1.420767 12
-37.07705 22.94624 1.01141 17
-3.264639 2.454381 0.06918322 23
-2.714437 2.454109 0.04422554 8
nan nan nan 0
-0.3111887 0.158446 -0.08087836 10
-9.635407 4.803899 -1.490397 21
-13.71474 6.984774 -1.45383 71
-24.09863 12.16322 -1.728904 10
-20.97593 13.08889 -1.726124 9
-3.174924 2.414404 -0.2982942 17
-2.637931 2.409627 -0.2886221 7
nan nan nan 0
nan nan nan 0
-3.218705 2.42414 -0.2090821 30
-2.661642 2.407027 -0.2064984 8
-36.86201 18.46526 -0.7189518 21
-30.74803 19.13368 -0.8398825 33
-3.21896 2.438358 -0.1165715 17
-2.661511 2.420369 -0.1230003 9
-2.607599 2.353999 -0.6299595 10
-2.605298 2.385643 -0.3930326 9
-2.68822 2.456701 0.1446751 11
nan nan nan 0
-2.701329 2.495438 0.2959009 12
nan nan nan 0
-2.745676 2.537431 0.6742333 10
nan nan nan 0
-40.88076 20.5135 0.2632117 22
-33.60034 21.02247 0 14
-3.219967 2.448025 -0.02097004 34
-2.653288 2.424765 -0.04157018 9
-43.18901 21.64317 1.424158 9
-36.20358 22.58087 0.9897082 15
-3.244099 2.456702 0.06892667 45
-2.69847 2.456827 0.04410337 8
nan nan nan 0
-0.3062942 0.1573931 -0.07961464 10
-9.623006 4.839727 -1.491085 25
-13.74785 7.062154 -1.459958 77
-24.04713 12.24274 -1.728264 11
-20.91322 13.15141 -1.724729 9
-3.150651 2.413337 -0.2967876 17
-2.622179 2.412061 -0.2878079 6
-35.53583 17.79353 -1.615425 82
-29.96282 18.638 -1.643696 84
-3.194317 2.423282 -0.2080354 29
-2.649538 2.412937 -0.206208 8
-35.93166 18.15654 -0.702023 16
-30.63024 19.20903 -0.8384899 28
-3.198513 2.440479 -0.1161343 17
-2.642006 2.419504 -0.122482 8
-2.592095 2.356457 -0.6281748 9
-2.586012 2.384601 -0.3913554 10
-2.668615 2.455903 0.1440731 10
nan nan nan 0
-2.681671 2.494652 0.2946849 13
nan nan nan 0
-2.733206 2.543643 0.6733366 9
nan nan nan 0
-40.69737 20.59964 0.2624917 35
-33.64942 21.21696 0 17
-3.199497 2.450124 -0.0208915 21
-2.633786 2.423838 -0.04139477 8
-42.84557 21.65854 1.415311 15
-36.35308 22.85075 0.9959751 16
-3.223583 2.45891 0.06867012 46
-2.678837 2.456079 0.04392012 8
nan nan nan 0
-0.305743 0.1584614 -0.07961464 10
-9.583963 4.862096 -1.487644 27
-13.79384 7.146715 -1.4675 49
-24.00426 12.32661 -1.728264 11
-20.85455 13.21632 -1.723682 8
-3.13037 2.415178 -0.2956577 17
-2.613744 2.4212 -0.2878079 5
-35.53593 17.94899 -1.618271 58
nan nan nan 0
-3.166008 2.41925 -0.206727 30
-2.633752 2.415412 -0.2056271 7
-36.03287 18.36583 -0.7052517 52
nan nan nan 0
-3.186013 2.448581 -0.1159886 17
-2.626208 2.421925 -0.1221365 8
-2.572983 2.355508 -0.6254979 9
-2.570402 2.38684 -0.3902372 9
-2.652707 2.4584 0.1436718 10
nan nan nan 0
-2.662052 2.493759 0.2934689 13
nan nan nan 0
-2.717143 2.54643 0.6715435 10
nan nan nan 0
-39.89486 20.3688 0.2577689 25
nan nan nan 0
-3.179052 2.452111 -0.02081296 21
-2.617986 2.426209 -0.04127784 8
-42.68955 21.76711 1.412657 16
-36.54335 23.14869 1.003403 22
-3.207054 2.464053 0.06849909 20
-2.66291 2.458621 0.04379795 8
nan nan nan 0
-0.296539 0.1551909 -0.07708719 10
-9.540475 4.881999 -1.483516 29
-13.83941 7.231682 -1.475043 98
-23.95665 12.40803 -1.727944 11
-20.79568 13.28098 -1.722636 9
-3.106179 2.413845 -0.2941512 17
-2.583444 2.409878 -0.2853654 6
-35.34841 18.00944 -1.612579 74
-29.71796 18.7747 -1.637407 66
-3.141722 2.418098 -0.2056803 31
-2.610657 2.411022 -0.2044654 8
-36.04858 18.53263 -0.7068225 50
-30.76523 19.59424 -0.8459173 28
-3.165595 2.450504 -0.1155515 17
-2.610425 2.424265 -0.121791 7
-2.557521 2.357795 -0.6237134 9
-2.554807 2.388999 -0.3891191 9
-2.633168 2.457402 0.1430698 12
nan nan nan 0
-2.642472 2.49276 0.2922528 13
nan nan nan 0
-2.704665 2.552518 0.6706469 15
nan nan nan 0
-39.76128 20.4759 0.2573657 30
nan nan nan 0
-3.158632 2.453985 -0.02073442 20
-2.602201 2.428499 -0.04116091 8
-43.28447 22.26107 1.434923 15
-36.47497 23.28417 1.003751 17
-3.186577 2.466048 0.06824253 18
-2.646999 2.461082 0.04367578 7
nan nan nan 0
nan nan nan 0
-9.483757 4.894849 -1.477323 27
-13.89336 7.321693 -1.483528 91
-23.90877 12.48927 -1.727624 10
-20.7408 13.3481 -1.721938 10
-3.085961 2.415447 -0.2930213 17
-2.556882 2.401793 -0.28333 4
-35.13869 18.05739 -1.605871 83
-29.42893 18.73617 -1.625063 71
-3.121428 2.419868 -0.2048953 31
-2.580325 2.399691 -0.2027228 8
-35.85939 18.59393 -0.7043791 48
-30.43582 19.53412 -0.838722 33
-3.141262 2.449239 -0.1149686 17
-2.591014 2.423106 -0.1212728 9
-2.538474 2.356649 -0.6210365 10
-2.539228 2.391078 -0.3880009 9
-2.613668 2.456298 0.1424679 11
nan nan nan 0
-2.622931 2.491655 0.2910368 13
nan nan nan 0
-2.688618 2.555155 0.6688538 13
nan nan nan 0
-40.12443 20.84036 0.2601879 16
-33.22372 21.43805 0 29
-3.134302 2.452663 -0.0206297 19
-2.586432 2.430709 -0.04104397 8
-41.83555 21.70109 1.389358 16
-35.67037 22.94624 0.9837894 18
-3.166124 2.467931 0.06798598 18
-2.627459 2.460039 0.04349252 8
nan nan nan 0
nan nan nan 0
-9.43146 4.909648 -1.471818 23
-13.85893 7.365476 -1.482585 85
-23.86061 12.57032 -1.727304 11
-20.68152 13.41227 -1.720892 10
-3.061855 2.41385 -0.2915147 17
-2.526794 2.390121 -0.2808875 4
-34.87139 18.07421 -1.596521 87
-29.65763 19.02756 -1.641367 77
-3.097226 2.418449 -0.2038485 27
-2.550104 2.388178 -0.2009802 8
-34.58035 18.08437 -0.6804693 16
-30.31288 19.60496 -0.8372133 29
-3.116976 2.447835 -0.1143858 17
-2.575275 2.425273 -0.1209272 9
-2.523055 2.358766 -0.6192519 10
-2.523666 2.393078 -0.3868827 9
-2.597831 2.458527 0.1420665 11
nan nan nan 0
-2.60343 2.490443 0.2898208 14
nan nan nan 0
-2.669037 2.554305 0.666164 15
nan nan nan 0
-39.54206 20.71355 0.2568761 22
nan nan nan 0
-3.113945 2.454299 -0.02055116 21
-2.567053 2.429396 -0.04086857 8
-41.70197 21.81688 1.387441 21
-36.12696 23.41862 0.9986444 11
-3.141767 2.466613 0.06764392 18
-2.61159 2.462326 0.04337035 8
nan nan nan 0
nan nan nan 0
-9.379176 4.924141 -1.466314 30
nan nan nan 0
-23.81218 12.6512 -1.726984 11
-20.63041 13.48166 -1.720543 10
-3.041702 2.415216 -0.2903849 18
-2.496818 2.378269 -0.278445 8
nan nan nan 0
-29.43584 19.03064 -1.632749 65
-3.076995 2.41998 -0.2030635 31
-2.545378 2.400496 -0.2012706 8
-34.42857 18.15834 -0.6787241 27
-30.19401 19.6779 -0.8358206 32
-3.092739 2.446291 -0.1138029 17
-2.555932 2.423915 -0.120409 9
-2.504075 2.357425 -0.616575 10
-2.508122 2.394998 -0.3857645 10
-2.5784 2.457223 0.1414646 11
nan nan nan 0
-2.587554 2.49259 0.2890101 14
nan nan nan 0
-2.653031 2.556769 0.6643708 16
nan nan nan 0
-38.69139 20.44049 0.2518077 15
-32.35807 21.20093 0 7
-3.093616 2.455822 -0.02047262 21
-2.55133 2.431432 -0.04075164 8
nan nan nan 0
-35.63905 23.27944 0.9873872 16
-3.121377 2.468257 0.06738736 17
-2.592118 2.461083 0.0431871 8
nan nan nan 0
nan nan nan 0
-9.331285 4.940645 -1.461497 34
-14.09624 7.618155 -1.513699 73
-23.75908 12.72953 -1.726344 10
-20.57489 13.5481 -1.719846 9
-3.021576 2.416471 -0.2892549 18
-2.48132 2.380059 -0.2776308 5
-34.22285 18.04237 -1.572534 81
-29.37341 19.136 -1.632982 63
-3.052878 2.418298 -0.2020168 30
-2.53337 2.405923 -0.2009802 8
nan nan nan 0
nan nan nan 0
-3.072458 2.447723 -0.1133658 17
-2.53663 2.422452 -0.1198907 8
-2.4887 2.359371 -0.6147904 10
-2.492594 2.396839 -0.3846464 10
-2.562608 2.459279 0.1410632 12
-49.76562 26.61208 3.28132 5
-2.571694 2.494656 0.2881994 12
nan nan nan 0
-2.633516 2.55572 0.661681 13
nan nan nan 0
-39.92606 21.27115 0.2603319 18
nan nan nan 0
-3.073313 2.457234 -0.02039408 20
-2.532021 2.429921 -0.04057623 9
-41.6413 22.15676 1.390538 16
-35.67031 23.4779 0.9905206 16
-3.097106 2.466672 0.06704529 18
-2.572685 2.459735 0.04300384 9
nan nan nan 0
nan nan nan 0
-9.283393 4.956875 -1.45668 26
-14.10016 7.683978 -1.516999 80
-23.71011 12.81001 -1.726024 11
-20.52331 13.61708 -1.719497 10
-2.997597 2.414485 -0.2877484 18
-2.472997 2.388706 -0.2776308 11
-34.08907 18.1242 -1.569282 77
-29.20205 19.1699 -1.627159 73
-3.032713 2.419592 -0.2012317 30
-2.521354 2.411296 -0.2006897 8
-34.15998 18.32265 -0.6759317 8
-29.83912 19.74479 -0.8297859 31
-3.048309 2.445915 -0.1127829 17
-2.51737 2.420883 -0.1193725 8
-2.46979 2.357836 -0.6121135 9
-2.473521 2.395139 -0.3829692 8
-2.543247 2.457778 0.1404613 12
-50.30512 27.12673 3.323143 17
-2.552292 2.493153 0.2869834 14
nan nan nan 0
-2.614041 2.554567 0.6589913 15
nan nan nan 0
-39.91323 21.44351 0.2607351 24
nan nan nan 0
-3.053039 2.458534 -0.02031554 19
-2.512754 2.428304 -0.04040083 8
nan nan nan 0
nan nan nan 0
-3.076781 2.468079 0.06678875 18
-2.553294 2.458281 0.04282059 8
nan nan nan 0
nan nan nan 0
-9.235501 4.97283 -1.451864 26
-14.14743 7.773877 -1.525012 59
-23.65648 12.88793 -1.725384 10
-20.46736 13.68309 -1.718799 9
-2.97754 2.415504 -0.2866185 18
-2.471777 2.404285 -0.278445 6
-33.77021 18.1062 -1.557492 80
-28.93916 19.14222 -1.616212 49
-3.012577 2.420775 -0.2004467 29
-2.505741 2.413146 -0.2001088 8
-33.95949 18.36807 -0.6732266 38
nan nan nan 0
-3.028095 2.447111 -0.1123458 17
-2.498151 2.41921 -0.1188542 8
-2.454462 2.359612 -0.610329 9
-2.458042 2.39681 -0.381851 10
-2.527502 2.45966 0.14006 11
-49.67072 27.00892 3.287419 102
-2.53648 2.495047 0.2861727 13
nan nan nan 0
-2.594606 2.553309 0.6563015 14
nan nan nan 0
nan nan nan 0
-33.11864 22.19834 0 45
-3.028911 2.45657 -0.02021082 21
-2.497107 2.430076 -0.0402839 8
-40.72511 22.03557 1.365027 31
-36.04169 24.0846 1.005492 17
-3.052598 2.46623 0.06644668 18
-2.533945 2.456722 0.04263733 8
nan nan nan 0
nan nan nan 0
-9.187612 4.988512 -1.447047 29
-14.18118 7.856967 -1.531612 41
-23.60698 12.96802 -1.725064 10
-20.4112 13.74888 -1.718102 9
-2.957512 2.416414 -0.2854886 18
-2.452706 2.40242 -0.2772237 5
nan nan nan 0
-28.37342 18.91075 -1.588262 67
-2.988589 2.418705 -0.1994 30
-2.486569 2.411437 -0.1992375 9
-33.78983 18.42907 -0.6711322 53
-29.90802 20.09199 -0.8355886 37
-3.004035 2.445039 -0.1117629 17
-2.482547 2.420927 -0.1185087 9
-2.439151 2.36131 -0.6085443 10
-2.439042 2.394915 -0.3801738 8
-2.511775 2.461463 0.1396586 12
-49.55426 27.17014 3.285967 6
-2.520685 2.49686 0.285362 13
-95.98755 53.21284 13.47083 12
-2.571723 2.548479 0.6527151 12
nan nan nan 0
-39.25353 21.44364 0.2573945 17
nan nan nan 0
-3.008705 2.457634 -0.02013228 22
-2.477913 2.428262 -0.04010849 9
-40.72253 22.21828 1.367534 22
nan nan nan 0
-3.032342 2.4674 0.06619013 19
-2.514637 2.455058 0.04245408 8
nan nan nan 0
-0.2920902 0.1634102 -0.07708719 10
-9.139726 5.003921 -1.442231 29
-14.43618 8.064121 -1.562254 16
-23.56157 13.05035 -1.725064 10
-20.35483 13.81445 -1.717404 9
-2.937515 2.417212 -0.2843587 17
-2.412425 2.379419 -0.27356 5
-33.2394 18.12158 -1.53879 77
nan nan nan 0
-2.968521 2.419652 -0.1986149 30
-2.467439 2.409622 -0.1983662 8
-33.97938 18.68659 -0.6761934 31
-29.66383 20.07859 -0.8307143 24
-2.980028 2.442829 -0.1111801 17
-2.463402 2.419058 -0.1179904 9
-2.423859 2.362931 -0.6067598 9
-2.420084 2.392916 -0.3784965 9
-2.492516 2.459671 0.1390567 11
nan nan nan 0
-2.501386 2.495068 0.284146 13
-95.19039 53.2062 13.38491 11
-2.552383 2.547 0.6500254 11
nan nan nan 0
-38.99887 21.48164 0.2562138 16
-32.24356 21.93962 0 30
-2.984668 2.455408 -0.02002756 21
-2.462316 2.429863 -0.03999156 8
-40.47394 22.26636 1.361783 19
-34.71438 23.54993 0.9729964 16
-3.012115 2.468458 0.06593358 19
-2.495373 2.453289 0.04227082 9
nan nan nan 0
nan nan nan 0
-9.096183 5.021447 -1.438102 28
-15.13238 8.522162 -1.640979 12
-23.52023 13.13495 -1.725384 10
-20.29413 13.87697 -1.716358 10
-2.917548 2.417902 -0.2832288 17
-2.340566 2.324508 -0.2662325 6
-32.8826 18.07629 -1.525171 73
-28.84881 19.51978 -1.622501 74
-2.948483 2.42049 -0.1978299 29
-2.444799 2.404199 -0.1972045 8
-34.32495 19.03291 -0.6843961 48
-29.86201 20.36506 -0.8382578 21
-2.959925 2.443665 -0.1107429 17
-2.447848 2.420603 -0.1176449 9
-2.408585 2.364474 -0.6049752 10
-2.401171 2.390815 -0.3768193 9
-2.476839 2.461303 0.1386553 12
-50.31389 28.04514 3.349282 16
-2.485641 2.496709 0.2833353 12
-94.49822 53.25311 13.31362 10
-2.533084 2.545418 0.6473356 9
nan nan nan 0
-38.16303 21.19534 0.251203 12
nan nan nan 0
-2.964534 2.456236 -0.01994902 22
-2.446737 2.431384 -0.03987463 8
-40.23862 22.32025 1.356475 16
nan nan nan 0
-2.991917 2.469405 0.06567702 18
-2.479699 2.454939 0.04214865 8
nan nan nan 0
-0.2866961 0.1631274 -0.07582346 11
-9.056956 5.041137 -1.434662 35
-15.21944 8.641256 -1.653707 8
-23.47423 13.21697 -1.725384 10
-20.25378 13.95338 -1.717056 10
-2.897611 2.418481 -0.2820989 17
-2.262084 2.262065 -0.2580908 25
-32.69694 18.12317 -1.519479 94
nan nan nan 0
-2.928476 2.421217 -0.1970449 31
-2.425768 2.402165 -0.1963332 9
-34.0052 19.01116 -0.6793349 23
-29.98438 20.60221 -0.8437123 24
-2.936011 2.441194 -0.1101601 17
-2.428777 2.418539 -0.1171267 9
-2.393331 2.365938 -0.6031906 10
-2.385805 2.392135 -0.3757011 10
-2.46118 2.462855 0.138254 11
-50.19828 28.21082 3.34812 10
-2.469914 2.498271 0.2825246 13
-93.85436 53.3228 13.24903 10
-2.513827 2.543732 0.6446459 10
nan nan nan 0
-37.36022 20.92055 0.2463938 30
nan nan nan 0
-2.940592 2.453748 -0.0198443 21
-2.427649 2.429283 -0.03969923 9
-39.99906 22.37033 1.351019 28
nan nan nan 0
-2.97175 2.470242 0.06542047 18
-2.460509 2.452974 0.0419654 8
nan nan nan 0
nan nan nan 0
-9.013384 5.058192 -1.430533 39
-15.21943 8.711631 -1.657007 8
-23.43229 13.30129 -1.725704 11
-20.20905 14.02684 -1.717404 9
-2.877707 2.41895 -0.280969 16
-2.236648 2.252236 -0.2560554 25
-32.60731 18.22257 -1.51826 89
nan nan nan 0
-2.904664 2.418637 -0.1959981 30
-2.406781 2.400027 -0.1954619 7
-33.78183 19.04139 -0.6761934 20
-29.93694 20.72382 -0.8444087 32
-2.915981 2.441796 -0.1097229 17
-2.413275 2.419914 -0.1167812 8
-2.378095 2.367326 -0.601406 9
-2.366969 2.38984 -0.3740239 9
-2.442028 2.460775 0.137652 12
-94.01302 53.2613 6.284696 5
-2.450722 2.496192 0.2813086 13
-93.65475 53.6427 13.2472 11
-2.498053 2.545458 0.6428527 10
nan nan nan 0
-37.52645 21.186 0.2479776 25
nan nan nan 0
-2.92053 2.454342 -0.01976576 23
-2.412123 2.430634 -0.03958229 8
nan nan nan 0
-34.38372 23.85518 0.9706754 8
-2.951613 2.470968 0.06516393 18
-2.444885 2.454453 0.04184323 9
nan nan nan 0
-0.2940101 0.1698201 -0.07835092 9
-8.974113 5.077442 -1.427093 44
-15.30967 8.834329 -1.670207 5
-23.39005 13.38548 -1.726024 11
-20.17223 14.10587 -1.718451 9
-2.857835 2.41931 -0.2798391 14
-2.207816 2.238704 -0.2536129 23
-32.33456 18.2186 -1.508502 91
nan nan nan 0
-2.884731 2.419131 -0.1952131 28
-2.387839 2.397786 -0.1945906 8
-32.35461 18.3863 -0.6488804 15
nan nan nan 0
-2.895982 2.442287 -0.1092858 17
-2.397792 2.421211 -0.1164357 8
-2.362879 2.368635 -0.5996214 10
-2.351656 2.390991 -0.3729058 9
-2.426421 2.462157 0.1372507 12
-93.96523 53.66836 6.29399 8
-2.435048 2.497584 0.2804979 12
-48.91971 28.24994 6.931319 15
-2.47887 2.543578 0.6401629 9
nan nan nan 0
-37.69997 21.45781 0.2496191 21
nan nan nan 0
-2.9005 2.454826 -0.01968722 22
-2.396616 2.431906 -0.03946536 8
nan nan nan 0
-34.23469 23.92924 0.9688185 29
-2.931508 2.471583 0.06490737 18
-2.429282 2.455852 0.04172106 8
nan nan nan 0
-0.2849721 0.1661207 -0.07582346 11
-8.930516 5.094028 -1.422964 41
-15.31316 8.907728 -1.673978 8
-23.34751 13.46954 -1.726344 10
-20.14326 14.19056 -1.720195 8
-2.837996 2.419561 -0.2787092 12
-2.21739 2.26423 -0.2556483 26
-32.10569 18.23761 -1.500778 93
nan nan nan 0
-2.864829 2.419515 -0.1944281 31
-2.365438 2.391888 -0.1934289 8
-33.97778 19.46559 -0.6828254 38
-29.30481 20.59036 -0.8305982 25
-2.876016 2.44267 -0.1088486 18
-2.382329 2.422429 -0.1160901 9
-2.347682 2.369868 -0.5978369 10
-2.336364 2.392065 -0.3717876 9
-2.407346 2.459883 0.1366488 11
-48.64994 28.01518 3.264185 12
-2.415933 2.49531 0.2792818 14
-93.85701 54.63222 13.32946 8
-2.463146 2.545135 0.6383698 9
nan nan nan 0
-37.36028 21.43752 0.2478624 20
-31.30847 22.11251 0 34
-2.880502 2.4552 -0.01960868 22
-2.377639 2.42952 -0.03928996 9
-39.20753 22.46994 1.332144 18
-34.3594 24.19536 0.9747373 16
-2.911434 2.472089 0.06465083 19
-2.413698 2.457173 0.04159889 9
nan nan nan 0
nan nan nan 0
-8.886914 5.110371 -1.418836 42
-15.32062 8.983777 -1.678221 8
-23.30898 13.55597 -1.726984 10
nan nan nan 0
-2.814408 2.416453 -0.2772026 10
-2.216409 2.279113 -0.2564625 25
-31.93344 18.28752 -1.495696 67
nan nan nan 0
-2.84496 2.41979 -0.193643 32
-2.343107 2.385863 -0.1922671 8
-33.6715 19.44659 -0.678026 35
-29.49796 20.88024 -0.8381418 36
-2.856083 2.442943 -0.1084115 17
-2.366888 2.423569 -0.1157446 9
-2.332507 2.371023 -0.5960523 9
-2.31764 2.389489 -0.3701104 9
-2.388316 2.457506 0.1360468 12
-48.54322 28.17982 3.263604 8
-2.396863 2.492934 0.2780658 13
-93.84123 55.06248 13.35444 12
-2.447441 2.546613 0.6365766 8
nan nan nan 0
-37.67044 21.79056 0.2504255 30
nan nan nan 0
-2.860538 2.455465 -0.01953015 23
-2.362186 2.430623 -0.03917302 8
-38.96873 22.51418 1.326688 12
nan nan nan 0
-2.891393 2.472484 0.06439427 19
-2.398136 2.458415 0.04147672 9
nan nan nan 0
nan nan nan 0
-8.830448 5.119028 -1.412643 43
-15.33203 9.062516 -1.682935 8
-23.26582 13.63977 -1.727304 10
-3.318161 2.374186 -0.2825137 38
-2.794647 2.416473 -0.2760727 7
-2.187707 2.265292 -0.25402 25
-31.67037 18.284 -1.486345 97
nan nan nan 0
-2.821334 2.416706 -0.1925963 30
-2.338244 2.397606 -0.1925576 8
-33.84969 19.70735 -0.6829998 45
-29.45338 21.00339 -0.8389542 31
-2.836183 2.443106 -0.1079743 18
-2.351467 2.424631 -0.1153991 9
-2.313919 2.368576 -0.5933754 10
-2.302403 2.390396 -0.3689922 9
-2.372796 2.458627 0.1356454 12
-48.28945 28.25835 3.253148 12
-2.381276 2.494065 0.2772551 14
-50.01375 29.58422 7.129965 9
-2.431756 2.548013 0.6347834 8
nan nan nan 0
-38.00451 22.16114 0.2531612 23
-31.47845 22.56356 0 11
-2.840606 2.45562 -0.01945161 23
-2.346756 2.431647 -0.03905609 9
nan nan nan 0
-33.56334 23.98708 0.956865 15
-2.871385 2.47277 0.06413772 19
-2.37912 2.455981 0.04129346 9
nan nan nan 0
nan nan nan 0
-8.82108 5.154814 -1.414019 44
-15.34735 9.143992 -1.68812 10
-23.22666 13.72598 -1.727944 10
-3.330091 2.400328 -0.2842576 28
-2.77492 2.416385 -0.2749428 4
-2.159128 2.251297 -0.2515775 26
-31.51999 18.3442 -1.48228 78
nan nan nan 0
-2.801543 2.41675 -0.1918113 30
-2.32986 2.405753 -0.1925576 9
-33.75914 19.81274 -0.6825636 43
nan nan nan 0
-2.82009 2.446438 -0.1076829 17
-2.332607 2.422009 -0.1148809 9
-2.298797 2.369566 -0.5915908 10
-2.287188 2.391225 -0.367874 9
-2.357297 2.45967 0.1352441 13
-50.52517 29.80361 3.410854 15
-2.362287 2.491496 0.2760391 13
-48.15817 28.71421 6.879524 11
-2.412714 2.545759 0.6320937 9
nan nan nan 0
-38.1166 22.40512 0.2544283 15
nan nan nan 0
-2.820709 2.455666 -0.01937306 24
-2.327893 2.428979 -0.03888068 8
nan nan nan 0
nan nan nan 0
-2.85141 2.472947 0.06388117 19
-2.363612 2.457054 0.04117129 9
nan nan nan 0
nan nan nan 0
-8.798764 5.183063 -1.413331 42
-15.35802 9.223125 -1.692834 9
-23.18718 13.81208 -1.728584 10
-3.317655 2.409008 -0.2839088 38
-2.751482 2.412899 -0.2734363 4
-2.137535 2.244361 -0.2499491 26
nan nan nan 0
-3.353998 2.410713 -0.1907591 18
-2.781787 2.416685 -0.1910262 29
-2.321449 2.413871 -0.1925576 8
-32.42467 19.18228 -0.6569086 11
-3.335769 2.416071 -0.09470004 39
-2.804009 2.449686 -0.1073915 17
-2.317243 2.422903 -0.1145354 10
-2.283696 2.370479 -0.5898062 10
-2.26858 2.38837 -0.3661968 9
-2.338382 2.45701 0.1346422 12
-47.94511 28.50806 3.243273 11
-2.343345 2.488824 0.274823 14
-48.32139 29.04061 6.917304 34
-2.393716 2.543403 0.6294039 8
nan nan nan 0
nan nan nan 0
nan nan nan 0
-2.800846 2.455603 -0.01929453 23
-2.312518 2.429835 -0.03876375 8
-40.06857 23.71246 1.372548 13
-34.84777 25.27433 0.9985284 8
-2.827705 2.469723 0.0635391 19
-2.348125 2.458049 0.04104912 9
nan nan nan 0
nan nan nan 0
-8.776359 5.211218 -1.412643 45
-15.37258 9.305018 -1.69802 9
-23.14738 13.89807 -1.729225 10
-3.281036 2.399973 -0.2814673 33
-2.735571 2.415884 -0.272683 4
-2.12627 2.248182 -0.249542 7
-31.11161 18.39855 -1.469067 80
-3.329376 2.410697 -0.1898274 22
-2.762065 2.416511 -0.1902412 29
-2.309567 2.418345 -0.1922671 7
-33.68012 20.08377 -0.6837853 17
-3.335394 2.433589 -0.09493214 23
-2.784189 2.44955 -0.1069543 17
-2.301901 2.423719 -0.1141899 13
-2.268617 2.371315 -0.5880216 10
-2.253423 2.389034 -0.3650786 9
-2.32294 2.457884 0.1342409 11
-47.90097 28.7086 3.247049 7
-2.327848 2.489697 0.2740124 14
-47.41743 28.72322 6.802137 11
-2.371413 2.537346 0.6258176 9
nan nan nan 0
-35.82566 21.39678 0.2401158 18
-3.330322 2.442388 0 22
-2.781018 2.455431 -0.01921599 24
-2.297165 2.430614 -0.03864682 12
-38.818 23.1559 1.332439 8
nan nan nan 0
-2.80781 2.469668 0.06328255 20
-2.33266 2.458965 0.04092695 9
nan nan nan 0
nan nan nan 0
-8.766616 5.246904 -1.414019 48
-15.37826 9.381944 -1.702263 10
-23.11154 13.98653 -1.730185 11
-3.256572 2.399583 -0.2800722 28
-2.715951 2.415472 -0.2715531 5
-2.142245 2.281061 -0.2523916 10
-30.95708 18.45333 -1.464798 72
-3.300758 2.407597 -0.1886629 23
-2.742378 2.41623 -0.1894561 29
-2.294253 2.419137 -0.1916863 8
-31.97715 19.22022 -0.6505384 18
-3.314791 2.436341 -0.09458398 29
-2.768143 2.452621 -0.1066629 17
-2.286581 2.424458 -0.1138444 10
-2.253561 2.372076 -0.586237 9
-2.238289 2.389621 -0.3639605 9
-2.30752 2.458681 0.1338395 11
nan nan nan 0
-2.312374 2.490492 0.2732017 13
-48.19795 29.42637 6.928881 29
-2.35252 2.534775 0.6231278 9
nan nan nan 0
-35.27951 21.23812 0.2369481 8
-3.309707 2.445091 0 24
-2.76496 2.458476 -0.01916363 23
-2.281836 2.431316 -0.03852988 11
-37.58038 22.59606 1.292625 5
-3.308155 2.436918 0.09446792 23
-2.78795 2.469505 0.063026 18
-2.313795 2.456159 0.0407437 9
nan nan nan 0
-0.2849911 0.1754984 -0.07708719 9
-8.714312 5.257026 -1.408514 48
-15.37934 9.456413 -1.706034 10
-23.07109 14.07231 -1.730825 10
-3.236157 2.402023 -0.2790259 27
-2.696366 2.414953 -0.2704232 6
-2.185154 2.343283 -0.2584979 6
-30.961 18.60244 -1.468051 98
-3.300386 2.425015 -0.1891287 31
-2.722728 2.415841 -0.1886711 31
-2.278962 2.419852 -0.1911054 8
nan nan nan 0
-3.290192 2.436007 -0.09411976 31
-2.748382 2.452281 -0.1062258 17
-2.267875 2.421467 -0.1133261 9
-2.235156 2.369176 -0.5835602 10
-2.223178 2.390132 -0.3628423 9
-2.292123 2.4594 0.1334382 11
nan nan nan 0
-2.293551 2.48754 0.2719857 13
nan nan nan 0
-2.333675 2.532104 0.620438 11
nan nan nan 0
nan nan nan 0
-3.277077 2.43873 0 33
-2.745192 2.458101 -0.01908509 22
-2.26653 2.43194 -0.03841295 8
nan nan nan 0
-3.299628 2.448451 0.09446792 25
-2.771854 2.472563 0.06285497 20
-2.301798 2.460564 0.04068261 8
nan nan nan 0
-0.2885308 0.1789714 -0.07835092 10
-8.750937 5.320831 -1.417459 46
-15.37586 9.528386 -1.709334 10
-23.03459 14.1606 -1.731785 10
-3.211769 2.401365 -0.2776307 26
-2.676818 2.414326 -0.2692933 5
-2.129647 2.299623 -0.2527987 7
-30.72493 18.60691 -1.45992 75
-3.275837 2.424643 -0.188197 23
-2.706835 2.418673 -0.1881478 29
-2.263694 2.42049 -0.1905245 8
-31.81659 19.42736 -0.6500148 46
-3.269644 2.438517 -0.09377161 38
-2.728658 2.451833 -0.1057886 17
-2.252614 2.422039 -0.1129806 8
-2.220157 2.369772 -0.5817755 9
-2.208091 2.390566 -0.3617242 9
-2.276749 2.460041 0.1330369 13
nan nan nan 0
-2.278135 2.488168 0.271175 14
-47.40085 29.39602 6.843573 8
-2.318192 2.532966 0.6186448 11
nan nan nan 0
nan nan nan 0
-3.256538 2.441162 0 30
-2.72546 2.457618 -0.01900655 22
-2.251247 2.432487 -0.03829601 7
nan nan nan 0
-3.271036 2.445001 0.09388766 35
-2.752054 2.472195 0.06259841 20
-2.283004 2.457578 0.04049936 8
nan nan nan 0
nan nan nan 0
-8.757654 5.366858 -1.421588 43
-15.37629 9.603085 -1.713105 10
-22.99774 14.2488 -1.732745 9
-3.187424 2.400565 -0.2762356 26
-2.660997 2.416947 -0.2685401 5
-2.114874 2.299695 -0.2519846 7
-30.47214 18.59955 -1.450976 77
-3.259343 2.430095 -0.1877312 101
-2.690956 2.421423 -0.1876244 28
-2.24845 2.421052 -0.1899437 8
-31.85503 19.6038 -0.6521964 18
-3.249118 2.440913 -0.09342345 55
-2.70897 2.451277 -0.1053515 18
-2.237378 2.422534 -0.1126351 12
-2.205181 2.370292 -0.579991 9
-2.193028 2.390924 -0.360606 10
-2.258025 2.456922 0.1324349 12
nan nan nan 0
-2.266089 2.492412 0.2707696 13
-47.20116 29.50081 6.829557 17
-2.302732 2.533751 0.6168517 9
nan nan nan 0
-34.48052 21.25231 0.2330604 8
-3.240014 2.446493 0 97
-2.709465 2.46039 -0.01895419 23
-2.232611 2.42927 -0.03812061 11
nan nan nan 0
-3.246502 2.444385 0.09342345 28
-2.73229 2.47172 0.06234187 21
-2.267643 2.458172 0.04037718 9
nan nan nan 0
nan nan nan 0
-8.730437 5.392194 -1.420212 46
-15.37639 9.677901 -1.716876 11
-22.96056 14.33691 -1.733705 11
-3.167101 2.402638 -0.2751893 27
-2.637836 2.412752 -0.2670335 6
-2.08671 2.284948 -0.249542 8
-30.43682 18.72412 -1.452399 94
-3.24285 2.435463 -0.1872654 28
-2.671392 2.420738 -0.1868394 30
-2.229851 2.417861 -0.1890724 8
-31.30629 19.41719 -0.6423358 18
-3.224629 2.440182 -0.09295923 27
-2.68932 2.450613 -0.1049143 17
-2.225536 2.426641 -0.1124623 8
-2.190228 2.370737 -0.5782064 10
-2.17799 2.391207 -0.3594878 9
-2.242711 2.457397 0.1320336 11
nan nan nan 0
-2.250709 2.492898 0.2699589 13
-47.0433 29.63102 6.821636 17
-2.287294 2.534459 0.6150585 12
nan nan nan 0
nan nan nan 0
-3.223492 2.451737 0 35
-2.689796 2.459706 -0.01887565 21
-2.21739 2.429652 -0.03800368 9
-38.73499 24.03269 1.343793 21
-3.233966 2.452683 0.09330739 75
-2.712563 2.471138 0.06208531 21
-2.252306 2.458689 0.04025502 8
nan nan nan 0
-0.2783851 0.1769377 -0.07582346 9
-8.711562 5.422637 -1.420212 61
-15.38455 9.758167 -1.721591 10
-22.92727 14.4276 -1.734985 11
-3.142836 2.401572 -0.2737941 26
-2.622067 2.415186 -0.2662803 6
-2.115473 2.332891 -0.25402 7
-30.3458 18.81446 -1.451179 85
-3.218391 2.434723 -0.1863337 21
-2.655552 2.423313 -0.186316 29
-2.214667 2.418256 -0.1884915 7
nan nan nan 0
-3.204161 2.442338 -0.09261107 27
-2.669707 2.449843 -0.1044772 17
-2.210335 2.426995 -0.1121168 8
-2.1753 2.371107 -0.5764218 11
-2.166304 2.395104 -0.3589288 9
-2.227422 2.457796 0.1316323 11
-48.99274 30.77532 3.364094 22
-2.238673 2.497023 0.2695536 13
-46.86416 29.74719 6.810668 15
-2.27188 2.535091 0.6132653 8
nan nan nan 0
-35.87406 22.45802 0.2435428 17
-3.203003 2.453857 0 24
-2.670165 2.458913 -0.01879711 24
-2.198841 2.426246 -0.03782827 10
-38.67629 24.18365 1.344678 14
-3.213464 2.454859 0.09295923 46
-2.692874 2.470447 0.06182877 21
-2.236993 2.459128 0.04013285 8
nan nan nan 0
-0.2860039 0.1829824 -0.07835092 9
-8.776514 5.505603 -1.433974 50
-15.39235 9.838605 -1.726305 10
-22.86834 14.5022 -1.734345 11
-3.122572 2.403406 -0.2727478 26
-2.60266 2.414146 -0.2651504 7
-2.113972 2.34768 -0.2548341 9
-30.27994 18.92028 -1.451179 94
-3.193976 2.433841 -0.185402 21
-2.636052 2.422426 -0.1855309 29
-2.196156 2.414877 -0.1876202 8
nan nan nan 0
-3.183717 2.444381 -0.0922629 25
-2.653801 2.452359 -0.1041858 17
-2.198504 2.430984 -0.1119441 8
-2.163702 2.375043 -0.5755295 9
-2.151302 2.395247 -0.3578106 9
-2.212158 2.458118 0.131231 11
-49.1423 31.10899 3.38181 16
-2.223328 2.497366 0.2687429 13
-46.68478 29.86246 6.7997 15
-2.259753 2.539326 0.6123688 12
nan nan nan 0
-33.73168 21.28147 0.2294894 13
-3.178578 2.452812 0 24
-2.650571 2.458013 -0.01871857 25
-2.183682 2.426463 -0.03771134 8
-36.70143 23.12772 1.278764 13
-3.192986 2.456922 0.09261107 25
-2.673223 2.469649 0.06157221 19
-2.221705 2.459491 0.04001068 8
nan nan nan 0
-0.2812532 0.1814283 -0.07708719 9
-8.702806 5.501831 -1.425028 95
-15.38721 9.911134 -1.729604 10
-22.81758 14.58194 -1.734345 10
-3.102334 2.405129 -0.2717015 25
-2.583292 2.413 -0.2640204 7
-2.12234 2.373648 -0.2568696 9
-30.19257 19.01255 -1.450163 71
-3.169606 2.432819 -0.1844704 19
-2.616591 2.421434 -0.1847459 28
-2.177694 2.411398 -0.1867489 8
-30.69603 19.4868 -0.6339586 30
-3.167254 2.449367 -0.09203079 24
-2.634254 2.451388 -0.1037486 17
-2.18334 2.431196 -0.1115986 12
-2.14881 2.375274 -0.5737449 10
-2.136327 2.395314 -0.3566924 8
-2.196918 2.458363 0.1308296 13
-49.09654 31.3206 3.386167 19
-2.208009 2.497633 0.2679322 13
-46.55523 30.00911 6.796044 15
-2.244373 2.539815 0.6105756 9
nan nan nan 0
-35.30709 22.44776 0.2407494 24
-3.158149 2.454692 0 22
-2.63467 2.460422 -0.01866621 24
-2.168548 2.426604 -0.03759441 8
-36.49811 23.17801 1.274488 37
-3.172533 2.458872 0.0922629 24
-2.65361 2.468745 0.06131566 20
-2.206441 2.459777 0.03988851 8
nan nan nan 0
-0.2806182 0.1824089 -0.07708719 10
-8.633409 5.500271 -1.416771 93
-15.3901 9.989164 -1.733847 10
-22.76654 14.6615 -1.734345 11
-3.082122 2.406739 -0.2706551 21
-2.563964 2.411748 -0.2628905 6
-2.137156 2.407169 -0.2597191 11
nan nan nan 0
-3.145283 2.431656 -0.1835387 20
-2.59717 2.420335 -0.1839609 29
-2.159285 2.40782 -0.1858776 8
-30.58149 19.5642 -0.6329988 49
-3.142905 2.448128 -0.09156658 25
-2.614746 2.45031 -0.1033115 17
-2.17152 2.435068 -0.1114258 7
-2.133942 2.37543 -0.5719603 10
-2.121377 2.395306 -0.3555743 9
-2.181704 2.458532 0.1304283 12
-48.17649 30.97091 3.330113 36
-2.189433 2.494073 0.2667162 13
-47.03289 30.54984 6.881352 13
-2.229018 2.540228 0.6087824 12
nan nan nan 0
nan nan nan 0
-3.133808 2.45338 0 23
-2.615144 2.459323 -0.01858767 23
-2.15344 2.426669 -0.03747747 9
-36.39172 23.28911 1.273603 23
-3.148164 2.457635 0.09179869 26
-2.637683 2.471153 0.06114462 22
-2.191203 2.459987 0.03976634 9
nan nan nan 0
-0.284072 0.1859674 -0.07835092 10
-8.668352 5.565127 -1.425717 73
-15.36764 10.051 -1.735261 11
-22.69011 14.72458 -1.732425 11
-3.058014 2.405156 -0.26926 19
-2.548295 2.413822 -0.2621373 6
-2.115585 2.399639 -0.2580908 15
-29.84443 19.08563 -1.439796 75
-3.121007 2.430354 -0.182607 24
-2.577788 2.41913 -0.1831758 30
-2.140927 2.404143 -0.1850063 8
-30.56343 19.70333 -0.6340458 42
-3.122538 2.449833 -0.09121841 25
-2.59891 2.452558 -0.10302 18
-2.156394 2.43514 -0.1110803 10
-2.1191 2.375511 -0.5701758 8
-2.106454 2.395223 -0.3544561 10
-2.169812 2.462379 0.1302277 12
-48.39489 31.35054 3.352767 16
-2.170909 2.490413 0.2655001 13
nan nan nan 0
-2.213687 2.540565 0.6069893 12
nan nan nan 0
-33.47337 21.61184 0.2292591 21
-3.113442 2.455022 0 22
-2.595658 2.458117 -0.01850913 25
-2.138358 2.426657 -0.03736054 9
nan nan nan 0
-3.123842 2.456258 0.09133447 25
-2.618137 2.470048 0.06088808 21
-2.17599 2.460119 0.03964417 8
nan nan nan 0
-0.2875044 0.1895521 -0.07961464 10
-8.653033 5.598039 -1.426405 59
-15.3865 10.14017 -1.74139 10
-22.62187 14.79278 -1.731145 11
-3.037867 2.406529 -0.2682136 18
-2.529036 2.412372 -0.2610074 26
-2.10392 2.403254 -0.2576837 11
-29.59704 19.07335 -1.431055 92
-3.096779 2.428911 -0.1816753 23
-2.558445 2.417819 -0.1823908 30
-2.125921 2.404112 -0.1844254 9
-30.38127 19.73638 -0.6316898 38
-3.098274 2.448328 -0.0907542 25
-2.57947 2.451281 -0.1025829 17
-2.141294 2.435136 -0.1107348 8
-2.104283 2.375517 -0.5683911 10
-2.091556 2.395065 -0.353338 9
-2.154636 2.462407 0.1298263 12
-48.37712 31.5793 3.359157 15
-2.152438 2.486655 0.2642841 13
nan nan nan 0
-2.19838 2.540827 0.6051961 10
nan nan nan 0
-33.36 21.70402 0.2289999 25
-3.093103 2.456551 0 22
-2.576212 2.456805 -0.01843059 25
-2.126588 2.430339 -0.03730207 8
nan nan nan 0
-3.103489 2.457843 0.0909863 25
-2.602253 2.472282 0.06071704 20
-2.160803 2.460177 0.039522 9
nan nan nan 0
-0.2868409 0.1905546 -0.07961464 9
-8.662491 5.647126 -1.431221 50
-15.39664 10.2241 -1.746575 10
-22.55342 14.86067 -1.729865 11
-3.013847 2.404682 -0.2668185 17
-2.509818 2.410818 -0.2598775 26
-2.092255 2.406816 -0.2572766 11
nan nan nan 0
-3.07652 2.430424 -0.1809766 21
-2.54276 2.419847 -0.1818674 30
-2.110941 2.404006 -0.1838446 9
nan nan nan 0
-3.074059 2.446684 -0.09028999 26
-2.560071 2.449898 -0.1021458 17
-2.12622 2.435057 -0.1103893 8
-2.089491 2.375449 -0.5666066 10
-2.076686 2.394832 -0.3522198 10
-2.139487 2.46236 0.129425 12
-47.77864 31.42708 3.325176 8
-2.134019 2.482799 0.2630681 13
nan nan nan 0
-2.1831 2.541012 0.6034029 9
nan nan nan 0
-33.36349 21.87241 0.2295471 24
-3.068885 2.454848 0 23
-2.556806 2.455387 -0.01835205 26
-2.111547 2.430188 -0.03718514 9
-35.89914 23.50741 1.264903 15
-3.079253 2.4562 0.0905221 25
-2.586386 2.474435 0.06054601 19
-2.145642 2.460158 0.03939983 9
nan nan nan 0
-0.2861741 0.1915547 -0.07961464 9
-8.626163 5.666462 -1.428469 80
-15.40637 10.30822 -1.751761 10
-22.49725 14.93655 -1.729545 11
-2.989877 2.402697 -0.2654234 12
-2.487061 2.40569 -0.2583709 25
-2.080591 2.410327 -0.2568696 12
nan nan nan 0
-3.052378 2.428717 -0.1800449 22
-2.523488 2.418338 -0.1810824 29
-2.099263 2.407592 -0.1835541 8
nan nan nan 0
-3.049893 2.444901 -0.08982577 26
-2.540713 2.44841 -0.1017086 17
-2.111173 2.434902 -0.1100438 11
-2.074726 2.375307 -0.564822 9
-2.061843 2.394525 -0.3511017 9
-2.124364 2.462237 0.1290237 11
-47.63952 31.57437 3.323143 15
-2.122111 2.486436 0.2626627 13
-80.62849 53.98246 11.90907 18
-2.167845 2.541122 0.6016097 9
nan nan nan 0
-33.28276 21.98598 0.2295182 20
-3.048613 2.45614 0 22
-2.541035 2.457342 -0.01829969 27
-2.096531 2.429962 -0.0370682 9
-35.78349 23.61057 1.263723 14
-3.058966 2.457548 0.09017393 24
-2.566937 2.473037 0.06028946 21
-2.130508 2.460063 0.03927766 9
nan nan nan 0
-0.2895595 0.1951893 -0.08087836 9
-8.585674 5.682882 -1.425028 73
-15.41158 10.38974 -1.756475 10
-22.39105 14.97894 -1.725384 14
-2.965958 2.400574 -0.2640282 10
-2.46794 2.403914 -0.257241 25
-2.068928 2.413785 -0.2564625 10
-29.47911 19.43723 -1.43512 83
-3.032184 2.429992 -0.1793462 23
-2.507848 2.420194 -0.180559 32
-2.087585 2.411126 -0.1832637 9
nan nan nan 0
-3.029668 2.446117 -0.08947761 26
-2.524981 2.450299 -0.1014172 18
-2.096153 2.434671 -0.1096983 8
-2.059988 2.375091 -0.5630374 10
-2.05025 2.397925 -0.3505426 11
-2.109268 2.462038 0.1286224 12
-80.70617 53.89199 5.644289 7
-2.106988 2.486214 0.2618521 13
-80.15156 54.06931 11.86642 10
-2.152615 2.541156 0.5998166 11
nan nan nan 0
nan nan nan 0
-3.028368 2.457321 0 22
-2.521701 2.455726 -0.01822115 26
-2.08479 2.433463 -0.03700973 8
-35.7508 23.76852 1.265493 26
-3.038707 2.458783 0.08982577 25
-2.551116 2.475017 0.06011842 20
-2.1154 2.459893 0.03915549 8
nan nan nan 0
-0.2767366 0.1882458 -0.07708719 10
-8.569907 5.715563 -1.425717 82
-15.4164 10.47143 -1.761189 9
-22.34691 15.06258 -1.726024 11
-2.942091 2.398314 -0.2626331 12
-2.445305 2.398541 -0.2557345 25
-2.057267 2.417192 -0.2560554 10
-29.28207 19.45433 -1.428819 69
-3.012019 2.431157 -0.1786474 23
-2.492227 2.42197 -0.1800357 29
-2.072661 2.410817 -0.1826828 8
nan nan nan 0
-3.005592 2.44407 -0.08901339 24
-2.505694 2.448612 -0.1009801 18
-2.08116 2.434366 -0.1093528 11
-2.045276 2.3748 -0.5612528 11
-2.035449 2.397481 -0.3494244 9
-2.097431 2.465575 0.1284217 12
nan nan nan 0
-2.095094 2.489734 0.2614467 13
-79.478 54.01961 11.79451 14
-2.137412 2.541115 0.5980234 11
nan nan nan 0
-33.3818 22.38764 0.2312749 62
-3.00428 2.455228 0 23
-2.505978 2.457508 -0.0181688 25
-2.069817 2.433098 -0.0368928 9
-35.7216 23.92933 1.26741 19
-3.018476 2.459908 0.08947761 24
-2.531738 2.473421 0.05986188 22
-2.10032 2.459647 0.03903332 9
nan nan nan 0
-0.2801151 0.1918758 -0.07835092 10
-8.504672 5.715083 -1.418147 97
-15.41673 10.55048 -1.765432 10
-22.2075 15.08164 -1.719303 13
-2.925988 2.402243 -0.2619355 11
-2.429827 2.400051 -0.2549812 25
-2.042397 2.416735 -0.2552412 11
-29.28456 19.60366 -1.432274 86
-2.991883 2.43221 -0.1779487 22
-2.476624 2.423666 -0.1795123 27
-2.057764 2.410434 -0.182102 9
nan nan nan 0
-2.985436 2.445051 -0.08866523 24
-2.49001 2.450329 -0.1006886 18
-2.066195 2.433986 -0.1090073 7
-2.033783 2.378181 -0.5603605 9
-2.023872 2.400767 -0.3488653 10
-2.082377 2.465237 0.1280204 11
-79.58011 53.94719 5.591721 14
-2.083202 2.493203 0.2610414 13
-79.04325 54.12848 11.75795 17
-2.125382 2.544779 0.5971268 12
nan nan nan 0
nan nan nan 0
-2.984105 2.456173 0 23
-2.490273 2.459211 -0.01811644 27
-2.054872 2.432658 -0.03677587 9
nan nan nan 0
-2.998275 2.460921 0.08912945 24
-2.515965 2.475228 0.05969084 22
-2.085267 2.459326 0.03891115 9
nan nan nan 0
nan nan nan 0
-8.546206 5.78635 -1.428469 84
-15.44539 10.64942 -1.772974 9
-22.06823 15.09991 -1.712582 12
-2.909894 2.406088 -0.261238 12
-2.410836 2.397964 -0.2538513 25
-2.030752 2.420026 -0.2548341 10
-29.09583 19.62476 -1.426379 81
-2.971776 2.433152 -0.1772499 21
-2.461039 2.425283 -0.178989 31
-2.046116 2.413789 -0.1818115 9
nan nan nan 0
-2.96531 2.44592 -0.08831707 25
-2.474346 2.451967 -0.1003972 18
-2.051258 2.433531 -0.1086618 10
-2.019113 2.377755 -0.5585759 10
-2.012297 2.404001 -0.3483063 9
-2.067351 2.464824 0.1276191 11
-79.06567 54.00227 5.568776 13
-2.068136 2.492777 0.2602307 12
-78.57606 54.21244 11.71652 13
-2.110219 2.544599 0.5953336 10
nan nan nan 0
-32.34015 22.01811 0.2251122 39
-2.963961 2.457007 0 24
-2.471043 2.457306 -0.01803789 25
-2.039955 2.432144 -0.03665893 9
-35.6446 24.23994 1.270654 32
-2.974249 2.45864 0.08866523 27
-2.50021 2.476955 0.05951981 21
-2.070243 2.45893 0.03878898 8
nan nan nan 0
nan nan nan 0
-8.554605 5.835668 -1.433285 65
-15.4531 10.73449 -1.77816 8
-21.90445 15.10041 -1.703941 12
-2.893809 2.409851 -0.2605404 10
-2.39541 2.399304 -0.2530981 26
-2.015926 2.419432 -0.25402 9
-28.94863 19.67287 -1.422517 70
-2.9517 2.433984 -0.1765512 22
-2.445474 2.426821 -0.1784656 33
-2.03447 2.417092 -0.1815211 9
-30.10862 20.62246 -0.6363147 34
-2.945215 2.44668 -0.08796891 24
-2.4587 2.453524 -0.1001058 18
-2.03635 2.433001 -0.1083163 11
-2.004471 2.377255 -0.5567913 10
-1.997555 2.403357 -0.3471881 10
-2.052353 2.464337 0.1272178 13
-78.58472 54.07704 5.548156 9
-2.053098 2.492277 0.25942 13
nan nan nan 0
-2.091963 2.540542 0.5926439 10
nan nan nan 0
nan nan nan 0
-2.943847 2.45773 0 23
-2.455388 2.458837 -0.01798554 26
-2.025067 2.431556 -0.036542 9
nan nan nan 0
-2.954119 2.459418 0.08831707 26
-2.480936 2.475069 0.05926326 22
-2.055246 2.45846 0.03866681 10
nan nan nan 0
nan nan nan 0
-8.526017 5.859887 -1.431909 89
-15.47672 10.83116 -1.785231 9
-21.76553 15.11702 -1.69722 12
-2.877733 2.413531 -0.2598428 7
-2.380003 2.400565 -0.2523448 8
-2.004298 2.422608 -0.2536129 9
nan nan nan 0
-2.92781 2.431517 -0.1756195 20
-2.433457 2.431812 -0.1782039 30
-2.022826 2.420343 -0.1812306 8
-30.12698 20.78989 -0.6382345 45
-2.921315 2.444122 -0.08750469 26
-2.443074 2.455003 -0.09981433 18
-2.021471 2.432397 -0.1079708 9
-1.989857 2.376683 -0.5550067 10
-1.985998 2.406477 -0.346629 10
-2.037384 2.463774 0.1268165 11
-78.46522 54.39937 5.553093 6
-2.041238 2.495565 0.2590146 13
nan nan nan 0
-2.076869 2.540202 0.5908507 11
nan nan nan 0
nan nan nan 0
-2.919935 2.455127 0 22
-2.439752 2.460289 -0.01793318 28
-2.010208 2.430893 -0.03642507 9
nan nan nan 0
-2.930188 2.456876 0.08785285 27
-2.465231 2.476624 0.05909222 21
-2.040278 2.457914 0.03854464 8
nan nan nan 0
-0.2814085 0.1984893 -0.07961464 11
-8.562532 5.929053 -1.441542 71
-15.48765 10.91952 -1.790888 7
-21.61041 15.12141 -1.689218 12
-2.861667 2.417128 -0.2591453 7
-2.364618 2.401748 -0.2515915 8
-1.989517 2.421877 -0.2527987 9
nan nan nan 0
-2.907806 2.432115 -0.1749208 20
-2.414401 2.42966 -0.1774189 31
-2.011184 2.423543 -0.1809402 8
nan nan nan 0
-2.901293 2.444648 -0.08715653 24
-2.423956 2.452845 -0.09937719 18
-2.00662 2.431719 -0.1076252 10
-1.975271 2.376037 -0.5532222 10
-1.971301 2.405698 -0.3455109 10
-2.022444 2.463138 0.1264151 11
nan nan nan 0
-2.026244 2.494927 0.258204 12
nan nan nan 0
-2.058708 2.535963 0.5881609 11
nan nan nan 0
nan nan nan 0
-2.899896 2.455617 0 26
-2.42063 2.458097 -0.01785464 25
-1.998544 2.434026 -0.0363666 9
-34.38757 23.91573 1.234674 10
-2.910132 2.45742 0.08750469 27
-2.446032 2.474543 0.05883567 21
-2.028512 2.461158 0.03848355 9
nan nan nan 0
nan nan nan 0
-8.509278 5.936255 -1.436038 78
nan nan nan 0
-21.44328 15.11627 -1.680257 13
-2.83801 2.414182 -0.2577502 6
-2.349253 2.402854 -0.2508382 9
-1.977908 2.42494 -0.2523916 9
-28.62616 19.89512 -1.416825 95
-2.887834 2.432603 -0.174222 22
-2.398894 2.430961 -0.1768955 30
-1.996377 2.422833 -0.1803594 9
nan nan nan 0
-2.881303 2.445063 -0.08680837 25
-2.408381 2.454154 -0.09908576 18
-1.991799 2.430968 -0.1072797 9
-1.96384 2.379118 -0.5523299 10
-1.959763 2.408704 -0.3449518 10
-2.004384 2.45855 0.1258132 13
nan nan nan 0
-2.014402 2.4981 0.2577986 13
-45.16218 32.1016 6.798481 18
-2.040603 2.531628 0.5854712 10
nan nan nan 0
nan nan nan 0
-2.879888 2.455997 0 25
-2.405047 2.459379 -0.01780228 26
-1.983731 2.433226 -0.03624966 9
nan nan nan 0
-2.890108 2.457855 0.08715653 27
-2.430379 2.475928 0.05866463 20
-2.013589 2.460475 0.03836138 8
nan nan nan 0
-0.2680741 0.1922017 -0.07582346 9
-8.606051 6.048442 -1.455992 17
-3.349334 2.401599 -0.3865565 23
-21.32122 15.14193 -1.674816 5
-2.810618 2.407857 -0.2560062 7
-2.33738 2.40746 -0.2504616 11
-1.960043 2.420194 -0.2511704 9
-28.45421 19.9233 -1.411744 64
-2.867894 2.432981 -0.1735232 24
-2.383408 2.432184 -0.1763722 29
-1.975291 2.414312 -0.1791976 8
-29.67068 20.93709 -0.6331733 45
-2.861346 2.445369 -0.0864602 25
-2.392828 2.455383 -0.09879433 18
-1.980154 2.434024 -0.107107 8
-1.949299 2.378338 -0.5505453 10
-1.945112 2.407789 -0.3438337 10
-1.989516 2.457754 0.1254119 12
nan nan nan 0
-1.999454 2.497325 0.2569879 13
-44.87634 32.13483 6.772279 32
-2.02562 2.531044 0.5836779 10
nan nan nan 0
nan nan nan 0
-2.859914 2.456267 0 24
-2.386004 2.456992 -0.01772374 26
-1.972086 2.436244 -0.0361912 8
-35.13446 24.8007 1.267704 26
-2.870116 2.458179 0.08680837 27
-2.414746 2.477233 0.0584936 21
-2.001842 2.463603 0.0383003 9
nan nan nan 0
-0.2713726 0.1958993 -0.07708719 10
-3.368952 2.389458 -0.56836 10
-3.332853 2.407456 -0.3856136 17
-3.349133 2.401634 -0.2618 22
-2.787084 2.404627 -0.2546111 6
-2.325504 2.412013 -0.250085 17
-1.951583 2.427022 -0.2511704 9
nan nan nan 0
-2.847987 2.433249 -0.1728245 20
-2.364463 2.429748 -0.1755871 33
-1.957429 2.409553 -0.1783263 9
-29.4711 20.95076 -0.6304681 54
-2.841422 2.445565 -0.08611204 24
-2.377295 2.456534 -0.0985029 19
-1.962246 2.429243 -0.1065887 13
-1.937886 2.381306 -0.549653 11
-1.930491 2.406801 -0.3427155 10
-1.974679 2.456885 0.1250105 12
nan nan nan 0
-1.98763 2.500382 0.2565826 14
-44.94099 32.41901 6.79909 16
-2.013719 2.534243 0.5827814 12
nan nan nan 0
-33.62764 23.94011 0.237524 7
-2.839973 2.456428 0 24
-2.370475 2.458105 -0.01767138 28
-1.954194 2.431406 -0.03601579 9
nan nan nan 0
-2.850157 2.458393 0.0864602 26
-2.395658 2.474866 0.05823705 21
-1.986965 2.462783 0.03817813 8
nan nan nan 0
-0.2746484 0.1996222 -0.07835092 10
-3.340424 2.386834 -0.5649195 10
-3.328458 2.421999 -0.3860851 38
-3.324535 2.401643 -0.2605198 21
-2.767374 2.404532 -0.2535648 5
-2.313624 2.416513 -0.2497084 14
-1.927588 2.414319 -0.249135 6
-28.1841 20.02888 -1.405239 64
-2.828113 2.433409 -0.1721258 20
-2.349031 2.430802 -0.1750638 32
-1.936498 2.400809 -0.1771646 9
-29.39779 21.0535 -0.6304681 28
-2.821532 2.445652 -0.08576388 23
-2.358322 2.454001 -0.09806576 18
-1.935037 2.412656 -0.1055522 10
-1.923391 2.380393 -0.5478684 11
-1.915902 2.405741 -0.3415973 11
-1.959872 2.455942 0.1246092 12
-75.14964 54.06693 5.384351 19
-1.972729 2.499471 0.2557719 13
-44.81551 32.56694 6.797262 17
-2.001821 2.537389 0.5818848 11
nan nan nan 0
-33.49104 24.01948 0.2371497 22
-2.820065 2.456479 0 24
-2.351511 2.455525 -0.01759284 27
-1.945695 2.438213 -0.03601579 10
-35.1108 25.15306 1.27316 13
-2.826457 2.455223 0.08599599 25
-2.380079 2.476001 0.05806602 21
-1.968999 2.457982 0.03799487 8
nan nan nan 0
-0.2818531 0.206161 -0.08087836 9
-3.307932 2.381153 -0.560791 29
-3.291855 2.413038 -0.3827852 15
-3.29594 2.398579 -0.2589196 31
-2.743942 2.401047 -0.2521696 5
-2.305175 2.424574 -0.2497084 15
-1.909883 2.4093 -0.2479137 4
-3.360289 2.411744 -0.1666854 22
-2.812049 2.436729 -0.1716599 20
-2.333621 2.431778 -0.1745404 34
-1.912539 2.388046 -0.1757124 9
nan nan nan 0
-2.805443 2.448915 -0.08553177 24
-2.342845 2.454983 -0.09777433 20
-1.935922 2.431139 -0.1060705 8
-1.911999 2.383249 -0.5469761 11
-1.898268 2.400705 -0.3399201 16
-1.938905 2.447083 0.1238066 12
-74.78261 54.20004 5.371572 11
-1.954792 2.494557 0.2545559 13
-45.47848 33.29179 6.915475 10
-1.989925 2.540484 0.5809882 12
nan nan nan 0
nan nan nan 0
-2.803953 2.459718 0 22
-2.336038 2.456468 -0.01754048 27
-1.92478 2.429293 -0.03578192 8
-34.99442 25.25499 1.272128 20
-2.806578 2.455206 0.08564782 26
-2.364522 2.477058 0.05789498 22
-1.954195 2.457004 0.0378727 9
nan nan nan 0
-0.2811318 0.2071436 -0.08087836 10
-3.2996 2.392685 -0.560791 10
-3.275395 2.418611 -0.3818423 13
-3.263379 2.3924 -0.2569993 33
-2.724313 2.400722 -0.2511233 5
-2.293277 2.428979 -0.2493317 17
-1.895311 2.408109 -0.2470995 20
-3.347798 2.420537 -0.1664821 114
-2.792232 2.436684 -0.1709612 20
-2.318233 2.432676 -0.174017 32
-1.910391 2.402532 -0.1762933 6
-3.312909 2.41376 -0.07085676 23
-2.78561 2.448798 -0.08518361 27
-2.323953 2.452258 -0.09733719 27
-1.859394 2.351525 -0.1022699 4
-1.897551 2.382202 -0.5451915 23
-1.883755 2.399489 -0.3388019 9
-1.933433 2.457768 0.1240072 12
-74.20189 54.17527 5.3434 11
-1.94302 2.497427 0.2541505 13
nan nan nan 0
-1.978032 2.543526 0.5800916 10
nan nan nan 0
-3.335868 2.434107 0.02355658 17
-2.784103 2.459565 0 24
-2.320587 2.457333 -0.01748812 27
-1.919373 2.439931 -0.03584039 4
nan nan nan 0
-2.786733 2.455081 0.08529966 26
-2.348986 2.478037 0.05772395 20
-1.954883 2.475597 0.03805596 8
nan nan nan 0
-0.276475 0.2053055 -0.07961464 11
-3.26721 2.386693 -0.5566625 9
-3.246944 2.415201 -0.3794853 14
-3.25099 2.400818 -0.2566793 25
-2.700988 2.396981 -0.2497282 7
-2.281376 2.433329 -0.2489551 17
nan nan nan 0
-3.331244 2.426337 -0.1660755 123
-2.772449 2.43653 -0.1702624 22
-2.302867 2.433496 -0.1734937 32
-1.901993 2.409186 -0.1762933 13
-3.308498 2.428262 -0.07094403 17
-2.765812 2.448572 -0.08483545 25
-2.308533 2.453072 -0.09704576 22
-1.915823 2.440659 -0.1058977 6
-1.886179 2.384947 -0.5442992 8
-1.866225 2.394276 -0.3371247 8
-1.940183 2.484216 0.1250105 9
-73.77508 54.25948 5.326264 14
-1.925172 2.492345 0.2529345 13
-44.38039 32.9664 6.783247 13
-1.963143 2.542618 0.5782984 9
nan nan nan 0
-3.307189 2.430958 0.02341259 14
-2.764289 2.459303 0 24
-2.305159 2.458121 -0.01743576 28
nan nan nan 0
nan nan nan 0
-2.770665 2.458163 0.08506756 27
-2.330047 2.475296 0.0574674 21
-1.924683 2.454828 0.03762836 7
nan nan nan 0
nan nan nan 0
-3.242888 2.386364 -0.5539101 9
-3.226531 2.417581 -0.3780711 13
-3.226561 2.40026 -0.2553991 13
-2.681442 2.396429 -0.2486818 7
-2.266078 2.433976 -0.2482018 21
nan nan nan 0
-3.306626 2.426151 -0.1652624 144
-2.752701 2.436269 -0.1695637 20
-2.287524 2.434239 -0.1729703 30
-1.902789 2.427613 -0.1771646 11
-3.28793 2.430896 -0.07068224 35
-2.749782 2.451562 -0.08460334 23
-2.293135 2.453808 -0.09675433 28
-1.87358 2.403916 -0.1039974 34
-1.871779 2.383767 -0.5425146 8
-1.854823 2.396841 -0.3365656 9
nan nan nan 0
-3.297471 2.449492 0.2367035 30
-1.919486 2.50301 0.2533398 5
-44.34452 33.18056 6.795434 14
-1.95127 2.545546 0.5774019 12
nan nan nan 0
-3.286615 2.433577 0.0233262 14
-2.744511 2.458934 0 23
-2.289754 2.458831 -0.0173834 28
-1.865612 2.405795 -0.03513879 31
-3.274424 2.421986 0.1189994 27
-2.75088 2.457834 0.0847194 25
-2.314569 2.476106 0.05729637 21
nan nan nan 0
nan nan nan 0
nan nan nan 0
-3.218608 2.385895 -0.5511578 9
-3.202165 2.416855 -0.3761854 14
-3.206171 2.402548 -0.2544389 12
-2.658225 2.392435 -0.2472867 8
-2.250803 2.434545 -0.2474485 21
nan nan nan 0
-3.286072 2.428786 -0.1646526 124
-2.732989 2.435899 -0.1688649 22
