# .PCD v0.7 - Point Cloud Data file format
VERSION 0.7
FIELDS x y z intensity
SIZE 4 4 4 4
TYPE F F F F
COUNT 1 1 1 1
WIDTH 1526
HEIGHT 1
VIEWPOINT 0 0 0 1 0 0 0
POINTS 1526
DATA ascii
-3.865298 -0.06012472 -0.1784145 12
-3.918094 0.3003992 -0.2038485 44
-3.868883 0.6496215 -0.2259575 19
-3.853359 -0.3994804 -0.06692997 6
-4.003575 -0.04777998 -0.09203079 28
-3.950807 0.3139455 -0.1143858 4
nan nan nan 0
-3.785237 0.6321603 -0.6888508 22
-3.945047 0.6878546 -0.4461451 4
-3.839288 0.6651697 0.1549087 13
-3.858326 -0.3911688 0.2233436 85
-3.889956 0.6955226 0.3181948 254
-3.862766 -0.373415 0.4716343 9
-4.304653 0.7710705 0.7898929 17
-5.26628 -0.494445 1.406682 13
-3.839233 -0.395203 0.0220015 7
-3.864754 -0.03660817 0 41
-3.867143 0.3140864 -0.0201061 12
-3.709113 0.6424902 -0.04355806 11
-3.827493 -0.3959545 0.1123637 7
-3.863666 -0.04190901 0.08878128 49
-3.867228 0.3067255 0.06567702 12
-3.744799 0.6414325 0.04593593 11
nan nan nan 0
-0.347645 -0.03296289 -0.08087836 9
-3.832909 -0.392577 -0.5298271 12
-3.895239 -0.3650674 -0.3667572 15
-3.828756 -0.3720903 -0.2441974 122
-3.875466 -0.02803942 -0.2682136 106
-3.884961 0.329705 -0.2915147 90
-3.925634 0.6935765 -0.32241 8
-3.850712 -0.3997636 -0.1559118 60
-4.170128 -0.05046043 -0.1926225 32
-3.921999 0.3144754 -0.2041102 33
-3.871511 0.663973 -0.2262479 12
-3.854729 -0.3860272 -0.06692997 7
-3.958731 -0.03340417 -0.0909863 27
-3.914823 0.3248253 -0.1133658 4
nan nan nan 0
nan nan nan 0
-3.898607 0.6937254 -0.4411134 3
-3.84678 0.6803212 0.15531 14
-3.859668 -0.3776984 0.2233436 77
-3.892406 0.7099982 0.3186001 215
-3.849224 -0.3585281 0.4698063 8
-4.306773 0.7869823 0.7907895 5
-5.267974 -0.4760593 1.406682 13
-3.840589 -0.3817992 0.0220015 8
-3.864859 -0.02311744 0 34
-3.866023 0.3275833 -0.0201061 10
-3.662549 0.6475348 -0.04303186 15
-3.828851 -0.3825916 0.1123637 9
-3.85879 -0.02838278 0.08866523 27
-3.866133 0.3202228 0.06567702 12
-3.737614 0.6536322 0.04587484 23
nan nan nan 0
-0.3573771 -0.03278907 -0.08340581 9
-3.834255 -0.3791952 -0.5298271 13
-3.891533 -0.3510145 -0.3662858 14
-3.830031 -0.3587232 -0.2441974 122
-3.87554 -0.01451134 -0.2682136 105
-3.883786 0.343264 -0.2915147 93
nan nan nan 0
-3.852084 -0.3863196 -0.1559118 72
-4.190257 -0.03608498 -0.1935541 31
-3.925853 0.3285825 -0.2043719 31
-3.883916 0.680086 -0.2271192 7
-3.856053 -0.3725693 -0.06692997 7
-3.963822 -0.01961246 -0.09110236 32
-3.893749 0.3367566 -0.1127829 5
-3.714058 0.6607249 -0.1290466 18
nan nan nan 0
nan nan nan 0
-3.859128 0.6964273 0.155912 12
-3.855994 -0.3637475 0.2230531 79
-3.889903 0.7235809 0.3186001 152
-3.860337 -0.3459892 0.471025 10
-4.284661 0.7983814 0.7872032 4
-5.269603 -0.4576677 1.406682 14
-3.836922 -0.3679063 0.0219727 9
-3.859916 -0.009611594 0 33
-3.869836 0.3415181 -0.02013228 25
-3.699618 0.667474 -0.0434996 23
-3.835138 -0.369711 0.1125112 8
-3.858866 -0.01491291 0.08866523 15
-3.869972 0.3341484 0.06576254 11
-3.710706 0.6622481 0.04556941 28
nan nan nan 0
nan nan nan 0
-3.835556 -0.3658089 -0.5298271 12
-3.892734 -0.3374284 -0.3662858 14
-3.826292 -0.3448968 -0.2438773 122
-3.875567 -0.0009830978 -0.2682136 104
-3.882564 0.3568189 -0.2915147 91
nan nan nan 0
-3.853409 -0.372871 -0.1559118 84
-4.210335 -0.02156961 -0.1944858 33
-3.929656 0.3427203 -0.2046336 33
-3.886431 0.694524 -0.2274096 7
-3.852354 -0.3586365 -0.06684271 7
-3.948871 -0.005747228 -0.0907542 36
-3.862684 0.3476441 -0.1119086 6
-3.716645 0.6745848 -0.1292194 21
nan nan nan 0
-3.791098 0.7017856 -0.4293727 2
-3.851761 0.7089826 0.1557114 8
-3.85724 -0.3502853 0.2230531 79
-3.887354 0.7371548 0.3186001 115
-3.876353 -0.3338096 0.472853 9
-4.291511 0.8151814 0.7889964 4
-5.271169 -0.4392706 1.406682 13
-3.838182 -0.3545107 0.0219727 9
-3.859926 0.003862087 0 44
-3.868621 0.3550243 -0.02013228 26
-3.662855 0.6740001 -0.04309032 30
-3.836405 -0.3563216 0.1125112 8
-3.863893 -0.001447229 0.08878128 11
-3.868783 0.3476551 0.06576254 11
-3.831309 0.6977601 0.04709654 27
nan nan nan 0
-0.3575974 -0.03029333 -0.08340581 9
-3.83681 -0.352418 -0.5298271 12
-3.893888 -0.3238382 -0.3662858 16
-3.827472 -0.3315385 -0.2438773 121
-3.880535 0.01255909 -0.2685624 105
-3.886258 0.3708455 -0.2918914 96
-3.927949 0.7364974 -0.3232241 6
-3.854687 -0.3594178 -0.1559118 77
-4.210385 -0.006872661 -0.1944858 35
-3.928436 0.3564353 -0.2046336 38
-3.898711 0.7107917 -0.2282809 11
-3.853582 -0.3451871 -0.06684271 8
-3.933871 0.008013382 -0.09040604 31
-3.851496 0.3601898 -0.1116172 6
-3.724092 0.6893875 -0.1295649 28
nan nan nan 0
-3.803269 0.7178002 -0.43105 4
-3.878716 0.7279941 0.1569153 6
-3.853467 -0.3363778 0.2227627 79
-3.884757 0.7507197 0.3186001 100
-3.887385 -0.3211071 0.4740717 7
-4.283812 0.8292155 0.7880998 5
-5.277483 -0.4212571 1.407976 14
-3.834417 -0.3406611 0.0219439 8
-3.859889 0.01733572 0 48
-3.872335 0.3690028 -0.02015846 26
-3.724344 0.6988605 -0.0438504 27
-3.837626 -0.3429279 0.1125112 8
-3.868873 0.01205337 0.08889734 29
-3.872523 0.3616245 0.06584806 11
-3.848508 0.7148083 0.04734088 21
nan nan nan 0
-0.3384417 -0.02716669 -0.07835092 9
-3.838016 -0.3390229 -0.5298271 13
-3.894995 -0.310244 -0.3662858 16
-3.828606 -0.3181761 -0.2438773 122
-3.885455 0.02613595 -0.2689112 104
-3.88494 0.3844088 -0.2918914 95
-3.90578 0.7464346 -0.3215958 12
-3.855918 -0.3459602 -0.1559118 99
-4.210383 0.007824367 -0.1944858 32
-3.932139 0.3706167 -0.2048953 32
-3.896206 0.7243965 -0.2282809 15
-3.854764 -0.3317335 -0.06684271 8
-3.958812 0.02187161 -0.0909863 36
-3.865138 0.3750871 -0.1120543 7
-3.687299 0.6958463 -0.1283556 29
nan nan nan 0
-3.786106 0.7282352 -0.4293727 5
-3.895774 0.7453113 0.1577179 3
-3.854618 -0.3229246 0.2227627 56
-3.887002 0.7652451 0.3190055 104
-3.898375 -0.3083316 0.4752904 7
-4.280891 0.8441637 0.7880998 6
-5.278922 -0.4028327 1.407976 14
-3.835582 -0.3272744 0.0219439 7
-3.859805 0.03080914 0 44
-3.875999 0.3830115 -0.02018464 14
-3.785702 0.7241582 -0.04461047 21
-3.838799 -0.3295299 0.1125112 9
-3.868808 0.02555818 0.08889734 31
-3.871237 0.37514 0.06584806 11
-3.8067 0.7207431 0.0468522 14
nan nan nan 0
-0.3529837 -0.02734337 -0.08214208 10
-3.839176 -0.3256237 -0.5298271 13
-3.896054 -0.296646 -0.3662858 17
-3.829693 -0.3048098 -0.2438773 123
-3.88534 0.03969856 -0.2689112 104
-3.888534 0.3984782 -0.292268 98
-3.922712 0.7639015 -0.3232241 17
-3.862079 -0.3329348 -0.1561151 100
-4.135413 0.02215518 -0.190992 30
-3.93579 0.3848283 -0.2051569 32
-3.893654 0.7379923 -0.2282809 18
-3.850916 -0.3178575 -0.06675545 9
-3.96371 0.03573306 -0.09110236 33
-3.868777 0.3890792 -0.1122001 7
-3.832019 0.7372404 -0.1335382 10
nan nan nan 0
-3.773792 0.7395216 -0.4282546 8
nan nan nan 0
-3.855722 -0.3094675 0.2227627 52
-3.889191 0.7797954 0.3194109 120
-3.904376 -0.2951027 0.4758998 7
-4.277918 0.8591017 0.7880998 7
-5.280295 -0.3844033 1.407976 13
-3.836702 -0.3138837 0.0219439 10
-3.859674 0.04428219 0 38
-3.879612 0.3970502 -0.02021082 9
nan nan nan 0
-3.834946 -0.3157107 0.1123637 9
-3.873693 0.03911067 0.08901339 32
-3.874878 0.3891526 0.06593358 11
nan nan nan 0
nan nan nan 0
-0.3819849 -0.02872662 -0.08972443 9
-3.84029 -0.3122205 -0.5298271 14
-3.892102 -0.2826773 -0.3658144 17
-3.830734 -0.2914398 -0.2438773 121
-3.885178 0.05326068 -0.2689112 103
-3.887119 0.4120493 -0.292268 95
-3.920022 0.7775897 -0.3232241 21
-3.863218 -0.3194516 -0.1561151 102
-4.035422 0.03575349 -0.1863337 24
-3.934423 0.3985644 -0.2051569 29
-3.891054 0.7515792 -0.2282809 28
-3.852002 -0.3044133 -0.06675545 9
-3.978556 0.04974935 -0.09145052 33
-3.872366 0.4031012 -0.1123458 7
-3.863739 0.7573883 -0.1347475 4
nan nan nan 0
-3.741961 0.7468129 -0.4249001 8
-3.621034 0.7186017 0.1466817 23
-3.856779 -0.2960067 0.2227627 68
-3.891327 0.7943703 0.3198162 50
-3.910331 -0.2818355 0.4765091 7
-4.294165 0.8779956 0.7916861 8
-5.281605 -0.3659694 1.407976 13
-3.837774 -0.3004892 0.0219439 11
-3.859496 0.0577547 0 41
-3.878202 0.4105902 -0.02021082 12
nan nan nan 0
-3.831042 -0.3019224 0.1122162 9
-3.873533 0.05263214 0.08901339 32
-3.873496 0.4026761 0.06593358 11
nan nan nan 0
nan nan nan 0
-0.3676244 -0.02613575 -0.08593326 9
-3.836419 -0.2984223 -0.529139 12
-3.893064 -0.2690896 -0.3658144 16
-3.831728 -0.2780663 -0.2438773 122
-3.889955 0.06690573 -0.26926 104
-3.890613 0.4261608 -0.2926446 90
-3.922166 0.7922619 -0.3236312 17
-3.86431 -0.3059645 -0.1561151 107
-4.000313 0.0494246 -0.1847033 21
-3.933007 0.4122957 -0.2051569 29
-3.893303 0.7661273 -0.2285714 34
-3.853041 -0.2909655 -0.06675545 10
-4.003348 0.06402502 -0.09203079 37
-3.875904 0.4171529 -0.1124915 7
nan nan nan 0
nan nan nan 0
-3.739331 0.7598704 -0.4249001 8
-3.618503 0.7312371 0.1466817 33
-3.857788 -0.2825422 0.2227627 79
-3.893408 0.8089694 0.3202215 84
-3.911292 -0.2681841 0.4765091 9
-4.295889 0.8939881 0.7925828 8
-5.282851 -0.3475309 1.407976 14
-3.843785 -0.2874712 0.0219727 9
-3.86427 0.07131637 0 41
-3.876745 0.4241251 -0.02021082 26
nan nan nan 0
-3.82709 -0.2881652 0.1120688 11
-3.878324 0.06623586 0.08912945 30
-3.877037 0.4167311 0.0660191 11
nan nan nan 0
nan nan nan 0
-0.3291461 -0.0216341 -0.07582346 10
-3.832499 -0.284655 -0.5284509 12
-3.89398 -0.2554986 -0.3658144 16
-3.827698 -0.2643387 -0.2435572 122
-3.889698 0.08048379 -0.26926 103
-3.889102 0.439739 -0.2926446 88
-3.924257 0.8069585 -0.3240383 5
-3.865354 -0.2924737 -0.1561151 111
-3.995122 0.06331129 -0.1844704 22
-3.936508 0.426562 -0.2054186 31
-3.885713 0.7787254 -0.2282809 30
-3.849048 -0.2771479 -0.06666819 10
-3.973114 0.07742839 -0.09133447 31
-3.879392 0.4312344 -0.1126372 7
nan nan nan 0
nan nan nan 0
-3.731792 0.7719048 -0.424341 5
-3.689309 0.7590731 0.1496916 16
-3.858751 -0.2690743 0.2227627 64
-3.895435 0.823593 0.3206269 95
-3.907252 -0.2542007 0.4758998 8
-4.311985 0.913079 0.796169 6
-5.284032 -0.3290882 1.407976 13
-3.844765 -0.2740521 0.0219727 10
-3.863997 0.08480476 0 40
-3.88021 0.4382184 -0.020237 29
nan nan nan 0
-3.823088 -0.2744392 0.1119213 8
-3.878069 0.07977333 0.08912945 31
-3.875559 0.4302619 0.0660191 11
-3.752189 0.7647749 0.04630243 21
nan nan nan 0
-0.334042 -0.02087048 -0.07708719 10
-3.833469 -0.2712753 -0.5284509 14
-3.894848 -0.2419045 -0.3658144 17
-3.828597 -0.2509759 -0.2435572 123
-3.889393 0.09406088 -0.26926 103
-3.887543 0.4533118 -0.2926446 93
nan nan nan 0
-3.861369 -0.2786125 -0.1559118 111
-3.979896 0.07697406 -0.1837716 31
-3.934995 0.4403004 -0.2054186 29
-3.863413 0.7882661 -0.2271192 24
-3.849992 -0.2637106 -0.06666819 12
-3.957827 0.09095906 -0.0909863 31
-3.882828 0.4453452 -0.1127829 7
nan nan nan 0
nan nan nan 0
-3.753378 0.7900789 -0.4271364 4
-3.789294 0.7935985 0.1539054 15
-3.859667 -0.2556031 0.2227627 52
-3.892537 0.8371856 0.3206269 93
-3.908116 -0.2405603 0.4758998 8
nan nan nan 0
-5.285149 -0.3106414 1.407976 14
-3.845698 -0.2606297 0.0219727 10
-3.863678 0.0982921 0 38
-3.878656 0.4517601 -0.020237 25
-3.748027 0.7849584 -0.04431814 27
-3.824023 -0.2610925 0.1119213 11
-3.882764 0.0934276 0.08924551 31
-3.874033 0.4437875 0.0660191 10
nan nan nan 0
nan nan nan 0
nan nan nan 0
-3.829452 -0.257553 -0.5277628 13
-3.8907 -0.2280097 -0.365343 18
-3.82945 -0.2376101 -0.2435572 121
-3.889041 0.1076368 -0.26926 103
-3.885937 0.4668791 -0.2926446 95
nan nan nan 0
-3.862318 -0.2651321 -0.1559118 113
-3.97461 0.09075445 -0.1835387 23
-3.928474 0.4534587 -0.2051569 28
-3.894839 0.8088984 -0.2291522 16
-3.8459 -0.2499387 -0.06658092 12
-3.947491 0.104514 -0.0907542 27
-3.88125 0.4588961 -0.1127829 8
nan nan nan 0
nan nan nan 0
-3.770025 0.8073657 -0.4293727 3
-3.859772 0.8225423 0.1569153 15
-3.860535 -0.2421288 0.2227627 48
-3.894457 0.8518397 0.3210322 95
-3.894069 -0.226034 0.4740717 9
nan nan nan 0
-5.286201 -0.2921909 1.407976 15
-3.846585 -0.2472041 0.0219727 8
-3.863311 0.1117783 0 38
-3.877056 0.4652964 -0.020237 20
nan nan nan 0
-3.829898 -0.2480729 0.1120688 8
-3.882414 0.1069804 0.08924551 30
-3.877425 0.4578962 0.06610461 10
-3.90325 0.8242145 0.04825715 9
nan nan nan 0
-0.3486541 -0.01959326 -0.08087836 9
-3.830328 -0.2441841 -0.5277628 13
-3.891473 -0.2144272 -0.365343 17
-3.830256 -0.2242414 -0.2435572 122
-3.888642 0.1212115 -0.26926 105
-3.884284 0.4804407 -0.2926446 96
-3.852295 0.8342072 -0.3187462 3
-3.858235 -0.2513165 -0.1557085 120
-3.964283 0.1043699 -0.1830729 29
-3.92191 0.4665768 -0.2048953 29
nan nan nan 0
-3.846749 -0.2365124 -0.06658092 14
-3.942106 0.1181452 -0.09063815 25
-3.879624 0.4724414 -0.1127829 9
-3.771777 0.8078495 -0.1319834 21
nan nan nan 0
-3.796303 0.826907 -0.4327272 2
-3.881283 0.8413362 0.1579186 13
-3.856375 -0.2283494 0.2224723 56
-3.896323 0.8665175 0.3214376 95
-3.89979 -0.2127168 0.4746811 8
nan nan nan 0
-5.282365 -0.2734824 1.406682 13
-3.842434 -0.2334651 0.0219439 10
-3.862897 0.1252631 0 38
-3.875408 0.478827 -0.020237 11
-3.869458 0.8388194 -0.04583828 7
-3.835728 -0.2350155 0.1122162 8
-3.882017 0.1205319 0.08924551 29
-3.875803 0.4714282 0.06610461 9
-3.900349 0.8378344 0.04825715 8
nan nan nan 0
-0.3535464 -0.01871105 -0.08214208 10
-3.831157 -0.2308123 -0.5277628 13
-3.892197 -0.2008421 -0.365343 17
-3.831016 -0.2108699 -0.2435572 122
-3.888195 0.1347846 -0.26926 102
-3.887529 0.4946282 -0.2930213 96
-3.956395 0.8713785 -0.3277021 8
-3.859089 -0.2378473 -0.1557085 114
-3.923955 0.1170358 -0.1812095 25
-3.920257 0.4802639 -0.2048953 28
nan nan nan 0
-3.847552 -0.2230833 -0.06658092 14
-3.94167 0.131905 -0.09063815 25
-3.877952 0.4859809 -0.1127829 6
-3.720124 0.8103057 -0.1302559 30
nan nan nan 0
nan nan nan 0
-3.8832 0.8559614 0.1581193 12
-3.857148 -0.2148867 0.2224723 49
-3.898134 0.8812189 0.3218429 96
-3.895552 -0.1988429 0.4740717 8
nan nan nan 0
-5.283288 -0.2550419 1.406682 14
-3.838234 -0.219758 0.02191511 10
-3.867434 0.1389234 0 28
-3.878672 0.4929845 -0.02026318 8
-3.88115 0.8555702 -0.04601368 8
-3.841515 -0.2219204 0.1123637 12
-3.881573 0.1340819 0.08924551 29
-3.874134 0.4849544 0.06610461 10
-3.892518 0.8503705 0.04819607 8
nan nan nan 0
-0.3487824 -0.01715874 -0.08087836 9
-3.831939 -0.2174376 -0.5277628 13
-3.897846 -0.1875004 -0.3658144 19
-3.831728 -0.1974959 -0.2435572 122
-3.887701 0.1483561 -0.26926 104
-3.885779 0.5081952 -0.2930213 98
-3.885269 0.8698455 -0.3220029 22
-3.854908 -0.2240779 -0.1555052 121
-3.94349 0.1313876 -0.1821412 25
-3.908649 0.4926919 -0.2043719 26
-3.895905 0.8517854 -0.2297331 8
-3.848307 -0.2096515 -0.06658092 14
-3.946181 0.1458455 -0.0907542 26
-3.871275 0.4988734 -0.1126372 6
-3.766045 0.8341616 -0.1319834 36
nan nan nan 0
nan nan nan 0
-3.885062 0.8706103 0.1583199 8
-3.85289 -0.2011541 0.2221818 52
-3.89989 0.8959432 0.3222483 90
-15.61411 -0.7583441 1.914567 27
-5.129254 1.181166 0.9521751 5
-5.284146 -0.2365982 1.406682 14
-3.838978 -0.2063587 0.02191511 12
-3.866925 0.1524224 0 17
-3.876928 0.5065206 -0.02026318 8
-3.868385 0.8669128 -0.04589675 9
-3.842266 -0.2085097 0.1123637 12
-3.881081 0.1476304 0.08924551 31
-3.877376 0.499115 0.06619013 10
-3.884646 0.8628621 0.04813498 8
nan nan nan 0
-0.3391836 -0.0153387 -0.07835092 9
-3.832675 -0.2040603 -0.5277628 12
-3.90345 -0.1741216 -0.3662858 10
-3.827411 -0.1838731 -0.2432372 119
-3.887159 0.1619258 -0.26926 103
-3.888922 0.5224224 -0.2933979 86
-3.935642 0.8956403 -0.3264808 8
-3.855667 -0.2106204 -0.1555052 125
-3.957981 0.145696 -0.1828399 31
-3.901955 0.5056887 -0.2041102 23
-3.907521 0.8686486 -0.2306044 15
-3.849015 -0.1962171 -0.06658092 18
-3.950642 0.1598191 -0.09087025 24
-3.879419 0.5137004 -0.1129286 8
-3.909313 0.8804384 -0.137166 15
nan nan nan 0
-3.821329 0.874422 -0.4366408 4
-3.886869 0.8852826 0.1585206 10
-3.853569 -0.1877038 0.2221818 50
-3.90159 0.9106907 0.3226536 96
-15.64145 -0.7049617 1.917614 32
-5.1251 1.199064 0.9521751 6
-5.28494 -0.2181516 1.406682 14
-3.839675 -0.1929569 0.02191511 11
-3.866369 0.1659196 0 20
-3.875136 0.5200505 -0.02026318 9
-3.909195 0.8904639 -0.04642295 13
-3.84297 -0.1950964 0.1123637 13
-3.880542 0.1611769 0.08924551 31
-3.87561 0.5126466 0.06619013 9
-3.896237 0.8797398 0.04831824 7
nan nan nan 0
-0.3440644 -0.01443901 -0.07961464 9
-3.833364 -0.1906806 -0.5277628 13
-3.909007 -0.160706 -0.3667572 9
-3.828029 -0.1705119 -0.2432372 122
-3.891553 0.1757164 -0.2696088 105
-3.892013 0.5366776 -0.2937745 84
-3.9422 0.9116318 -0.327295 19
-3.861368 -0.1974227 -0.1557085 126
-3.97242 0.1601071 -0.1835387 33
-3.890267 0.5179835 -0.2035869 23
-3.919067 0.8856032 -0.2314757 20
-3.849677 -0.1827804 -0.06658092 22
-3.92509 0.1725226 -0.09028999 18
-3.877602 0.5272391 -0.1129286 8
-3.85752 0.8828636 -0.1354385 47
nan nan nan 0
-3.77955 0.8786991 -0.4321681 15
-3.888621 0.899978 0.1587212 8
-3.854201 -0.1742512 0.2221818 66
-3.903235 0.9254608 0.3230589 95
-15.6339 -0.6499428 1.916395 25
-5.073039 1.205522 0.9432092 4
-5.285669 -0.1997024 1.406682 14
-3.840325 -0.1795528 0.02191511 13
-3.865767 0.1794148 0 56
-3.87825 0.5342587 -0.02028936 8
-3.896324 0.9018359 -0.04630602 16
-3.843628 -0.1816807 0.1123637 13
-3.879956 0.1747216 0.08924551 29
-3.873797 0.5261718 0.06619013 9
-3.888271 0.8922101 0.04825715 7
nan nan nan 0
-0.3441127 -0.01323791 -0.07961464 10
-3.829059 -0.1770626 -0.5270747 14
-3.914518 -0.1472538 -0.3672287 18
-3.823616 -0.1569369 -0.2429172 121
-3.890916 0.1892993 -0.2696088 105
-3.895053 0.5509607 -0.2941512 86
-3.943843 0.9265336 -0.3277021 15
-3.862034 -0.1839428 -0.1557085 131
-3.971838 0.1739725 -0.1835387 32
-3.888435 0.5315599 -0.2035869 22
-3.906225 0.8970305 -0.2308948 30
-3.850291 -0.1693414 -0.06658092 23
-3.904492 0.1852843 -0.08982577 29
-3.900486 0.544236 -0.1136572 17
-3.903071 0.9077088 -0.137166 75
nan nan nan 0
-3.757124 0.887291 -0.4299318 15
-3.890317 0.9146966 0.1589219 33
-3.854786 -0.1607965 0.2221818 48
-3.904824 0.9402536 0.3234643 95
-15.66087 -0.596319 1.919442 5
-5.07358 1.224382 0.9441059 15
-5.286334 -0.1812508 1.406682 14
-3.840928 -0.1661465 0.02191511 11
-3.865117 0.1929077 0 32
-3.886263 0.549197 -0.02034172 8
-3.902883 0.9177333 -0.04642295 50
-3.844239 -0.1682629 0.1123637 16
-3.879323 0.1882641 0.08924551 29
-3.876888 0.5403831 0.06627565 9
-3.890001 0.906919 0.04831824 11
nan nan nan 0
-0.3441568 -0.01203666 -0.07961464 10
-3.829654 -0.1636956 -0.5270747 13
-3.915008 -0.1335886 -0.3672287 21
-3.82414 -0.1435891 -0.2429172 119
-3.890232 0.20288 -0.2696088 103
-3.893106 0.5645537 -0.2941512 79
-3.94543 0.9414577 -0.3281091 10
-3.862652 -0.1704606 -0.1557085 132
-3.961228 0.1873687 -0.1830729 24
-3.886556 0.5451298 -0.2035869 35
-3.912789 0.9129416 -0.2314757 43
-3.850859 -0.1559003 -0.06658092 36
-3.87886 0.1976523 -0.08924551 26
-3.883721 0.5557172 -0.1132201 72
-3.919325 0.9259496 -0.137857 78
nan nan nan 0
-3.855432 0.9248824 -0.4416724 15
-3.891958 0.9294379 0.1591226 85
-3.850336 -0.1471421 0.2218914 93
-3.906358 0.9550686 0.3238696 95
-15.62814 -0.5404363 1.915177 30
-5.083604 1.245612 0.9467956 10
-5.286934 -0.1627969 1.406682 14
-3.841485 -0.1527381 0.02191511 15
-3.86442 0.2063983 0 31
-3.894218 0.5641975 -0.02039408 6
-3.904517 0.9325193 -0.04648142 66
-3.844802 -0.1548429 0.1123637 18
-3.883634 0.2020616 0.08936156 30
-3.879926 0.5546222 0.06636116 8
-3.85763 0.9135402 0.04795173 45
nan nan nan 0
-0.3490287 -0.01106904 -0.08087836 8
-3.825253 -0.1501253 -0.5263866 14
-3.915451 -0.1199219 -0.3672287 23
-3.824618 -0.1302395 -0.2429172 121
-3.89448 0.2167332 -0.2699575 103
-3.896042 0.5788749 -0.2945278 88
-3.94212 0.9552241 -0.3281091 8
-3.863224 -0.1569764 -0.1557085 139
-3.950573 0.2006929 -0.182607 24
-3.889572 0.5594062 -0.2038485 23
-3.909578 0.9265943 -0.2314757 54
-3.846384 -0.1422655 -0.06649367 44
-3.873155 0.2109213 -0.08912945 48
-3.881757 0.5692706 -0.1132201 7
-3.916069 0.9396249 -0.137857 81
nan nan nan 0
-3.914916 0.9537092 -0.4489405 14
-3.893544 0.9442018 0.1593232 95
-3.850826 -0.133701 0.2218914 62
-3.903 0.9686985 0.3238696 88
-15.61505 -0.485413 1.913349 22
-5.103086 1.269312 0.9512786 6
-5.28747 -0.1443411 1.406682 15
-3.846991 -0.1395163 0.0219439 27
-3.863676 0.2198864 0 32
-3.907061 0.5799967 -0.02047262 6
-3.906096 0.9473279 -0.04653989 70
-3.845319 -0.1414211 0.1123637 24
-3.882905 0.2156167 0.08936156 30
-3.882913 0.5688891 0.06644668 7
-3.883574 0.934054 0.04831824 71
nan nan nan 0
-0.3490652 -0.009850632 -0.08087836 9
-3.825754 -0.1367717 -0.5263866 13
-3.920821 -0.1063953 -0.3677 22
-3.825049 -0.1168882 -0.2429172 120
-3.8937 0.2303261 -0.2699575 104
-3.893998 0.5924711 -0.2945278 78
-3.943599 0.970176 -0.3285162 7
-3.858756 -0.1432976 -0.1555052 132
-4.084507 0.2217274 -0.1888958 32
-3.892535 0.5737101 -0.2041102 21
-3.911172 0.9414102 -0.2317661 45
-3.851853 -0.1290127 -0.06658092 98
-3.877386 0.2247268 -0.08924551 27
-3.894573 0.5850512 -0.1136572 5
-3.917619 0.9544783 -0.1380298 80
nan nan nan 0
-3.921207 0.9697682 -0.4500587 12
-3.895074 0.9589881 0.1595239 96
-3.84628 -0.1200954 0.2216009 75
-3.904426 0.9835408 0.324275 90
-15.60177 -0.4304877 1.911521 18
nan nan nan 0
-5.287942 -0.1258835 1.406682 15
-3.847454 -0.126087 0.0219439 29
-3.862885 0.2333718 0 30
-3.909955 0.5943851 -0.0204988 4
-3.907618 0.9621588 -0.04659836 68
-3.84579 -0.1279976 0.1123637 32
-3.887119 0.2294614 0.08947761 30
-3.89079 0.5839278 0.06661771 6
-3.894856 0.9511822 0.0485015 71
nan nan nan 0
-0.3490975 -0.008632107 -0.08087836 10
-3.826209 -0.1234165 -0.5263866 12
-3.916193 -0.09258421 -0.3672287 24
-3.825434 -0.1035356 -0.2429172 123
-3.892872 0.2439163 -0.2699575 104
-3.896832 0.6068297 -0.2949044 71
-4.04652 1.010645 -0.3374721 7
-3.859232 -0.1298272 -0.1555052 149
-4.043817 0.2336975 -0.1870324 35
-3.890508 0.5872942 -0.2041102 21
-3.912709 0.9562485 -0.2320566 53
-3.85228 -0.1155664 -0.06658092 23
-3.876578 0.23826 -0.08924551 28
-3.754203 0.5773058 -0.1095772 6
-3.919112 0.9693539 -0.1382026 82
nan nan nan 0
-3.927433 0.9858823 -0.4511768 9
-3.901393 0.9750144 0.1599252 95
-3.846676 -0.1066687 0.2216009 50
-3.905795 0.9984048 0.3246803 95
-15.58333 -0.3755397 1.909083 22
nan nan nan 0
-5.293178 -0.1075272 1.407976 14
-3.842874 -0.1125025 0.02191511 40
-3.862047 0.2468543 0 35
-3.907856 0.6080298 -0.0204988 4
-3.909085 0.9770119 -0.04665682 70
-3.851208 -0.1147286 0.1125112 36
-3.886294 0.2430286 0.08947761 30
-3.878847 0.595983 0.06644668 5
-3.906065 0.9684007 0.04868475 74
nan nan nan 0
-0.3491255 -0.007413478 -0.08087836 9
-3.831566 -0.1102093 -0.5270747 12
-3.921468 -0.07902043 -0.3677 22
-3.825772 -0.09018174 -0.2429172 121
-3.896974 0.2578306 -0.2703063 103
-3.894691 0.6204285 -0.2949044 59
-4.154035 1.053074 -0.346835 9
-3.859662 -0.1163552 -0.1555052 153
-4.013064 0.2459927 -0.1856349 34
-3.893369 0.6016358 -0.2043719 28
-3.919034 0.9723175 -0.2326374 54
-3.857658 -0.1022583 -0.06666819 9
-3.875722 0.2517903 -0.08924551 29
-3.939761 0.6200185 -0.1151143 4
-3.92055 0.9842514 -0.1383753 81
nan nan nan 0
-3.933594 1.002052 -0.452295 9
-3.902807 0.9898618 0.1601259 96
-3.847025 -0.0932406 0.2216009 54
-3.911931 1.014548 0.325491 88
-15.57462 -0.3209336 1.907864 24
nan nan nan 0
-5.293521 -0.08904991 1.407976 14
-3.843243 -0.09908773 0.02191511 48
-3.86615 0.2606679 0 32
-3.900773 0.6208789 -0.02047262 3
-3.910495 0.991887 -0.04671529 70
-3.856581 -0.1014234 0.1126586 49
-3.89041 0.2569197 0.08959366 30
nan nan nan 0
-3.912355 0.9844823 0.04880692 71
nan nan nan 0
-0.3443144 -0.006028457 -0.07961464 9
-3.831928 -0.096834 -0.5270747 12
-3.936651 -0.0655999 -0.3691143 11
-3.826064 -0.07682675 -0.2429172 122
-3.89605 0.271432 -0.2703063 104
-3.897421 0.6348237 -0.2952811 39
-4.06349 1.045108 -0.3395075 6
-3.860045 -0.1028817 -0.1555052 106
-4.071993 0.2638462 -0.18843 33
-3.896176 0.6160045 -0.2046336 32
-3.920454 0.9872168 -0.2329278 47
-3.852993 -0.08866983 -0.06658092 6
-3.884794 0.2659958 -0.08947761 27
-3.893167 0.6265988 -0.1138029 4
-3.92193 0.9991708 -0.1385481 82
-3.679413 0.9228643 -0.6808202 8
-3.930073 1.015777 -0.452295 9
-3.909001 1.005983 0.1605272 95
-3.847327 -0.07981141 0.2216009 70
-3.913183 1.029472 0.3258964 86
-15.57068 -0.2664794 1.907255 25
nan nan nan 0
-5.293799 -0.07057152 1.407976 13
-3.838567 -0.08555304 0.02188631 99
-3.865217 0.2741617 0 31
-3.898582 0.6344913 -0.02047262 3
-3.911849 1.006784 -0.04677376 75
-3.856911 -0.08796076 0.1126586 75
-3.889489 0.2704982 0.08959366 29
nan nan nan 0
-3.913737 0.9993764 0.048868 69
nan nan nan 0
-0.3346626 -0.004527692 -0.07708719 9
-3.837193 -0.08357243 -0.5277628 14
-4.00156 -0.05279541 -0.3752426 7
-3.826309 -0.06347083 -0.2429172 122
-3.895079 0.28503 -0.2703063 102
-3.9001 0.6492456 -0.2956577 45
-3.977872 1.037789 -0.3325871 5
-3.850392 -0.08916117 -0.1550987 63
-4.051115 0.2767067 -0.1874983 35
-3.898932 0.6304001 -0.2048953 32
-3.926653 1.00338 -0.2335087 52
-3.873271 -0.07563861 -0.06692997 4
-3.888828 0.2799112 -0.08959366 26
-3.881094 0.6385573 -0.1135115 4
-3.923255 1.014112 -0.1387208 79
nan nan nan 0
-3.931307 1.030756 -0.452854 8
-3.910298 1.02089 0.1607278 93
-3.847582 -0.06638125 0.2216009 87
-3.919192 1.045708 0.326707 90
-15.56159 -0.2119874 1.906036 30
nan nan nan 0
-5.298842 -0.05214455 1.40927 14
-3.838842 -0.07215341 0.02188631 126
-3.864236 0.2876522 0 30
-3.891411 0.6472734 -0.02044644 4
-3.917982 1.022972 -0.04689069 78
-3.842205 -0.07418571 0.1122162 100
-3.893507 0.2844352 0.08970972 31
nan nan nan 0
-3.915063 1.014292 0.04892909 73
nan nan nan 0
-0.3443481 -0.003624561 -0.07961464 9
-3.837461 -0.07017761 -0.5277628 14
-4.061449 -0.03948382 -0.3808995 8
-3.826507 -0.05011413 -0.2429172 121
-3.899034 0.2990038 -0.2706551 102
-3.907639 0.6645322 -0.296411 41
-3.983857 1.05423 -0.3334012 6
-3.880648 -0.07635324 -0.1563183 30
-4.055105 0.2912014 -0.1877312 34
-3.901633 0.6448224 -0.2051569 31
-3.927957 1.01834 -0.2337992 47
-3.9135 -0.0628159 -0.06762807 7
-3.937673 0.2972232 -0.0907542 28
-3.854199 0.6479464 -0.1127829 3
-3.929355 1.030348 -0.1390663 84
-3.896682 1.006658 -0.7227579 6
-3.932485 1.045756 -0.4534131 9
-3.911538 1.035819 0.1609285 95
-3.84779 -0.05295027 0.2216009 75
-3.920327 1.060691 0.3271124 95
-15.55728 -0.1576141 1.905427 29
nan nan nan 0
-5.298992 -0.03364781 1.40927 14
-3.839071 -0.05875292 0.02188631 255
-3.868194 0.3015253 0 14
-3.889128 0.660853 -0.02044644 6
-3.919219 1.037928 -0.04694916 85
-3.832446 -0.06060075 0.1119213 98
-3.892491 0.2980243 0.08970972 29
-3.929306 0.6600454 0.06747288 5
-3.921166 1.030506 0.04905126 73
nan nan nan 0
-0.3443587 -0.00242254 -0.07961464 9
-3.832731 -0.05670157 -0.5270747 13
-4.08645 -0.02549326 -0.3832566 10
-3.826659 -0.03675682 -0.2429172 120
-3.897966 0.3126122 -0.2706551 102
-3.910208 0.6790238 -0.2967876 34
-4.009021 1.075919 -0.3358437 6
-3.895876 -0.06307097 -0.1569282 24
-4.009239 0.3019998 -0.1856349 29
-3.899359 0.6584377 -0.2051569 30
-3.93403 1.034596 -0.23438 45
nan nan nan 0
-3.986445 0.3148796 -0.09191474 30
nan nan nan 0
-3.930562 1.045349 -0.1392391 85
-3.874115 1.01524 -0.7191887 13
-3.933606 1.060776 -0.4539722 8
-3.912722 1.050768 0.1611291 91
-3.847952 -0.03951865 0.2216009 66
-3.926209 1.077019 0.3279231 88
-15.55277 -0.1032734 1.904818 29
nan nan nan 0
-5.299077 -0.01515068 1.40927 14
-3.839252 -0.0453517 0.02188631 129
-3.872102 0.3154296 0 12
-3.891724 0.6752816 -0.02047262 8
-3.925226 1.054209 -0.0470661 71
-3.827637 -0.04715374 0.1117739 24
-3.891427 0.3116099 0.08970972 30
-3.90727 0.6703672 0.06713082 8
-3.922375 1.045481 0.04911234 80
nan nan nan 0
-0.3492017 -0.001319269 -0.08087836 9
-3.832906 -0.04332249 -0.5270747 12
-4.106424 -0.01130866 -0.3851423 12
-3.826764 -0.02339907 -0.2429172 120
-3.901822 0.3266306 -0.2710039 103
-3.912722 0.6935415 -0.2971643 30
-4.077343 1.109632 -0.3419499 7
-4.190799 -0.05363832 -0.1689214 140
-3.933471 0.3101409 -0.1821412 23
-3.901957 0.6728957 -0.2054186 35
-3.940037 1.050908 -0.2349609 45
-3.898846 -0.03533616 -0.06736629 18
-3.98034 0.3283843 -0.09179869 30
-3.884038 0.6808948 -0.1138029 20
-3.936535 1.061678 -0.1395846 87
-3.875301 1.030027 -0.7200811 13
-3.93467 1.075818 -0.4545313 8
-3.913849 1.065739 0.1613298 95
-3.848066 -0.02608655 0.2216009 50
-3.932024 1.093401 0.3287337 95
-15.54311 -0.04894885 1.903599 27
nan nan nan 0
-5.299098 0.003346648 1.40927 14
-3.839387 -0.03194994 0.02188631 51
-3.870977 0.3289438 0 17
-3.889343 0.6888622 -0.02047262 10
-3.931166 1.070544 -0.04718303 74
nan nan nan 0
-3.890315 0.3251915 0.08970972 30
-3.895058 0.6822727 0.06695978 10
-3.92835 1.061788 0.04923451 76
nan nan nan 0
-3.788291 -0.05832857 -0.9793864 4
-3.833034 -0.02994289 -0.5270747 23
-4.116395 0.003020292 -0.3860851 13
-3.826822 -0.01004103 -0.2429172 123
-3.900658 0.3402486 -0.2710039 101
-3.910278 0.7071952 -0.2971643 36
-4.169487 1.150492 -0.3500916 12
-4.185966 -0.03895618 -0.1687181 138
-3.9921 0.3287595 -0.1849362 23
-3.904501 0.6873799 -0.2056803 37
-3.945978 1.067274 -0.2355418 44
-3.893947 -0.02169153 -0.06727903 17
-3.979169 0.3422763 -0.09179869 30
nan nan nan 0
-3.937624 1.076737 -0.1397574 87
-3.881179 1.046121 -0.7218657 12
-3.935677 1.09088 -0.4550903 9
-3.919733 1.082066 0.1617311 95
-3.848134 -0.01265414 0.2216009 64
-3.932979 1.108479 0.3291391 90
-15.53822 0.005307031 1.90299 28
-3.820808 1.077422 0.7163728 8
-5.294224 0.02182876 1.407976 15
-3.839475 -0.01854778 0.02188631 44
-3.874786 0.3428924 0 29
-3.881995 0.7015429 -0.02044644 10
-3.937041 1.086934 -0.04729996 75
nan nan nan 0
-3.889156 0.3387693 0.08970972 31
-3.912336 0.6993923 0.06730185 11
-3.929441 1.076822 0.0492956 65
nan nan nan 0
-0.3588768 0.0009886082 -0.08340581 9
-3.833115 -0.01656292 -0.5270747 20
-4.096447 0.0173301 -0.3841994 8
-3.826834 0.003317135 -0.2429172 124
-3.904414 0.3543109 -0.2713526 102
-3.912688 0.7217472 -0.2975409 42
-4.093483 1.144812 -0.3439854 6
-4.186076 -0.0243442 -0.1687181 138
-3.971021 0.3409929 -0.1840045 29
-3.902078 0.7010049 -0.2056803 38
-3.947041 1.082368 -0.2358322 41
-3.879001 -0.008046632 -0.06701723 11
-3.963013 0.3548337 -0.09145052 30
-3.854609 0.7034955 -0.1130743 29
-3.943468 1.093158 -0.1401028 87
-3.89648 1.064875 -0.7254349 10
-3.936627 1.105961 -0.4556494 8
-3.925551 1.098448 0.1621324 93
-3.848155 0.000778432 0.2216009 50
-3.938665 1.124951 0.3299498 93
-15.52818 0.05951088 1.901771 27
-3.817024 1.090753 0.7163728 18
-5.294116 0.04030892 1.407976 14
-3.839517 -0.005145395 0.02188631 111
-3.873565 0.3564159 0 28
-3.884439 0.7159979 -0.02047262 9
-3.942848 1.103378 -0.0474169 64
-3.857908 -0.007168408 0.1126586 6
-3.88795 0.3523429 0.08970972 30
-3.8902 0.7094485 0.06695978 7
-3.935289 1.093221 0.04941777 71
nan nan nan 0
-0.3588712 0.002241316 -0.08340581 10
-3.833149 -0.003182753 -0.5270747 17
-4.066497 0.03143639 -0.381371 7
-3.826799 0.01667526 -0.2429172 121
-3.903153 0.3679377 -0.2713526 101
-3.910144 0.7354007 -0.2975409 45
-4.079877 1.156363 -0.3431712 6
-4.186135 -0.009731917 -0.1687181 140
-3.949907 0.3530833 -0.1830729 32
-3.904518 0.7155237 -0.205942 38
-3.952853 1.098825 -0.236413 50
-3.874006 0.005493658 -0.06692997 15
-3.951796 0.3677433 -0.09121841 22
-3.891434 0.7242807 -0.1142401 29
-3.949246 1.109633 -0.1404484 89
-3.906957 1.082429 -0.7281117 8
-3.942297 1.12243 -0.4567676 8
-3.931302 1.114883 0.1625337 91
-3.848129 0.01421099 0.2216009 49
-3.944285 1.141477 0.3307605 44
-15.53285 0.1137486 1.90238 30
-3.8557 1.116444 0.7244421 21
-5.289114 0.0587397 1.406682 14
-3.834511 0.00825356 0.02185751 104
-3.877275 0.3704081 0 29
-3.857349 0.7249241 -0.02034172 4
-3.948589 1.119875 -0.04753383 71
-3.867905 0.006299993 0.1129535 26
-3.886697 0.3659123 0.08970972 32
-3.872956 0.7202749 0.06670323 5
-3.94107 1.109673 0.04953994 71
nan nan nan 0
-0.3443485 0.003587717 -0.07961464 9
-3.833137 0.01019745 -0.5270747 19
-4.086272 0.04582901 -0.3832566 7
-3.826717 0.03003317 -0.2429172 122
-3.90681 0.3820432 -0.2717015 102
-3.91245 0.7499862 -0.2979175 46
-4.047088 1.162306 -0.3407287 6
-4.186144 0.004880482 -0.1687181 138
-3.97849 0.3696266 -0.1844704 27
-3.901997 0.7291487 -0.205942 39
-3.953796 1.113976 -0.2367035 55
-3.878963 0.01903388 -0.06701723 15
-3.935561 0.3801007 -0.09087025 18
-3.883973 0.736926 -0.1140943 8
-3.959761 1.127536 -0.1409666 83
-3.922094 1.101406 -0.7316809 8
-3.943126 1.137568 -0.4573267 8
-3.936986 1.131371 0.1629351 87
-3.848055 0.02764338 0.2216009 62
-3.949837 1.158055 0.3315712 79
-15.53235 0.1679677 1.90238 34
-3.889524 1.141026 0.7316148 25
-5.288877 0.07720179 1.406682 13
-3.834459 0.02163845 0.02185751 99
-3.875959 0.3839401 0 26
-3.874435 0.7421558 -0.02044644 4
-3.954262 1.136426 -0.04765076 73
-3.867859 0.01980146 0.1129535 19
-3.890371 0.3799606 0.08982577 31
-3.919532 0.7431231 0.0675584 4
-3.95159 1.127558 0.04972319 74
nan nan nan 0
-0.3491715 0.004775343 -0.08087836 10
-3.833078 0.02357754 -0.5270747 17
-4.08111 0.06002558 -0.3827852 6
-3.826589 0.04339073 -0.2429172 121
-3.905453 0.3956783 -0.2717015 102
-3.909808 0.7636386 -0.2979175 43
-4.052572 1.179223 -0.3415429 7
-4.186101 0.01949282 -0.1687181 141
-3.98712 0.3844658 -0.1849362 24
-3.899428 0.7427648 -0.205942 38
-3.973874 1.134655 -0.2381557 46
-3.883872 0.03260877 -0.0671045 15
-3.939184 0.3943316 -0.0909863 24
-3.901003 0.7542834 -0.1146772 4
-3.9654 1.144134 -0.1413121 87
-3.927686 1.117795 -0.7334656 6
-3.943899 1.152726 -0.4578857 8
-3.947397 1.149316 0.163537 93
-3.847935 0.04107543 0.2216009 50
-3.955321 1.174687 0.3323818 77
-15.52175 0.2220461 1.901162 23
-3.946789 1.172897 0.7432705 30
-5.288575 0.09566295 1.406682 14
-3.83436 0.03502308 0.02185751 99
-3.874595 0.3974673 0 28
-3.90617 0.7623957 -0.0206297 3
-3.969465 1.155839 -0.04788463 56
-3.892756 0.03348151 0.1136908 15
-3.889021 0.3935382 0.08982577 31
-3.936547 0.7606022 0.06790047 3
-3.962034 1.145529 0.04990645 80
nan nan nan 0
-0.3394774 0.005989083 -0.07835092 9
-3.832973 0.03695733 -0.5270747 18
-4.110737 0.07477655 -0.3856136 12
-3.826414 0.05674775 -0.2429172 121
-3.904048 0.4093084 -0.2717015 101
-3.912008 0.778257 -0.2982942 39
-4.05321 1.194778 -0.3419499 6
-4.181012 0.03407092 -0.1685148 139
-4.000663 0.3998641 -0.1856349 26
-3.89191 0.7554181 -0.2056803 38
-3.936337 1.138765 -0.2361226 44
-3.883735 0.04616582 -0.0671045 16
-3.962645 0.4106443 -0.09156658 24
-3.898346 0.7678958 -0.1146772 21
-3.93741 1.150928 -0.1404484 88
-3.928485 1.132868 -0.7343578 6
-3.949376 1.169319 -0.4590039 9
-3.957731 1.167348 0.164139 81
-3.847769 0.05450699 0.2216009 60
-3.965508 1.192812 0.3335979 77
nan nan nan 0
-3.933254 1.183818 0.7414772 27
-5.293037 0.1142224 1.407976 14
-3.834214 0.04840728 0.02185751 97
-3.878156 0.411515 0 27
-3.957423 0.7867749 -0.02091767 18
-3.951026 1.165425 -0.04770923 70
-3.872624 0.04685672 0.113101 15
-3.892595 0.4076292 0.08994183 30
nan nan nan 0
-3.972399 1.163587 0.0500897 48
nan nan nan 0
-0.3491297 0.007212883 -0.08087836 10
-3.83282 0.05033668 -0.5270747 15
-4.140312 0.08973508 -0.3884421 15
-3.831182 0.07018856 -0.2432372 121
-3.907554 0.4234688 -0.2720502 102
-3.91904 0.7938923 -0.2990474 33
-4.058561 1.211783 -0.3427641 4
-4.175872 0.04861372 -0.1683116 141
-4.004212 0.4143383 -0.1858679 29
-3.889249 0.7689988 -0.2056803 36
-3.917973 1.148268 -0.2352513 44
-3.888549 0.05979211 -0.06719176 14
-3.966158 0.4250043 -0.09168263 27
-3.846644 0.7716458 -0.1132201 15
-3.904631 1.156114 -0.1394118 89
-3.929227 1.147959 -0.7352501 7
-3.950027 1.184532 -0.459563 9
-3.963202 1.184029 0.1645404 89
-3.852546 0.06801889 0.2218914 70
-3.97085 1.209565 0.3344086 77
nan nan nan 0
-3.980834 1.213387 0.7513397 65
-5.292606 0.1326979 1.407976 14
-3.834022 0.06179089 0.02185751 97
-3.881666 0.4255924 0 26
-3.930153 0.7956128 -0.02078678 7
-3.932568 1.174897 -0.04753383 77
-3.872437 0.06037442 0.113101 15
-3.896118 0.4217499 0.09005788 30
-3.882127 0.7782185 0.06704529 19
-3.968314 1.177446 0.0500897 78
nan nan nan 0
-0.3345898 0.008322611 -0.07708719 10
-3.832621 0.06371541 -0.5270747 14
-4.139973 0.1041869 -0.3884421 10
-3.830914 0.08356145 -0.2432372 120
-3.906052 0.4371061 -0.2720502 102
-3.921127 0.8085768 -0.2994241 17
-15.65053 4.749146 -1.332791 37
-4.165686 0.06305218 -0.167905 133
-4.002741 0.4283131 -0.1858679 25
-3.891436 0.783558 -0.205942 33
-3.894808 1.15623 -0.2340896 38
-3.888316 0.0733653 -0.06719176 13
-3.959682 0.4382986 -0.09156658 28
-3.672556 0.7499845 -0.10812 6
-3.910141 1.17262 -0.1397574 88
-3.929912 1.16307 -0.7361424 7
-3.95062 1.199763 -0.4601221 9
-3.973385 1.202215 0.1651423 89
-3.852285 0.08146637 0.2218914 54
-3.985645 1.229319 0.3360299 68
-3.879482 0.1001211 0.4716343 6
-4.004763 1.236018 0.7567192 57
-5.296938 0.1513048 1.40927 13
-3.838782 0.07526451 0.02188631 86
-3.880157 0.4391394 0 28
-3.912662 0.8062927 -0.02070824 20
-3.914092 1.184254 -0.04735843 77
-3.867206 0.07380329 0.1129535 15
-3.894623 0.4353473 0.09005788 31
-3.864694 0.7887595 0.06678875 29
-3.954607 1.188401 0.04996753 76
nan nan nan 0
-0.3442335 0.009596881 -0.07961464 9
-3.837327 0.07718585 -0.5277628 14
-4.139585 0.1186375 -0.3884421 11
-3.830599 0.09693333 -0.2432372 122
-3.909458 0.451308 -0.272399 104
-3.928039 0.824312 -0.3001773 9
-15.64815 4.808143 -1.334012 32
-4.160446 0.07750643 -0.1677017 136
-4.001222 0.4422826 -0.1858679 21
-3.898459 0.7991465 -0.2064653 26
-3.924196 1.179923 -0.2361226 42
-3.888036 0.08693761 -0.06719176 16
-4.037594 0.4611577 -0.09342345 32
-3.797128 0.7893061 -0.1119086 14
-3.915583 1.189179 -0.1401028 87
-3.921117 1.175362 -0.7352501 10
-3.951155 1.215012 -0.4606812 8
-3.978714 1.219017 0.1655436 91
-3.851977 0.09491286 0.2218914 49
-3.990839 1.246208 0.3368406 52
-3.854305 0.1129696 0.4685876 6
nan nan nan 0
-5.296378 0.1697937 1.40927 13
-3.838496 0.0886639 0.02188631 70
-3.883567 0.4532582 0 24
-3.900037 0.8178886 -0.02065588 31
-3.919492 1.200852 -0.04747536 71
-3.876918 0.08751298 0.1132485 14
-3.893079 0.4489394 0.09005788 28
-3.896177 0.8093773 0.06738736 34
-3.926529 1.194889 0.04966211 78
nan nan nan 0
nan nan nan 0
-3.837034 0.09058015 -0.5277628 14
-4.13417 0.1329329 -0.3879707 11
-3.830237 0.110304 -0.2432372 121
-3.907859 0.4649518 -0.272399 105
-3.934889 0.8401052 -0.3009306 13
-15.5599 4.840507 -1.327906 17
-4.170139 0.09223613 -0.1681083 132
-3.999654 0.4562468 -0.1858679 21
-3.910308 0.8158156 -0.2072504 16
-3.934373 1.197995 -0.2369939 40
-3.887709 0.1005089 -0.06719176 16
-4.085606 0.4810721 -0.09458398 31
-3.73079 0.7890806 -0.1100143 29
-3.930505 1.208741 -0.1407939 83
-3.926403 1.191913 -0.7370347 10
-3.961117 1.233247 -0.4623584 8
-3.998283 1.240331 0.1665469 70
-3.851623 0.1083582 0.2218914 52
-4.000714 1.264657 0.3380567 12
-15.52047 0.49306 1.901771 27
nan nan nan 0
-5.30058 0.1884473 1.410564 14
-3.838163 0.1020622 0.02188631 60
-3.881961 0.4668117 0 25
-3.897159 0.8314973 -0.02065588 7
-3.929596 1.218989 -0.04765076 64
-3.886582 0.1012914 0.1135434 14
-3.891488 0.4625261 0.09005788 24
-3.90311 0.8250446 0.0675584 9
-3.936662 1.213023 0.04984536 54
nan nan nan 0
nan nan nan 0
-3.841645 0.1041004 -0.5284509 13
-4.13368 0.147363 -0.3879707 11
-3.829829 0.1236734 -0.2432372 122
-3.911163 0.4791943 -0.2727478 106
-3.936804 0.8548959 -0.3013072 39
-15.47637 4.873812 -1.322206 40
-4.139825 0.1060649 -0.1668886 134
-4.002997 0.4707864 -0.1861008 21
-3.917204 0.8315382 -0.2077737 37
-3.930167 1.211721 -0.2369939 44
-3.892332 0.1142185 -0.06727903 15
-4.128564 0.5007274 -0.09562847 29
-3.923436 0.8442433 -0.1158429 9
-3.945339 1.22842 -0.1414849 80
-3.93632 1.209966 -0.7397116 8
-3.980472 1.254566 -0.4651538 8
-4.008223 1.258789 0.1671489 64
-3.851221 0.1218022 0.2218914 56
-4.010509 1.28319 0.3392727 9
-15.50377 0.546714 1.899943 37
nan nan nan 0
-5.29989 0.2069487 1.410564 14
-3.837784 0.1154593 0.02188631 76
-3.885271 0.4809714 0 13
-3.899118 0.8461584 -0.02068206 9
-3.944389 1.238715 -0.04788463 56
-3.891201 0.1149979 0.1136908 13
-3.884888 0.4755022 0.08994183 13
-3.90998 0.8407701 0.06772943 9
-3.937175 1.228253 0.04990645 63
nan nan nan 0
-0.3682968 0.01372032 -0.08593326 9
-3.841259 0.1175096 -0.5284509 13
-4.133141 0.1617913 -0.3879707 12
-3.829374 0.1370412 -0.2432372 120
-3.914415 0.4934656 -0.2730966 102
-3.933796 0.8686327 -0.3013072 48
-15.4023 4.909624 -1.317322 26
-3.92469 0.1145543 -0.1581478 127
-3.991412 0.48356 -0.1856349 18
-3.924038 0.8473188 -0.2082971 42
-3.954491 1.234393 -0.2387365 35
-3.886913 0.1276475 -0.06719176 14
-4.12183 0.5145187 -0.09551241 29
-3.925347 0.8590042 -0.1159886 9
-3.955319 1.24671 -0.1420031 69
-3.964942 1.233974 -0.7459576 8
-4.004458 1.277551 -0.4685083 8
nan nan nan 0
-3.850772 0.1352447 0.2218914 89
nan nan nan 0
-15.51665 0.6014004 1.901771 31
nan nan nan 0
-5.299136 0.2254475 1.410564 14
-3.83236 0.1286944 0.02185751 56
-3.883568 0.4945306 0 10
-3.905904 0.8619229 -0.02073442 9
-3.959091 1.25856 -0.0481185 49
-3.860803 0.1276329 0.1128061 10
-3.878245 0.488438 0.08982577 23
-3.916788 0.8565536 0.06790047 9
-3.961457 1.251059 0.05027296 50
nan nan nan 0
-0.3489021 0.01452292 -0.08087836 9
-3.840825 0.1309174 -0.5284509 15
-4.127578 0.1760119 -0.3874993 12
-3.828872 0.1504074 -0.2432372 122
-3.912669 0.5071264 -0.2730966 101
-3.935604 0.8834532 -0.3016839 52
-15.30445 4.93732 -1.310401 23
-3.94424 0.1288775 -0.1589609 130
-4.034308 0.5030301 -0.1877312 24
-3.930809 0.8631572 -0.2088205 55
-3.940643 1.245169 -0.2381557 34
-3.89144 0.1413891 -0.06727903 13
-4.080344 0.5238293 -0.09458398 26
-3.917446 0.8716133 -0.1158429 10
-3.974735 1.268134 -0.1428669 50
-3.979372 1.253744 -0.7495268 8
-4.023605 1.299186 -0.4713036 6
nan nan nan 0
-3.850276 0.1486856 0.2218914 79
nan nan nan 0
-15.51941 0.6557679 1.90238 31
nan nan nan 0
-5.298316 0.2439435 1.410564 13
-3.846878 0.142605 0.0219439 7
-3.881818 0.5080837 0 10
-3.912629 0.8777453 -0.02078678 9
-3.973703 1.278522 -0.04835237 44
-3.805392 0.1391806 0.111184 6
-3.876516 0.5019726 0.08982577 16
-3.923534 0.8723948 0.0680715 9
-3.966586 1.267936 0.05039513 47
nan nan nan 0
-0.3585206 0.01601594 -0.08340581 9
-3.840345 0.1443236 -0.5284509 14
-4.11202 0.1897491 -0.3860851 11
-3.828324 0.1637717 -0.2432372 123
-3.915819 0.5214373 -0.2734454 100
-3.932496 0.8971857 -0.3016839 76
-15.33922 5.007742 -1.314879 18
-3.968731 0.1435121 -0.1599773 133
-4.04739 0.5190082 -0.18843 20
-3.937518 0.8790532 -0.2093438 94
nan nan nan 0
-3.880931 0.154588 -0.0671045 14
-4.00415 0.5282953 -0.09284317 16
-3.924128 0.8874918 -0.1161343 11
-3.984545 1.286626 -0.1433852 18
-4.003083 1.276631 -0.7548806 6
-12.43166 4.074271 -1.467583 17
nan nan nan 0
-3.854721 0.1623276 0.2221818 45
nan nan nan 0
-15.52199 0.7101618 1.90299 31
nan nan nan 0
-5.297432 0.2624366 1.410564 13
-3.821376 0.1550551 0.02179991 5
-3.880021 0.5216307 0 9
-3.914415 0.8925111 -0.02081296 9
-3.983473 1.297047 -0.04852777 11
-3.824859 0.1532339 0.1117739 17
-3.87474 0.5155011 0.08982577 12
-3.92534 0.8871893 0.06815702 8
-3.995421 1.292589 0.05082272 44
nan nan nan 0
-0.3536274 0.01711283 -0.08214208 9
-3.839818 0.157728 -0.5284509 14
-4.10636 0.203861 -0.3856136 10
-3.832713 0.1773578 -0.2435572 122
-3.913975 0.5351028 -0.2734454 100
-3.934197 0.9120355 -0.3020605 86
-15.19863 5.020573 -1.304295 23
-3.97819 0.1577465 -0.1603838 132
-3.966321 0.5227299 -0.1847033 11
-3.939294 0.8938994 -0.2096055 94
nan nan nan 0
-3.870378 0.1677154 -0.06692997 16
-3.913115 0.5302292 -0.0907542 11
-3.916136 0.9000625 -0.1159886 32
nan nan nan 0
-7.770689 2.513311 -1.474069 9
-12.41737 4.117641 -1.467583 30
nan nan nan 0
-3.854131 0.1757821 0.2221818 49
nan nan nan 0
-15.52437 0.7645818 1.903599 27
nan nan nan 0
-5.301307 0.2811776 1.411858 12
nan nan nan 0
-3.863316 0.5331278 0 9
-3.921017 0.9084309 -0.02086532 8
nan nan nan 0
-3.834288 0.1670046 0.1120688 23
-3.87787 0.5296974 0.08994183 9
-3.927092 0.9020072 0.06824253 8
nan nan nan 0
nan nan nan 0
-0.3632347 0.01868984 -0.08466953 9
-3.839244 0.1711305 -0.5284509 13
-4.060884 0.2158725 -0.381371 7
-3.832071 0.1907354 -0.2435572 121
-3.912083 0.548762 -0.2734454 97
-3.935842 0.9269082 -0.3024371 83
-15.233 5.090988 -1.308773 30
-3.957649 0.1707987 -0.1595707 123
-3.895176 0.5272271 -0.1814424 15
-3.941015 0.9087687 -0.2098672 100
nan nan nan 0
-3.859781 0.1807709 -0.06675545 119
-3.906289 0.5431991 -0.09063815 12
-3.917836 0.9148656 -0.1161343 63
nan nan nan 0
-7.724472 2.528154 -1.466931 24
-12.41705 4.165708 -1.46926 18
nan nan nan 0
-3.85848 0.1894722 0.2224723 49
nan nan nan 0
-15.52656 0.819027 1.904208 28
nan nan nan 0
-5.300293 0.2996809 1.411858 13
-3.850168 0.1831111 0.0219727 7
-3.886187 0.5501024 0 9
-3.922688 0.92326 -0.0208915 44
nan nan nan 0
-3.833682 0.1803877 0.1120688 22
-3.880948 0.5439218 0.09005788 8
-3.928787 0.9168479 0.06832805 8
nan nan nan 0
nan nan nan 0
-0.3631672 0.01995765 -0.08466953 9
-3.84357 0.1847616 -0.529139 13
-4.099867 0.2322484 -0.3851423 8
-3.831382 0.2041107 -0.2435572 122
-3.910144 0.5624143 -0.2734454 95
-3.937431 0.9418034 -0.3028138 78
-15.23874 5.15212 -1.310808 20
-3.952038 0.1843867 -0.1593675 121
-3.893312 0.5408206 -0.1814424 20
-3.94268 0.9236608 -0.2101289 104
-25.25424 8.400205 -1.546269 8
-3.844146 0.1935104 -0.06649367 14
-3.89942 0.5561278 -0.0905221 33
-3.914619 0.9285358 -0.1161343 74
nan nan nan 0
-7.743615 2.5644 -1.472285 17
-12.41184 4.212224 -1.470378 15
nan nan nan 0
-3.857795 0.2029397 0.2224723 89
nan nan nan 0
-15.52856 0.8734969 1.904818 20
-4.140667 1.422148 0.7907895 13
-5.299215 0.3181806 1.411858 12
-3.824537 0.195311 0.02182871 40
-3.89414 0.5650958 0 7
-3.924304 0.9381118 -0.02091767 69
-50.28708 17.02528 -0.6203954 12
-3.838021 0.1940137 0.1122162 19
-3.879026 0.5574656 0.09005788 7
-3.930427 0.9317115 0.06841357 28
nan nan nan 0
nan nan nan 0
nan nan nan 0
-3.842902 0.1981771 -0.529139 12
-4.128846 0.2483138 -0.3879707 15
-3.830646 0.2174834 -0.2435572 123
-3.908157 0.5760598 -0.2734454 79
-3.938963 0.956721 -0.3031904 85
-15.22538 5.206895 -1.311215 18
-3.946381 0.1979376 -0.1591642 128
-3.896345 0.5551094 -0.1816753 28
-3.944289 0.9385758 -0.2103905 102
-25.26261 8.501051 -1.548593 8
-3.853433 0.207451 -0.06666819 8
-3.892509 0.5690152 -0.09040604 19
-3.916213 0.9433674 -0.1162801 65
-40.84638 13.87563 -1.489996 6
-7.739281 2.59298 -1.473177 14
-12.41116 4.260369 -1.472055 13
nan nan nan 0
-3.862048 0.2166772 0.2227627 49
nan nan nan 0
-15.53533 0.9282849 1.906036 22
nan nan nan 0
-5.298072 0.3366763 1.411858 12
-3.843803 0.2097205 0.0219439 31
-3.906981 0.5808845 0 6
-3.921005 0.9518044 -0.02091767 74
-48.95029 16.76323 -0.6046093 6
-3.83732 0.2074097 0.1122162 34
-3.882002 0.5717283 0.09017393 6
-3.93201 0.9465977 0.06849909 53
-52.03478 17.70846 0.6710799 8
nan nan nan 0
-0.3581865 0.02227055 -0.08340581 9
-3.847131 0.2118553 -0.5298271 12
-4.147826 0.2639645 -0.3898563 14
-3.834845 0.2311469 -0.2438773 121
-3.906122 0.5896984 -0.2734454 70
-3.94044 0.9716607 -0.303567 78
-15.21653 5.263271 -1.312029 21
-3.935687 0.2111906 -0.1587576 111
-3.894383 0.5687069 -0.1816753 15
-3.940988 0.9523382 -0.2103905 106
-25.37453 8.637465 -1.557306 9
-3.857676 0.2211798 -0.06675545 7
-3.890499 0.5825992 -0.09040604 9
-3.912896 0.9570318 -0.1162801 74
nan nan nan 0
-7.730182 2.61998 -1.473177 13
-12.41029 4.30856 -1.473732 12
nan nan nan 0
-3.861268 0.2301569 0.2227627 45
nan nan nan 0
-15.53199 0.9825078 1.906036 28
-4.311552 1.514837 0.8257564 22
-5.296865 0.355168 1.411858 12
-3.858023 0.2239844 0.0220303 34
-3.924704 0.5975199 0 5
-3.922513 0.9666841 -0.02094386 82
-48.71197 16.8718 -0.6023875 11
-3.836572 0.2208032 0.1122162 23
-3.884926 0.5860187 0.09028999 6
-3.928682 0.9603173 0.06849909 71
nan nan nan 0
nan nan nan 0
nan nan nan 0
-3.846369 0.225283 -0.5298271 12
-4.127012 0.2771323 -0.3879707 14
-3.834014 0.2445316 -0.2438773 122
-3.90404 0.6033297 -0.2734454 52
-3.94186 0.9866224 -0.3039437 90
-15.12281 5.290001 -1.305516 18
-3.92495 0.2243714 -0.1583511 111
-3.897315 0.5830339 -0.1819083 11
-3.942489 0.967281 -0.2106522 105
-25.42917 8.755253 -1.562533 8
-3.856881 0.2346443 -0.06675545 8
-3.888442 0.596176 -0.09040604 6
-3.914381 0.971891 -0.1164258 84
-39.83757 13.84376 -1.456655 10
-7.725643 2.648546 -1.474069 14
-12.39517 4.351854 -1.473732 14
-144.0798 50.47844 6.130131 2
-3.860441 0.2436339 0.2227627 45
nan nan nan 0
-15.53837 1.037376 1.907255 27
-4.292338 1.52492 0.8230666 17
-5.30041 0.3739905 1.413152 12
-3.852227 0.2371501 0.0220015 41
-3.902831 0.6081459 0 5
-3.923965 0.9815859 -0.02097004 81
nan nan nan 0
-3.835778 0.234194 0.1122162 20
-3.887797 0.6003366 0.09040604 5
-3.930158 0.9752311 0.0685846 76
