# .PCD v0.7 - Point Cloud Data file format
VERSION 0.7
FIELDS x y z intensity
SIZE 4 4 4 4
TYPE F F F F
COUNT 1 1 1 1
WIDTH 1478
HEIGHT 1
VIEWPOINT 0 0 0 1 0 0 0
POINTS 1478
DATA ascii
-4.028457 -3.917933 0.03213832 48
-4.034101 -3.249259 0 43
-4.057963 -2.701337 -0.02531589 45
-4.483387 -2.429329 -0.0591688 32
-4.049805 -3.942801 0.1655964 26
-4.036308 -3.260235 0.1195356 44
-4.056456 -2.711459 0.08278041 45
-4.47436 -2.435441 0.06175694 39
nan nan nan 0
-0.2558342 -0.2447325 -0.08214208 8
-4.035078 -3.920359 -0.7761623 7
-4.067975 -3.884356 -0.5289224 49
-4.039035 -3.883537 -0.3568546 118
-4.05497 -3.251085 -0.360641 49
-4.089615 -2.701026 -0.3672182 49
-4.525135 -2.432707 -0.4164462 25
-4.050421 -3.946179 -0.2284809 144
-4.04459 -3.275079 -0.2408363 46
-4.08709 -2.72684 -0.2553995 72
-4.467589 -2.430803 -0.2936285 11
-4.028018 -3.895772 -0.09712264 46
-4.032523 -3.241037 -0.1191874 45
-4.069327 -2.698702 -0.1411972 42
-4.505563 -2.435226 -0.17569 28
-4.488175 -2.446941 -0.9199549 33
-4.619982 -2.476243 -0.5853558 38
-4.523742 -2.430834 0.2046721 45
-4.145645 -3.991596 0.3325466 12
-4.970418 -2.635929 0.4543903 22
-12.07686 -11.53356 2.045577 8
-4.611187 -2.444848 0.9441059 10
-4.252381 -4.031014 1.559385 6
-4.027736 -3.889939 0.03202312 48
-4.037611 -3.228909 0 43
-4.059022 -2.681647 -0.02526353 45
-4.51828 -2.427835 -0.0595196 33
-4.049184 -3.914731 0.1650065 24
-4.035968 -3.236739 0.1191874 44
-4.061729 -2.694521 0.0826949 45
-4.509246 -2.43403 0.06212345 40
nan nan nan 0
-0.2394257 -0.2268932 -0.07582346 8
-4.023813 -3.882155 -0.7713457 7
-4.063465 -3.852991 -0.5265654 50
-4.038144 -3.855618 -0.3555744 120
-4.058491 -3.230695 -0.3599434 49
-4.086506 -2.678539 -0.3660883 44
-4.559999 -2.430934 -0.4188887 23
-4.049822 -3.918107 -0.2276678 141
-4.048215 -3.254678 -0.2403705 44
-4.09242 -2.709802 -0.2551378 73
-4.50242 -2.429387 -0.2953711 10
-4.023582 -3.864355 -0.09668633 46
-4.032094 -3.217583 -0.1188393 43
-4.074547 -2.681735 -0.1410515 45
-4.540476 -2.433619 -0.1767265 28
-4.514009 -2.440601 -0.9235241 33
-4.712006 -2.504319 -0.5959783 38
-4.554257 -2.426752 0.2056754 43
-4.155948 -3.973647 0.3322562 10
-5.085505 -2.674124 0.4641186 30
-11.99105 -11.37177 2.02425 10
-4.650187 -2.444727 0.9503819 20
-13.38803 -12.61793 4.918856 15
-4.026869 -3.861998 0.03190793 48
-4.037113 -3.205463 0 44
-4.064176 -2.664722 -0.02523734 45
-4.553216 -2.426128 -0.05987041 32
-4.048418 -3.886713 0.1644167 20
-4.039423 -3.216401 0.1189553 45
-4.075286 -2.683074 0.08278041 48
-4.539766 -2.430049 0.06242887 39
nan nan nan 0
-0.2679287 -0.2530712 -0.08593326 8
-4.019476 -3.850937 -0.7679052 13
-4.062406 -3.82512 -0.5246797 56
-4.040725 -3.831189 -0.3546143 114
-4.058007 -3.207227 -0.358897 53
-4.08747 -2.658825 -0.365335 42
-4.594906 -2.428947 -0.4213312 27
-4.049078 -3.890088 -0.2268547 145
-4.047844 -3.231176 -0.2396717 43
-4.089332 -2.687278 -0.2543527 70
-4.53289 -2.425408 -0.2968233 10
-4.022589 -3.836471 -0.09633728 45
-4.035467 -3.197278 -0.1186071 44
-4.079698 -2.664765 -0.1409058 46
-4.575433 -2.431799 -0.177763 27
-4.548531 -2.438751 -0.9288778 33
-4.808679 -2.534094 -0.6071599 40
-4.58922 -2.424815 0.2068794 43
-4.158944 -3.948795 0.3313849 9
-5.178813 -2.700048 0.4718201 38
-11.89704 -11.20391 2.001704 11
-4.693608 -2.446632 0.9575546 35
-13.38617 -12.5282 4.902032 50
-4.025857 -3.834111 0.03179274 48
-4.036501 -3.182061 0 44
-4.069262 -2.647794 -0.02521117 97
-4.588196 -2.424205 -0.06022121 34
-4.047504 -3.858749 0.1638269 18
-4.038866 -3.192977 0.1186071 45
-4.084627 -2.668832 0.08278041 138
-4.574732 -2.428225 0.06279539 40
nan nan nan 0
nan nan nan 0
-3.993464 -3.799295 -0.7603363 102
-4.061202 -3.797305 -0.5227941 52
-4.039555 -3.803365 -0.3533341 117
-4.061331 -3.186882 -0.3581994 50
-4.084157 -2.636434 -0.3642051 45
-4.634272 -2.429055 -0.4241808 27
-4.044576 -3.858669 -0.2258383 146
-4.051272 -3.210819 -0.2392059 44
-4.090321 -2.667535 -0.2538294 61
-4.5678 -2.42358 -0.2985659 10
-4.021451 -3.808641 -0.09598823 45
-4.03482 -3.173896 -0.118259 44
-4.084779 -2.647791 -0.1407601 46
-4.60601 -2.427438 -0.1786268 27
-4.583094 -2.436689 -0.9342316 33
-4.817495 -2.517294 -0.6071599 39
-4.624223 -2.422664 0.2080833 44
-4.154559 -3.917114 0.3299327 8
-5.214782 -2.695659 0.4742522 17
-11.99043 -11.21318 2.010844 13
-4.72398 -2.441502 0.9620376 38
-13.48641 -12.53402 4.922739 34
-4.0247 -3.806278 0.03167755 48
-4.039711 -3.161786 0 44
-4.078479 -2.633573 -0.02521117 46
-4.623216 -2.422068 -0.06057201 33
-4.046446 -3.830838 0.163237 17
-4.042125 -3.172684 0.118375 45
-4.110701 -2.665432 0.08312248 255
-4.60974 -2.426185 0.06316189 39
nan nan nan 0
-0.2522512 -0.2344314 -0.07961464 8
-4.010298 -3.788736 -0.7610243 207
-4.059854 -3.769544 -0.5209084 56
-4.038241 -3.775596 -0.3520539 123
-4.06063 -3.163485 -0.3571531 48
-4.080736 -2.614098 -0.3630752 46
-4.669268 -2.426624 -0.4266233 26
-4.043528 -3.830769 -0.2250252 147
-4.050683 -3.187387 -0.2385071 44
-4.091221 -2.647818 -0.253306 47
-4.602751 -2.421537 -0.3003085 10
-4.020168 -3.780866 -0.09563918 45
-4.037998 -3.153637 -0.1180269 43
-4.085588 -2.628112 -0.1404686 46
-4.641042 -2.425204 -0.1796633 28
-4.617697 -2.434416 -0.9395854 32
-4.821839 -2.498181 -0.6066008 40
-4.663702 -2.422596 0.2094879 44
-4.153646 -3.888928 0.328771 7
-5.250782 -2.691052 0.4766842 3
-12.11675 -11.25233 2.025468 11
-4.754375 -2.43619 0.9665205 41
-13.54072 -12.4967 4.92662 6
-4.023397 -3.7785 0.03156236 48
-4.038883 -3.138457 0 44
-4.083436 -2.616625 -0.02518499 46
-4.662716 -2.422015 -0.06098128 33
-4.04888 -3.806409 0.1627947 16
-4.04135 -3.149332 0.1180269 45
-4.094749 -2.634844 0.08260939 49
-4.644789 -2.423931 0.0635284 38
nan nan nan 0
-0.2565672 -0.2368899 -0.08087836 8
-4.016282 -3.767931 -0.7596482 226
-4.062018 -3.745216 -0.5194942 60
-4.036782 -3.747883 -0.3507737 123
-4.063759 -3.143186 -0.3564555 49
-4.073001 -2.589146 -0.3615687 46
-4.704304 -2.423977 -0.4290658 24
-4.038698 -3.799497 -0.2240088 147
-4.053915 -3.167075 -0.2380413 43
-4.087832 -2.625431 -0.252521 48
-4.637743 -2.419281 -0.3020511 10
-4.02239 -3.756562 -0.09537739 46
-4.037133 -3.130329 -0.1176787 44
-4.090524 -2.611147 -0.1403229 45
-4.676115 -2.422754 -0.1806999 30
-4.65234 -2.431931 -0.9449392 32
-4.817264 -2.474537 -0.6049235 40
-4.698794 -2.419999 0.2106919 43
-4.152586 -3.860797 0.3276093 9
-5.246809 -2.665947 0.4754682 4
-12.13407 -11.18977 2.021812 9
-4.789177 -2.43292 0.9719001 39
-4.389717 -4.018204 1.583973 13
-4.021949 -3.750778 0.03144717 48
-4.041898 -3.118229 0 44
-4.088325 -2.599674 -0.02515881 45
-4.697826 -2.419432 -0.06133209 34
-4.047543 -3.778596 0.1622048 15
-4.044414 -3.129086 0.1177948 45
-4.099708 -2.617846 0.08252387 46
-4.679879 -2.421461 0.06389491 39
nan nan nan 0
-0.271436 -0.2493056 -0.08593326 8
-4.022169 -3.747129 -0.758272 169
-4.064062 -3.72092 -0.5180799 50
-4.035179 -3.720226 -0.3494935 123
-4.066796 -3.122904 -0.355758 49
-4.065143 -2.56428 -0.3600621 48
-4.739378 -2.421116 -0.4315083 20
-4.037347 -3.771719 -0.2231957 149
-4.05311 -3.143718 -0.2373425 44
-4.080125 -2.600417 -0.2514743 48
-4.672777 -2.416809 -0.3037937 10
-4.02083 -3.728886 -0.09502834 46
-4.040116 -3.110116 -0.1174466 45
-4.086944 -2.588834 -0.1398858 43
-4.715674 -2.422367 -0.1819091 28
-4.687022 -2.429233 -0.9502929 32
-4.817013 -2.453206 -0.6038054 41
-4.738376 -2.419454 0.2120965 43
-4.15138 -3.83272 0.3264475 9
nan nan nan 0
-12.04133 -11.02665 1.999876 14
-4.428409 -2.230725 0.8965868 12
-4.375148 -3.976843 1.57362 17
-4.024022 -3.726512 0.03136078 48
-4.040853 -3.094975 0 43
-4.093145 -2.58272 -0.02513263 44
-4.737428 -2.418902 -0.06174136 33
-4.046061 -3.750839 0.161615 15
-4.043423 -3.105809 0.1174466 44
-4.096149 -2.595496 0.08226731 46
-4.719458 -2.421053 0.06432251 38
nan nan nan 0
-0.2546923 -0.2317771 -0.07961464 8
-4.020697 -3.719599 -0.7555196 149
-4.065986 -3.696655 -0.5166658 50
-4.029755 -3.689253 -0.3478932 125
-4.065776 -3.099612 -0.3547117 46
-4.069841 -2.547431 -0.3596855 47
-4.77449 -2.418039 -0.4339508 21
-4.035853 -3.743998 -0.2223826 149
-4.05219 -3.120405 -0.2366438 45
-4.076515 -2.578157 -0.2506892 60
-4.712292 -2.416395 -0.3058267 11
-4.0228 -3.704658 -0.09476656 47
-4.039037 -3.086885 -0.1170985 45
-4.083258 -2.566577 -0.1394486 47
-4.750832 -2.419471 -0.1829456 26
-4.721742 -2.426323 -0.9556467 32
-4.821109 -2.434142 -0.6032463 42
-4.77801 -2.418662 0.2135011 43
-4.150029 -3.804698 0.3252858 8
-4.390991 -2.193723 0.3960208 4
-12.10177 -11.00459 2.003532 12
-4.414152 -2.204291 0.8921039 3
-4.371091 -3.945351 1.567149 16
-4.022297 -3.69889 0.03124558 48
-4.043674 -3.074796 0 44
-4.093657 -2.563113 -0.02508027 44
-4.772622 -2.415871 -0.06209216 32
-4.044435 -3.723138 0.1610252 15
-4.042319 -3.082579 0.1170985 45
-4.096718 -2.575863 0.08209628 46
-4.754632 -2.418137 0.06468902 38
nan nan nan 0
-0.2554998 -0.2308866 -0.07961464 9
-4.022725 -3.69548 -0.7534554 242
-4.06779 -3.672422 -0.5152515 49
-4.024164 -3.658364 -0.346293 125
-4.068618 -3.079378 -0.3540141 46
-4.078709 -2.533209 -0.3596855 47
-4.809636 -2.414746 -0.4363933 22
-4.030542 -3.712944 -0.2213663 146
-4.055125 -3.100171 -0.236178 44
-4.064338 -2.550648 -0.2493808 55
-4.747409 -2.413476 -0.3075694 10
-4.020964 -3.677083 -0.09441751 47
-4.041825 -3.066721 -0.1168663 44
-4.079468 -2.544379 -0.1390115 47
-4.790489 -2.418606 -0.1841549 29
-4.756497 -2.4232 -0.9610004 31
-4.829576 -2.417298 -0.6032463 40
-4.81323 -2.415386 0.2147051 43
-4.148533 -3.776733 0.3241241 10
-4.34947 -2.154111 0.391562 12
-12.26163 -11.07208 2.02364 9
-4.333601 -2.145326 0.8741721 4
-4.3489 -3.897802 1.554208 12
-4.024119 -3.674702 0.03115919 47
-4.042414 -3.05162 0 43
-4.094084 -2.543534 -0.02502791 46
-4.812321 -2.414862 -0.06250143 32
-4.042665 -3.695494 0.1604353 15
-4.045085 -3.062412 0.1168663 44
-4.101441 -2.558902 0.08201077 44
-4.79431 -2.41725 0.06511661 37
nan nan nan 0
-0.2492132 -0.2234109 -0.07708719 8
-4.020979 -3.66805 -0.750703 151
-4.069474 -3.648222 -0.5138373 58
-4.025808 -3.634253 -0.3453328 106
-4.07137 -3.059163 -0.3533165 46
-4.091772 -2.52157 -0.3600621 47
-4.844818 -2.411237 -0.4388358 16
-4.028748 -3.685349 -0.2205532 155
-4.05399 -3.076933 -0.2354792 45
-4.056259 -2.525894 -0.2483341 60
-4.787022 -2.412584 -0.3096024 10
-4.018984 -3.649567 -0.09406847 47
-4.040531 -3.043567 -0.1165182 45
-4.062819 -2.514352 -0.1381372 47
-4.825727 -2.415261 -0.1851914 29
-4.795682 -2.422077 -0.9672465 30
-4.842438 -2.402629 -0.6038054 39
-4.852958 -2.414114 0.2161097 44
-4.146894 -3.748825 0.3229623 8
-4.374867 -2.147679 0.3931834 14
-12.2374 -10.97287 2.013282 12
-4.367574 -2.143157 0.8795516 4
nan nan nan 0
-4.02212 -3.647183 0.031044 49
-4.045041 -3.031491 0 43
-4.090166 -2.521361 -0.02494937 46
-4.85655 -2.415827 -0.06296917 32
-4.044448 -3.671271 0.1599929 13
-4.043767 -3.039259 0.1165182 44
-4.106098 -2.54194 0.08192525 47
-4.834038 -2.416116 0.06554421 37
nan nan nan 0
nan nan nan 0
-4.022757 -3.644006 -0.7486388 249
-4.07104 -3.624055 -0.512423 54
-4.027333 -3.610176 -0.3443727 9
-4.074029 -3.038965 -0.3526189 46
-4.100549 -2.507271 -0.3600621 48
-4.880034 -2.407513 -0.4412783 37
-4.034198 -3.664538 -0.2201466 13
-4.052742 -3.053742 -0.2347805 44
-4.077796 -2.519589 -0.2491191 55
-4.826687 -2.411445 -0.3116354 10
-4.020571 -3.625461 -0.09380668 47
-4.043126 -3.023454 -0.1162861 44
-4.071571 -2.500155 -0.1381372 47
-4.865479 -2.413916 -0.1864007 28
-4.839318 -2.422908 -0.9743848 29
-4.873099 -2.396652 -0.6066008 36
-4.892737 -2.412595 0.2175143 42
-4.148821 -3.724313 0.322091 10
-4.395788 -2.138921 0.3943994 2
-12.57947 -11.20079 2.063248 9
-4.406011 -2.142922 0.8858277 14
-4.162659 -3.67846 1.477857 4
-4.02369 -3.623072 0.03095761 49
-4.043567 -3.008394 0 44
-4.086143 -2.499247 -0.02487083 46
-4.896358 -2.414306 -0.06337845 33
-4.042404 -3.643731 0.1594031 11
-4.042336 -3.016153 0.11617 44
-4.110684 -2.524976 0.08183973 49
-4.873817 -2.414734 0.06597181 38
nan nan nan 0
-0.2686088 -0.2379976 -0.08340581 8
-4.024416 -3.619994 -0.7465745 232
-4.072487 -3.599921 -0.5110088 48
-4.028739 -3.586132 -0.3434125 8
-4.07259 -3.015816 -0.3515726 46
-4.113539 -2.495527 -0.3604388 47
-4.915283 -2.403571 -0.4437208 35
-4.035847 -3.640383 -0.2195368 15
-4.051382 -3.030597 -0.2340817 42
-4.086567 -2.505339 -0.2491191 60
-4.866403 -2.410058 -0.3136685 9
-4.022039 -3.601388 -0.09354489 47
-4.041617 -3.00038 -0.1159379 45
-4.080274 -2.485928 -0.1381372 47
-4.90528 -2.412323 -0.18761 26
-4.900654 -2.432196 -0.9850924 27
-4.899309 -2.388318 -0.6088371 25
-4.932564 -2.410826 0.2189189 42
-4.146904 -3.696508 0.3209293 10
-4.394246 -2.119244 0.3935888 3
-12.78575 -11.30479 2.090668 11
-4.404597 -2.123267 0.8840345 14
-4.168219 -3.65753 1.475268 17
-4.021417 -3.595659 0.03084242 49
-4.041981 -2.985346 0 43
-4.082016 -2.477191 -0.02479229 45
-4.936214 -2.412536 -0.06378771 31
-4.043937 -3.619587 0.1589607 12
-4.044808 -2.996071 0.1159379 44
-4.119473 -2.510612 0.08183973 47
-4.913645 -2.413103 0.0663994 37
nan nan nan 0
-0.2622784 -0.2305507 -0.08087836 9
-4.025958 -3.596016 -0.7445102 244
-4.073814 -3.575822 -0.5095946 46
-4.030026 -3.562122 -0.3424524 8
-4.075057 -2.99567 -0.350875 48
-4.126499 -2.483722 -0.3608154 48
-4.950562 -2.399412 -0.4461633 35
-4.041093 -3.619599 -0.2191302 17
-4.053919 -3.010478 -0.2336159 43
-4.099554 -2.493653 -0.2493808 57
-4.906166 -2.408423 -0.3157015 11
-4.023387 -3.57735 -0.0932831 39
-4.04402 -2.980319 -0.1157058 37
-4.093204 -2.474253 -0.1382829 45
-4.945127 -2.41048 -0.1888192 25
-4.957695 -2.438916 -0.9949076 6
-4.9479 -2.390615 -0.6138688 24
-4.972438 -2.408809 0.2203235 43
-4.144845 -3.668762 0.3197676 8
-4.365625 -2.086741 0.390346 23
-12.5567 -11.02426 2.046796 8
-4.416423 -2.109995 0.8849311 17
-4.159131 -3.623901 1.467504 7
-4.022737 -3.571629 0.03075602 49
-4.040284 -2.962344 0 43
-4.090638 -2.462927 -0.02479229 46
-4.976117 -2.410517 -0.06419698 31
-4.04535 -3.595477 0.1585184 11
-4.043163 -2.973045 0.1155898 45
-4.132491 -2.498802 0.08192525 46
-4.958018 -2.413407 0.06688808 36
nan nan nan 0
-0.2666726 -0.2328752 -0.08214208 8
-4.02738 -3.572071 -0.742446 200
-4.071274 -3.548483 -0.5077089 50
-4.031195 -3.538147 -0.3414922 7
-4.073404 -2.972603 -0.3498287 49
-4.139424 -2.471857 -0.361192 47
-4.981379 -2.392884 -0.4481987 31
-4.038785 -3.592175 -0.2183172 17
-4.056365 -2.990378 -0.2331501 44
-4.108234 -2.479328 -0.2493808 57
-4.945977 -2.406539 -0.3177345 9
-4.024618 -3.553346 -0.09302132 19
-4.046332 -2.960279 -0.1154737 37
-4.101816 -2.45995 -0.1382829 45
-4.985023 -2.40839 -0.1900285 24
-5.019268 -2.44742 -1.005615 5
-4.996566 -2.392601 -0.6189005 19
-5.016863 -2.4087 0.2219288 42
-4.150134 -3.647673 0.3191867 10
-4.408933 -2.088515 0.3935888 33
-12.65494 -11.03256 2.056545 17
-4.42821 -2.096666 0.8858277 15
-4.131612 -3.574563 1.453269 5
-4.020192 -3.544324 0.03064083 50
-4.042517 -2.942335 0 44
-4.107797 -2.453758 -0.02484465 46
-5.016066 -2.408249 -0.06460626 30
-4.042902 -3.56809 0.1579285 9
-4.045444 -2.953016 0.1153576 45
-4.149764 -2.489503 0.08209628 47
-4.997948 -2.411263 0.06731568 36
nan nan nan 0
-0.2638815 -0.228714 -0.08087836 8
-4.028685 -3.54816 -0.7403818 240
-4.072354 -3.524467 -0.5062947 50
-4.028488 -3.510926 -0.340212 9
-4.07568 -2.952511 -0.3491311 48
-4.152318 -2.459932 -0.3615687 47
-5.021213 -2.390443 -0.4510483 18
-4.040076 -3.568122 -0.2177073 14
-4.058719 -2.970298 -0.2326842 43
-4.121148 -2.467535 -0.2496425 54
-4.981336 -2.402243 -0.3194771 10
-4.02573 -3.529378 -0.09275953 30
-4.048554 -2.940259 -0.1152416 39
-4.11897 -2.450725 -0.1385744 45
-5.024963 -2.406049 -0.1912378 21
-5.067665 -2.449114 -1.013646 5
-5.148598 -2.443169 -0.6367911 3
-5.056835 -2.406169 0.2233334 42
-4.170356 -3.639736 0.3197676 14
-4.461333 -2.094237 0.3976422 25
nan nan nan 0
-4.431046 -2.079111 0.8849311 9
-4.133083 -3.550667 1.449387 5
-4.021264 -3.520377 0.03055444 54
-4.040607 -2.919417 0 44
-4.124942 -2.444499 -0.02489701 46
-5.056058 -2.405731 -0.06501552 28
-4.044065 -3.544062 0.1574861 8
-4.043588 -2.930073 0.1150095 45
-4.167022 -2.480113 0.08226731 45
-5.042435 -2.411021 0.06780435 36
nan nan nan 0
-0.2610646 -0.2245753 -0.07961464 8
-4.026147 -3.521019 -0.7376294 202
-4.073315 -3.500486 -0.5048805 65
-4.02564 -3.483767 -0.3389319 9
-4.073815 -2.929526 -0.3480848 47
-4.16518 -2.447948 -0.3619453 46
-5.065599 -2.389876 -0.454305 17
-4.041249 -3.544104 -0.2170975 140
-4.060983 -2.950238 -0.2322184 47
-4.13403 -2.455684 -0.2499042 58
-5.021231 -2.399877 -0.3215101 14
-4.026723 -3.505444 -0.09249774 43
-4.050685 -2.92026 -0.1150095 27
-4.13611 -2.441411 -0.1388658 44
-5.064947 -2.40346 -0.1924471 21
-5.107255 -2.446258 -1.019892 5
-5.193082 -2.442063 -0.6412637 3
-5.101369 -2.405514 0.2249387 41
-4.126502 -3.576064 0.315411 4
-4.464096 -2.076555 0.3972369 12
-5.293353 -4.546002 0.8518667 24
-4.442739 -2.0657 0.8858277 6
-4.196852 -3.580149 1.467504 6
-4.022217 -3.496466 0.03046804 52
-4.04265 -2.899464 0 45
-4.146383 -2.437683 -0.02497555 45
-5.096095 -2.402964 -0.06542479 26
-4.045112 -3.52007 0.1570438 7
-4.045677 -2.9101 0.1147774 46
-4.184265 -2.470633 0.08243835 44
-5.091501 -2.412635 0.06835411 36
nan nan nan 0
-0.2545972 -0.2172554 -0.07708719 9
-4.02347 -3.493939 -0.734877 192
-4.074159 -3.476542 -0.5034662 48
-4.015088 -3.450159 -0.3370115 8
-4.0759 -2.909489 -0.3473872 47
-4.178007 -2.435903 -0.3623219 46
-5.110043 -2.389028 -0.4575616 18
-4.038539 -3.516836 -0.2162844 33
-4.063157 -2.930199 -0.2317525 45
-4.151182 -2.446305 -0.2504275 49
-5.052143 -2.392997 -0.3229623 11
-4.02382 -3.478274 -0.0921487 47
-4.052727 -2.900282 -0.1147774 42
-4.157548 -2.434529 -0.1393029 45
-5.109499 -2.402742 -0.1938291 21
-5.146889 -2.443154 -1.026138 10
-5.219597 -2.432298 -0.6435 5
-5.145962 -2.404577 0.226544 42
-4.086036 -3.516004 0.311345 5
-4.489429 -2.069283 0.3988582 4
-5.286547 -4.508159 0.8482106 40
-4.472272 -2.060445 0.8903106 3
-4.260875 -3.609228 1.485621 33
-4.023054 -3.472592 0.03038165 56
-4.04053 -2.876631 0 45
-4.167827 -2.430746 -0.02505409 44
-5.140704 -2.402058 -0.06589253 21
-4.04604 -3.496113 0.1566014 6
-4.043611 -2.887241 0.1144292 46
-4.201493 -2.461063 0.08260939 43
-5.140639 -2.413935 0.06890389 36
nan nan nan 0
-0.255354 -0.2163653 -0.07708719 8
-4.0244 -3.47016 -0.7328128 249
-4.078681 -3.455856 -0.5025234 89
-4.015729 -3.426395 -0.3360514 7
-4.077893 -2.889474 -0.3466896 47
-4.199435 -2.428787 -0.3634518 45
-5.163589 -2.392079 -0.4616325 17
-4.039464 -3.492903 -0.2156746 18
-4.069301 -2.913089 -0.2315196 47
-4.16832 -2.436837 -0.2509509 50
-5.087589 -2.388047 -0.3247049 9
-4.020777 -3.451167 -0.09179965 48
-4.054678 -2.880325 -0.1145453 41
-4.178989 -2.427528 -0.1397401 45
-5.149575 -2.399636 -0.1950384 21
-5.22219 -2.456524 -1.039522 16
-5.255133 -2.426535 -0.6468545 7
-5.190608 -2.403357 0.2281492 42
-4.105868 -3.508213 0.3119258 6
-4.49209 -2.051534 0.3984529 3
-5.313606 -4.499308 0.8500386 33
nan nan nan 0
-4.31038 -3.625454 1.498562 44
-4.023771 -3.448754 0.03029526 58
-4.042382 -2.856735 0 45
-4.184944 -2.421187 -0.02510645 44
-5.18083 -2.398773 -0.0663018 19
-4.05064 -3.475452 0.1563065 5
-4.04551 -2.867324 0.1141971 45
-4.227352 -2.456423 0.08295146 44
-5.194384 -2.417026 0.06951474 28
nan nan nan 0
-0.2561077 -0.2154726 -0.07708719 9
-4.021454 -3.443191 -0.7300604 172
-4.079301 -3.431973 -0.5011092 48
-3.974412 -3.367146 -0.3315707 100
-4.083875 -2.87235 -0.3463409 47
-4.229516 -2.42651 -0.365335 43
-5.194563 -2.384413 -0.4636678 16
-4.040271 -3.469006 -0.2150648 21
-4.071304 -2.893077 -0.2310538 44
-4.185441 -2.427279 -0.2514743 49
-5.127589 -2.384979 -0.326738 11
-4.021395 -3.427371 -0.09153786 47
-4.056539 -2.860389 -0.1143132 40
-4.200431 -2.420407 -0.1401772 45
-5.19423 -2.39837 -0.1964204 14
-5.235195 -2.440355 -1.040415 15
-5.290693 -2.420553 -0.650209 9
-5.235309 -2.401856 0.2297545 41
-4.091468 -3.471227 0.3098928 7
nan nan nan 0
-5.317891 -4.471142 0.8482106 3
-5.316127 -2.403219 1.056179 38
-4.311897 -3.601088 1.49468 44
-4.024373 -3.424954 0.03020887 52
-4.044145 -2.836861 0 45
-4.210721 -2.416513 -0.02521117 43
-5.220995 -2.395237 -0.06671107 20
-4.051344 -3.451555 0.1558641 4
-4.04732 -2.84743 0.113965 46
-4.253229 -2.451632 0.08329352 43
-5.239126 -2.415593 0.07000341 31
nan nan nan 0
-0.2751493 -0.2304048 -0.08340581 8
-4.02214 -3.419498 -0.7279962 255
-4.083622 -3.411323 -0.5001664 86
-4.016661 -3.37898 -0.3341311 127
-4.085699 -2.852365 -0.3456433 46
-4.259632 -2.424053 -0.3672182 42
nan nan nan 0
-4.037162 -3.441901 -0.2142517 21
-4.073218 -2.873087 -0.2305879 43
-4.211204 -2.422607 -0.252521 48
-5.16763 -2.381661 -0.328771 8
-4.018083 -3.400379 -0.09118882 47
-4.058311 -2.840476 -0.114081 37
-4.226214 -2.415644 -0.1407601 44
-5.234392 -2.394746 -0.1976297 18
-5.243681 -2.422066 -1.040415 15
-5.339857 -2.420494 -0.6552407 8
-5.284613 -2.402134 0.2315604 42
-4.099745 -3.453704 0.3096024 8
-5.348027 -2.396292 0.4734415 42
-5.352502 -4.468469 0.8512573 24
-5.405326 -2.42076 1.072318 38
-4.309582 -3.57367 1.489504 45
-4.024857 -3.401192 0.03012247 50
-4.045818 -2.81701 0 45
-4.232168 -2.409216 -0.02528971 43
-5.261199 -2.39145 -0.06712034 18
-4.055743 -3.430929 0.1555692 4
-4.044942 -2.824694 0.1136168 46
-4.283465 -2.44917 0.08372111 41
-5.279373 -2.411804 0.07043101 41
nan nan nan 0
nan nan nan 0
-4.026489 -3.39904 -0.72662 246
-4.08402 -3.387503 -0.4987521 49
-4.024606 -3.361736 -0.333811 126
-4.091532 -2.835243 -0.3452945 48
-4.315838 -2.436109 -0.3713611 41
-5.847447 -2.634084 -0.5206595 4
-4.033913 -3.41486 -0.2134386 152
-4.079131 -2.855985 -0.230355 40
-4.236985 -2.417785 -0.2535677 47
-5.212252 -2.380162 -0.3310945 9
-4.018456 -3.376672 -0.09092703 49
-4.059993 -2.820586 -0.1138489 38
-4.260712 -2.415657 -0.1416343 44
-5.279145 -2.39293 -0.1990117 24
-5.261055 -2.407834 -1.042199 10
-5.389083 -2.420121 -0.6602724 9
-5.329423 -2.40005 0.2331657 42
-4.1003 -3.429753 0.3087311 8
-5.406485 -2.399801 0.4779003 43
-5.36425 -4.446588 0.850648 17
-5.47222 -2.427754 1.083973 40
-4.243792 -3.494065 1.462328 9
-4.025225 -3.377468 0.03003608 54
-4.047402 -2.797182 0 45
-4.292809 -2.423909 -0.02560386 44
-5.301439 -2.387411 -0.06752961 18
-4.060047 -3.410314 0.1552743 5
-4.046564 -2.804859 0.1133847 45
-4.313735 -2.446527 0.08414869 42
-5.324213 -2.40982 0.07091969 36
nan nan nan 0
-0.25835 -0.2127789 -0.07708719 8
-4.030746 -3.378593 -0.7252438 231
-4.084302 -3.363722 -0.4973379 56
-4.05934 -3.366803 -0.3357314 105
-4.093187 -2.815288 -0.344597 47
-4.359127 -2.4405 -0.3743742 32
-5.874816 -2.621764 -0.5222878 5
-4.026705 -3.384665 -0.2124222 161
-4.080875 -2.836025 -0.2298892 41
-4.288862 -2.42756 -0.2561845 48
-5.261475 -2.380433 -0.3337084 9
-4.018712 -3.353004 -0.09066524 47
-4.061586 -2.800718 -0.1136168 34
-4.317048 -2.427699 -0.1432372 42
-5.323948 -2.39083 -0.2003937 25
-5.264945 -2.387427 -1.041307 10
-5.442914 -2.421449 -0.6658632 10
-5.374283 -2.397682 0.234771 42
-4.100737 -3.40584 0.3078597 8
-5.460468 -2.40093 0.4819537 42
nan nan nan 0
-5.516702 -2.424436 1.091146 37
-4.162556 -3.402723 1.429975 4
-4.025476 -3.353783 0.02994968 52
-4.048898 -2.777377 0 44
-4.344876 -2.433326 -0.02586566 41
-5.341715 -2.38312 -0.06793888 21
-4.056588 -3.3833 0.1546844 6
-4.048096 -2.785047 0.1131526 45
-4.348397 -2.446152 0.08466179 43
-5.364539 -2.405511 0.07134728 34
nan nan nan 0
-0.2701647 -0.2212569 -0.08087836 8
-4.034908 -3.358159 -0.7238676 255
-4.088318 -3.343135 -0.4963951 73
-4.051825 -3.336733 -0.3341311 108
-4.098871 -2.798169 -0.3442482 49
-4.402497 -2.444618 -0.3773873 28
-5.842896 -2.583142 -0.5186241 4
-4.038495 -3.370589 -0.2124222 148
-4.08253 -2.816088 -0.2294234 44
-4.336502 -2.43456 -0.2585396 47
-5.310764 -2.380389 -0.3363223 10
-4.018853 -3.329376 -0.09040346 47
-4.063089 -2.780874 -0.1133847 39
-4.369153 -2.436944 -0.1446943 44
-5.368802 -2.388447 -0.2017757 24
-5.304673 -2.383118 -1.047553 4
-5.496819 -2.42243 -0.671454 9
-5.419192 -2.39503 0.2363763 44
-4.101058 -3.381966 0.3069884 8
-5.514524 -2.401711 0.4860071 42
nan nan nan 0
-5.574763 -2.426714 1.101009 37
-4.193142 -3.403408 1.436446 11
-4.02561 -3.330138 0.02986329 49
-4.050303 -2.757595 0 45
-4.39269 -2.439981 -0.02610128 42
-5.3866 -2.380594 -0.06840662 24
-4.052989 -3.356352 0.1540946 6
-4.049539 -2.765258 0.1129205 46
-4.378742 -2.44313 0.08508938 41
-5.4049 -2.400949 0.07177488 37
nan nan nan 0
-0.2672333 -0.2171984 -0.07961464 9
-4.035163 -3.334577 -0.7218034 242
-4.088379 -3.319419 -0.4949809 69
-4.048009 -3.30992 -0.3328509 117
-4.100357 -2.778246 -0.3435506 74
-4.437213 -2.443657 -0.3796471 34
-5.851877 -2.56273 -0.5186241 6
-4.046392 -3.353279 -0.2122189 147
-4.084094 -2.796174 -0.2289575 46
-4.384243 -2.441255 -0.2608947 46
-5.360116 -2.380029 -0.3389362 10
-4.018877 -3.305787 -0.09014168 47
-4.064504 -2.761054 -0.1131526 40
-4.408252 -2.438602 -0.1457144 43
-5.418276 -2.38779 -0.2033305 23
-5.321952 -2.36858 -1.049338 4
-5.532574 -2.415129 -0.6748084 8
-5.468726 -2.394093 0.2381822 40
-4.105121 -3.361297 0.3064076 8
-5.564075 -2.400173 0.4896552 41
-4.439989 -3.601442 0.6970926 5
-5.628389 -2.426672 1.109974 35
-4.197482 -3.382682 1.433857 118
-4.02563 -3.306532 0.0297769 50
-4.051621 -2.737839 0 44
-4.423081 -2.436688 -0.02623218 42
-5.431532 -2.377783 -0.06887436 29
-4.049253 -3.329471 0.1535048 6
-4.050894 -2.745494 0.1126884 46
-4.409118 -2.439926 0.08551696 42
-5.449871 -2.398144 0.07226356 36
nan nan nan 0
-0.260564 -0.2100619 -0.07708719 9
-4.039127 -3.314181 -0.7204272 210
-4.088324 -3.295744 -0.4935666 67
-4.047927 -3.286323 -0.3318908 122
-4.101754 -2.758347 -0.342853 71
-4.4676 -2.440094 -0.3815303 33
-5.847066 -2.53635 -0.5174029 7
-4.054219 -3.335955 -0.2120156 144
-4.08557 -2.776283 -0.2284917 45
-4.423341 -2.442823 -0.2627265 46
-5.400388 -2.375344 -0.3409692 8
-4.018786 -3.282239 -0.08987989 47
-4.069973 -2.744053 -0.1130366 38
-4.438651 -2.435211 -0.1464429 43
-5.463231 -2.384821 -0.2047125 22
-5.397739 -2.379698 -1.062722 7
nan nan nan 0
-5.513732 -2.390856 0.2397875 41
-4.120698 -3.3501 0.306698 8
-5.618266 -2.400273 0.4937086 41
-5.491468 -4.424237 0.8610069 6
-5.686606 -2.428214 1.119837 37
-4.201728 -3.361967 1.431269 107
-4.029405 -3.286132 0.0297193 54
-4.05285 -2.718106 0 43
-4.457891 -2.435608 -0.02638926 42
-5.481098 -2.376672 -0.06940056 28
-4.045378 -3.302657 0.1529149 6
-4.056306 -2.728546 0.1125723 46
-4.443908 -2.438943 0.08603006 42
-5.494889 -2.395055 0.07275224 35
nan nan nan 0
-0.2687431 -0.2153274 -0.07961464 9
-4.039163 -3.290665 -0.7183629 37
-4.088154 -3.27211 -0.4921524 74
-4.047729 -3.262766 -0.3309306 123
-4.098914 -2.735701 -0.3418067 71
-4.502399 -2.438721 -0.3837901 35
-5.832982 -2.506109 -0.5153674 8
-4.061973 -3.318618 -0.2118124 160
-4.086957 -2.756416 -0.2280259 46
-4.449361 -2.436956 -0.2637732 45
-5.463581 -2.380353 -0.3444544 9
-4.02246 -3.261885 -0.08970536 47
-4.07122 -2.724266 -0.1128045 33
-4.469079 -2.431638 -0.1471715 42
-5.512818 -2.383547 -0.2062673 23
-5.451116 -2.38049 -1.071645 6
-6.051917 -2.591141 -0.7363071 14
-5.563375 -2.389301 0.2415934 42
-4.140129 -3.341974 0.3072789 12
-5.667933 -2.398085 0.4973567 41
-5.545609 -4.43607 0.8671004 9
-5.740371 -2.427466 1.128803 35
-4.205881 -3.341265 1.428681 122
-4.029203 -3.262595 0.02963291 54
-4.062314 -2.703942 0 45
-4.48835 -2.431934 -0.02652016 41
-5.530722 -2.375244 -0.06992677 28
-4.045244 -3.279062 0.1524725 6
-4.061649 -2.711593 0.1124563 46
-4.474354 -2.435359 0.08645765 41
-5.544542 -2.393658 0.07330201 33
nan nan nan 0
-0.2694931 -0.214388 -0.07961464 9
-4.039083 -3.26719 -0.7162987 62
-4.087869 -3.248518 -0.4907382 54
-4.047416 -3.239252 -0.3299705 123
-4.100123 -2.715864 -0.3411091 75
-4.532851 -2.434778 -0.3856733 38
-5.814171 -2.47405 -0.5129249 11
-4.065779 -3.298116 -0.2114058 157
-4.088254 -2.736573 -0.22756 48
-4.479784 -2.433319 -0.2650816 46
-5.522289 -2.382977 -0.3476492 10
-4.02215 -3.238407 -0.08944358 48
-4.076543 -2.707272 -0.1126884 39
-4.503936 -2.430254 -0.1480458 42
-5.557867 -2.379993 -0.2076493 22
-5.594907 -2.419922 -1.098414 10
-6.092957 -2.583551 -0.7402207 14
-5.617673 -2.389379 0.2436 40
-4.136202 -3.314999 0.3061172 11
-5.722251 -2.397501 0.5014102 41
-5.716414 -4.54026 0.8914742 17
-5.798737 -2.428268 1.138665 37
-4.206151 -3.31758 1.424799 95
-4.028888 -3.2391 0.02954652 57
-4.067556 -2.686988 0 44
-4.523244 -2.430442 -0.02667724 41
-5.580402 -2.373498 -0.07045297 27
-4.044995 -3.255507 0.1520302 6
-4.066924 -2.694635 0.1123402 46
-4.509228 -2.433965 0.08697075 42
-5.594253 -2.391943 0.07385177 34
nan nan nan 0
-0.273985 -0.2165082 -0.08087836 9
-4.038889 -3.243755 -0.7142344 68
-4.091374 -3.228055 -0.4897953 67
-4.046988 -3.215779 -0.3290103 123
-4.097078 -2.693312 -0.3400628 73
-4.56773 -2.432994 -0.3879331 42
-5.804395 -2.446015 -0.5112966 7
-4.061718 -3.271353 -0.2105927 148
-4.089464 -2.716755 -0.2270942 50
-4.510234 -2.429499 -0.26639 45
-5.567308 -2.379346 -0.3499727 9
-4.025626 -3.218095 -0.08926905 48
-4.077623 -2.687521 -0.1124563 33
-4.534429 -2.426299 -0.1487744 42
-5.60756 -2.3781 -0.2092041 19
-5.675703 -2.431311 -1.11269 8
-6.106521 -2.564187 -0.7407798 30
-5.667433 -2.387172 0.2454059 40
-4.139943 -3.294317 0.3055363 11
-5.776633 -2.396567 0.5054636 40
-5.755596 -4.538733 0.8951303 29
-5.861723 -2.430572 1.149424 35
-4.210106 -3.296914 1.422211 100
-4.028457 -3.215646 0.02946012 52
-4.076911 -2.672773 0 105
-4.558181 -2.428736 -0.02683431 42
-5.630137 -2.371434 -0.07097917 27
-4.044631 -3.231996 0.1515878 6
-4.07213 -2.677675 0.1122242 48
-4.544147 -2.432357 0.08748385 42
-5.648624 -2.391856 0.07446262 33
nan nan nan 0
-0.2747391 -0.2155505 -0.08087836 8
-4.034712 -3.21727 -0.7114821 63
-4.090871 -3.204533 -0.4883811 48
-4.046446 -3.192349 -0.3280502 119
-4.098102 -2.67354 -0.3393652 48
-4.598242 -2.428669 -0.3898162 43
-5.702481 -2.379777 -0.5015266 4
-4.057518 -3.244657 -0.2097796 145
-4.090585 -2.696962 -0.2266283 49
-4.540711 -2.425496 -0.2676984 47
nan nan nan 0
-4.025097 -3.194688 -0.08900727 48
-4.082796 -2.670533 -0.1123402 42
-4.569365 -2.424502 -0.1496486 42
-5.657308 -2.375888 -0.2107589 23
-6.61747 -2.8065 -1.296503 20
-6.120023 -2.544759 -0.7413388 8
-5.721858 -2.386566 0.2474125 40
-4.127937 -3.261256 0.3037937 7
-5.831079 -2.395283 0.5095171 41
-5.794837 -4.536988 0.8987864 21
-5.924797 -2.432466 1.160183 33
-4.21016 -3.273293 1.418328 16
-4.027911 -3.192235 0.02937373 52
-4.082026 -2.655797 0 255
-4.593161 -2.426816 -0.02699139 41
-5.684542 -2.370973 -0.07156385 28
-4.048066 -3.211637 0.1512929 6
-4.077267 -2.660711 0.1121081 209
-4.579109 -2.430534 0.08799695 42
-5.703062 -2.391418 0.07507347 32
nan nan nan 0
-0.2754898 -0.2145901 -0.08087836 9
-4.034279 -3.193932 -0.7094178 67
-4.090253 -3.181054 -0.4869669 49
-4.049715 -3.172043 -0.3274101 116
-4.094851 -2.651083 -0.3383189 47
-4.633198 -2.426472 -0.392076 43
-5.75222 -2.376948 -0.5051904 5
-4.057092 -3.221142 -0.2091698 148
-4.095796 -2.67993 -0.2263954 51
-4.57563 -2.423645 -0.2692685 47
-6.408121 -2.685081 -0.4019603 16
-4.024455 -3.171323 -0.08874548 48
-4.087902 -2.653542 -0.1122242 47
-4.59992 -2.420165 -0.1503772 43
-5.711723 -2.375273 -0.2124864 27
-6.636301 -2.787187 -1.298287 14
-6.101293 -2.512054 -0.7379844 7
-5.780967 -2.387511 0.2496197 40
-4.119674 -3.231402 0.3023415 10
-5.885585 -2.393648 0.5135705 41
-5.841966 -4.541121 0.9036611 5
-5.946927 -2.417314 1.162873 15
-4.206278 -3.246758 1.413152 7
-4.027252 -3.168867 0.02928734 49
-4.087072 -2.638819 0 108
-4.628182 -2.42468 -0.02714847 40
-5.734388 -2.368255 -0.07209005 27
-4.047483 -3.188196 0.1508505 7
-4.082335 -2.643744 0.1119921 255
-4.614114 -2.428497 0.08851005 41
-5.762185 -2.392542 0.0757454 31
nan nan nan 0
-0.2762372 -0.2136272 -0.08087836 8
-4.033733 -3.170636 -0.7073535 66
-4.089521 -3.157619 -0.4855527 49
-4.052891 -3.151753 -0.32677 114
-4.087298 -2.625983 -0.3369237 50
-4.668194 -2.424061 -0.3943358 42
-5.829691 -2.385098 -0.5112966 6
-4.056551 -3.19767 -0.20856 150
-4.09675 -2.660174 -0.2259296 49
-4.61059 -2.42158 -0.2708386 46
-6.422066 -2.664605 -0.4022507 12
-4.023698 -3.148001 -0.08848369 49
-4.088737 -2.633839 -0.1119921 44
-4.634932 -2.417954 -0.1512515 42
-5.766202 -2.374306 -0.214214 23
-6.641445 -2.762119 -1.297395 13
-6.087011 -2.481383 -0.735189 8
-5.835525 -2.386186 0.2516263 40
-4.111253 -3.201647 0.3008893 9
-5.94015 -2.39166 0.5176239 46
-4.137918 -3.191439 0.6367673 5
-5.964459 -2.400206 1.164666 6
-4.194602 -3.214407 1.405387 3
-4.026478 -3.145543 0.02920094 49
-4.092049 -2.621837 0 45
-4.663244 -2.42233 -0.02730555 40
-5.788913 -2.367107 -0.07267472 25
-4.05072 -3.167882 0.1505556 6
-4.08313 -2.62407 0.11176 47
-4.644726 -2.423933 0.08893764 41
-5.816758 -2.391385 0.07635625 31
nan nan nan 0
-0.2769812 -0.2126616 -0.08087836 8
-4.033073 -3.147383 -0.7052893 71
-4.088675 -3.134228 -0.4841384 49
-4.055975 -3.13148 -0.3261299 108
-4.079621 -2.600967 -0.3355286 60
-4.703229 -2.421434 -0.3965956 44
-6.494096 -2.629822 -0.5691024 11
-4.055895 -3.17424 -0.2079501 151
-4.097616 -2.640443 -0.2254638 46
-4.64559 -2.4193 -0.2724086 45
-6.408235 -2.632705 -0.4007986 10
-4.026772 -3.127795 -0.08830917 48
-4.097906 -2.619551 -0.1119921 45
-4.669983 -2.415528 -0.1521258 42
-5.820744 -2.372988 -0.2159415 23
-6.669249 -2.746399 -1.300964 11
-6.0772 -2.452698 -0.7329527 9
-5.894776 -2.38638 0.2538336 42
-4.110567 -3.178104 0.3000181 12
-5.990141 -2.38748 0.521272 43
-4.089975 -3.131659 0.6276271 3
-6.041371 -2.406617 1.178115 7
-4.232683 -3.220242 1.414446 5
-4.029539 -3.125332 0.02914335 52
-4.09274 -2.602169 0 44
-4.702792 -2.422052 -0.02748881 40
-5.848136 -2.367478 -0.07331786 25
-4.049921 -3.144515 0.1501132 6
-4.088052 -2.607111 0.1116439 46
-4.679804 -2.421482 0.08945075 40
-5.876025 -2.391757 0.07702819 31
nan nan nan 0
-0.2777219 -0.2116935 -0.08087836 9
-4.0323 -3.124174 -0.703225 70
-4.091675 -3.1139 -0.4831956 50
-4.062924 -3.114263 -0.3258098 104
-4.067604 -2.57337 -0.3337847 62
-4.738302 -2.418592 -0.3988554 43
-6.521745 -2.61454 -0.5707307 11
-4.055126 -3.150854 -0.2073403 154
-4.094187 -2.618046 -0.224765 43
-4.680632 -2.416805 -0.2739787 46
-6.408136 -2.606566 -0.4002177 9
-4.025799 -3.104548 -0.08804739 48
-4.098585 -2.599872 -0.11176 41
-4.705075 -2.412887 -0.1530001 41
-5.875347 -2.371318 -0.217669 23
-6.674238 -2.721248 -1.300072 11
-5.859561 -2.341331 -0.7055578 4
-5.94946 -2.384334 0.2558402 42
-4.109767 -3.154606 0.2991468 28
-6.035538 -2.381155 0.5245148 43
-5.924728 -4.506762 0.9091453 33
-6.118399 -2.41252 1.191564 4
-4.259302 -3.217106 1.419622 12
-4.02855 -3.102082 0.02905696 49
-4.09757 -2.585197 0 45
-4.737941 -2.419255 -0.02764589 41
-5.902789 -2.365609 -0.07390253 26
-4.052963 -3.124248 0.1498183 6
-4.092905 -2.59015 0.1115279 47
-4.714921 -2.418814 0.08996384 42
-5.935366 -2.391744 0.07770012 30
nan nan nan 0
-0.2784591 -0.2107228 -0.08087836 9
-4.031415 -3.101008 -0.7011607 60
-4.090614 -3.090584 -0.4817813 50
-4.065835 -3.09401 -0.3251697 86
-4.068115 -2.553849 -0.3330871 59
-4.777862 -2.417785 -0.4014919 42
-6.544732 -2.597263 -0.571952 8
-4.054243 -3.127513 -0.2067305 154
-4.086437 -2.593028 -0.2238334 46
-4.715712 -2.414095 -0.2755488 45
-6.407932 -2.58046 -0.3996368 12
-4.028679 -3.08439 -0.08787286 48
-4.094947 -2.577556 -0.1114118 43
-4.740203 -2.410029 -0.1538744 42
-5.934649 -2.371146 -0.2195693 23
-6.683696 -2.697934 -1.300072 11
-5.927784 -2.344567 -0.7128258 5
-5.999557 -2.380097 0.2576461 43
-4.108852 -3.131152 0.2982754 30
-6.085607 -2.37635 0.5281629 43
-5.964173 -4.504015 0.9128013 18
-6.259716 -2.442896 1.217565 24
-4.278228 -3.208021 1.422211 31
-4.031415 -3.081919 0.02899936 50
-4.102332 -2.568223 0 43
-4.777589 -2.418499 -0.02782915 41
-5.966797 -2.367066 -0.07460414 25
-4.055912 -3.103997 0.1495233 7
-4.097689 -2.573188 0.1114118 47
-4.754533 -2.418196 0.09056246 42
-5.994777 -2.391346 0.07837206 29
nan nan nan 0
-0.279193 -0.2097495 -0.08087836 9
-4.030416 -3.077887 -0.6990965 62
-4.08944 -3.067314 -0.4803671 50
-4.068654 -3.073775 -0.3245296 87
-4.077005 -2.539633 -0.3330871 62
-4.817474 -2.41673 -0.4041283 42
-6.525919 -2.563492 -0.5695095 7
-4.053246 -3.104216 -0.2061207 154
-4.078561 -2.568096 -0.2229017 48
-4.75083 -2.411169 -0.2771189 45
-6.407624 -2.554386 -0.399056 11
-4.031468 -3.064249 -0.08769834 48
-4.091203 -2.555298 -0.1110636 45
-4.779834 -2.409204 -0.1548944 42
-5.989373 -2.368754 -0.2212968 23
-6.693072 -2.674587 -1.300072 12
-5.996099 -2.347356 -0.7200938 6
-6.049695 -2.375539 0.259452 43
-4.111802 -3.110759 0.2976946 27
-6.163615 -2.381979 0.534243 44
nan nan nan 0
-6.286565 -2.428105 1.221151 45
-4.273915 -3.181517 1.417034 24
-4.03419 -3.061774 0.02894176 52
-4.107026 -2.551248 0 46
-4.812819 -2.415253 -0.02798623 41
-6.012266 -2.360811 -0.07507188 24
-4.054794 -3.080737 0.149081 6
-4.102405 -2.556223 0.1112958 47
-4.789733 -2.415082 0.09107556 41
-6.044954 -2.386897 0.07892182 39
nan nan nan 0
-0.2799234 -0.2087736 -0.08087836 9
-4.029306 -3.054811 -0.6970323 60
-4.092144 -3.047066 -0.4794243 50
-4.067393 -3.05056 -0.3235695 44
-4.090087 -2.52801 -0.3334359 62
-4.852671 -2.413209 -0.4063881 40
-6.553412 -2.547905 -0.5711378 7
-4.056111 -3.083992 -0.2057141 155
-4.066328 -2.540602 -0.2217371 47
-4.790445 -2.41027 -0.2789506 45
-6.411857 -2.530175 -0.3987655 10
-4.030178 -3.041111 -0.08743655 47
-4.087355 -2.533097 -0.1107155 44
-4.815044 -2.405899 -0.1557686 42
-6.058117 -2.371462 -0.2235426 23
-6.702368 -2.651208 -1.300072 12
-6.07841 -2.355069 -0.7290391 8
-6.095215 -2.368854 0.2610573 44
-4.106683 -3.084379 0.2965329 28
-6.223112 -2.379988 0.5387018 58
-4.264608 -3.172122 0.6477355 13
-6.28581 -2.402641 1.219358 45
-4.230656 -3.126341 1.398917 5
-4.032883 -3.038634 0.02885537 53
-4.111651 -2.534271 0 47
-4.852562 -2.414017 -0.02816949 40
-6.090394 -2.366918 -0.07594889 23
-4.05755 -3.060537 0.1487861 6
-4.111302 -2.541888 0.1112958 46
-4.829441 -2.413984 0.09167418 41
-6.090513 -2.38031 0.07941051 38
nan nan nan 0
-0.2806505 -0.2077952 -0.08087836 9
-4.032037 -3.034762 -0.6956561 64
-4.090755 -3.023875 -0.4780101 50
-4.070019 -3.030376 -0.3229294 16
-4.098886 -2.513717 -0.3334359 60
-4.892375 -2.411676 -0.4090246 42
-6.566918 -2.526799 -0.5715449 7
-4.054898 -3.060772 -0.2051043 154
-4.062439 -2.518493 -0.2210383 49
-4.825642 -2.406897 -0.2805207 45
-6.411348 -2.504154 -0.3981847 9
-4.032773 -3.021022 -0.08726203 47
-4.079144 -2.508334 -0.1102513 45
-4.854769 -2.404594 -0.1567886 41
-6.103646 -2.364711 -0.2249247 21
-6.716165 -2.629587 -1.300964 12
-6.165487 -2.364011 -0.7385435 11
-6.145427 -2.363669 0.2628632 43
-4.101431 -3.058074 0.2953711 14
-6.333955 -2.396969 0.5476193 47
-4.239751 -3.130649 0.6422514 3
-6.284954 -2.377212 1.217565 45
-4.202631 -3.082948 1.385976 5
-4.035465 -3.018539 0.02879778 54
-4.120472 -2.519903 0 45
-4.892354 -2.412533 -0.02835274 40
-6.145298 -2.363553 -0.07653356 23
-4.056217 -3.037354 0.1483437 7
-4.115891 -2.524906 0.1111797 47
-4.8692 -2.412638 0.0922728 40
-6.164086 -2.384234 0.08026569 38
nan nan nan 0
-0.2813741 -0.2068143 -0.08087836 9
-4.030714 -3.011763 -0.6935918 66
-4.093265 -3.003679 -0.4770673 49
-4.068542 -3.00724 -0.3219692 13
-4.111896 -2.501989 -0.3337847 61
-4.927645 -2.407706 -0.4112844 45
-6.580357 -2.50563 -0.571952 7
-4.057569 -3.040599 -0.2046977 152
-4.079712 -2.509534 -0.2215042 48
-4.865352 -2.405518 -0.2823525 42
-6.415393 -2.479963 -0.3978942 11
-4.035277 -3.000951 -0.0870875 48
-4.092141 -2.496685 -0.1103673 44
-4.894543 -2.403041 -0.1578086 40
-6.163204 -2.363027 -0.226825 23
-6.725302 -2.606127 -1.300964 12
-6.2527 -2.372374 -0.7480478 9
-6.270407 -2.386536 0.2678797 52
-4.092037 -3.028869 0.2939189 5
-6.323609 -2.36787 0.545998 48
-4.274651 -3.133458 0.6459075 3
-6.270172 -2.346658 1.213082 46
-4.178254 -3.042637 1.374329 6
-4.037955 -2.998464 0.02874018 53
-4.124969 -2.502909 0 45
-4.932195 -2.4108 -0.028536 40
-6.317105 -2.404199 -0.07857991 37
-4.054771 -3.014218 0.1479013 6
-4.124679 -2.510523 0.1111797 49
-4.909007 -2.411045 0.09287142 41
-6.209737 -2.376971 0.08075437 36
nan nan nan 0
-0.2859543 -0.208747 -0.08214208 9
-4.033254 -2.991765 -0.6922156 66
-4.091664 -2.980568 -0.4756531 49
-4.070975 -2.987107 -0.3213291 10
-4.124874 -2.4902 -0.3341335 62
-4.95846 -2.401349 -0.4131675 47
-6.593728 -2.484399 -0.5723591 7
-4.060147 -3.020444 -0.2042912 155
-4.084185 -2.492674 -0.2212713 46
-4.905109 -2.403891 -0.2841842 44
-6.400693 -2.448654 -0.3964421 8
-4.033672 -2.977926 -0.08682571 49
-4.096556 -2.479795 -0.1102513 44
-4.934363 -2.401239 -0.1588286 41
-6.334987 -2.403406 -0.2328713 36
-6.734358 -2.582635 -1.300964 11
-6.340045 -2.380156 -0.7575521 9
-6.334821 -2.385717 0.2702876 48
-4.110622 -3.020486 0.2944998 16
-6.299114 -2.333691 0.5431606 47
-5.604799 -4.080521 0.8463826 11
-6.264482 -2.319644 1.210392 46
-4.192761 -3.030867 1.375623 16
-4.036333 -2.975437 0.02865379 60
-4.129398 -2.485915 0 45
-4.976583 -2.410996 -0.02874544 41
-6.34886 -2.390924 -0.07887225 42
-4.057232 -2.994102 0.1476064 6
-4.133417 -2.49611 0.1111797 49
-4.948863 -2.409202 0.09347004 39
-6.339595 -2.401229 0.08234259 42
nan nan nan 0
-0.2905513 -0.2106501 -0.08340581 9
-4.031719 -2.968845 -0.6901514 93
-4.093982 -2.960425 -0.4747102 49
-4.073318 -2.966995 -0.3206891 8
-4.137819 -2.478351 -0.3344823 55
-4.98929 -2.394805 -0.4150507 44
-6.579005 -2.452682 -0.5703236 10
-4.062635 -3.000308 -0.2038846 148
-4.097132 -2.480992 -0.2215042 48
-4.944914 -2.402016 -0.286016 44
-6.385853 -2.417479 -0.3949899 10
-4.035984 -2.957908 -0.08665119 48
-4.113756 -2.470631 -0.1104834 45
-4.974232 -2.399188 -0.1598486 41
-6.333979 -2.377773 -0.2325258 37
-6.747933 -2.560854 -1.301857 13
-6.385588 -2.37182 -0.7620248 32
-6.315013 -2.353146 0.2690837 48
-4.117112 -3.003173 0.2942094 27
-6.297861 -2.308267 0.5423499 47
-5.602928 -4.049292 0.8439451 10
-6.25406 -2.291011 1.206806 47
-4.195473 -3.010574 1.373035 4
-4.0346 -2.952458 0.02856739 52
-4.133759 -2.46892 0 45
-5.016525 -2.40875 -0.0289287 40
-6.324363 -2.356555 -0.07846298 41
-4.055574 -2.971047 0.147164 9
-4.146392 -2.484237 0.1112958 47
-4.988765 -2.40711 0.09406866 41
-6.343255 -2.377334 0.0822815 44
nan nan nan 0
-0.2990453 -0.2154128 -0.08593326 9
-4.034068 -2.9489 -0.6887752 67
-4.096209 -2.940303 -0.4737674 49
-4.071528 -2.943974 -0.3197289 8
-4.150732 -2.466441 -0.334831 59
-5.020134 -2.388076 -0.4169339 42
-6.690419 -2.467559 -0.5792795 8
-4.065032 -2.980192 -0.2034781 148
-4.110047 -2.469249 -0.2217371 48
-4.984766 -2.399892 -0.2878478 43
-6.366199 -2.38469 -0.3932473 13
-4.038206 -2.937911 -0.08647667 49
-4.126647 -2.458817 -0.1105994 44
-5.018656 -2.399043 -0.1610144 40
-6.318811 -2.346968 -0.231662 39
-6.756831 -2.537284 -1.301857 10
-6.435815 -2.364905 -0.7670565 38
-6.27161 -2.312121 0.2668764 49
-4.12757 -2.988784 0.2942094 32
-6.301192 -2.284575 0.5419446 48
-5.604938 -4.021022 0.8421171 8
-6.252767 -2.265822 1.205013 46
-4.154854 -2.959433 1.356212 25
-4.032755 -2.929527 0.028481 57
-4.146652 -2.457026 0 45
-5.061027 -2.4084 -0.02913814 40
-6.271548 -2.312032 -0.0777029 36
-4.057842 -2.950984 0.1468691 17
-4.16363 -2.47486 0.1115279 46
-5.028712 -2.404769 0.09466728 39
-6.318691 -2.343035 0.0818539 45
nan nan nan 0
-0.2959051 -0.2114921 -0.08466953 9
-4.036326 -2.928974 -0.687399 61
-4.098346 -2.920201 -0.4728246 49
-4.073679 -2.923916 -0.3190888 8
-4.163612 -2.454472 -0.3351798 54
-5.069035 -2.389657 -0.4203236 40
-6.708357 -2.447599 -0.5800937 9
-4.067338 -2.960095 -0.2030715 147
-4.12722 -2.460005 -0.2222029 46
-5.024663 -2.39752 -0.2896795 44
-6.355757 -2.355529 -0.3920856 11
-4.040337 -2.917934 -0.08630214 41
-4.14381 -2.449488 -0.1108315 44
-5.05862 -2.396477 -0.1620344 40
-6.322274 -2.323178 -0.2314893 42
-6.765646 -2.513683 -1.301857 12
-6.504755 -2.364444 -0.7743245 13
-6.298422 -2.297047 0.2676791 48
-4.129878 -2.968522 0.2936285 27
-6.299744 -2.259209 0.5411339 48
-5.61894 -4.001432 0.8421171 8
-6.251374 -2.240671 1.203219 47
-4.149397 -2.933743 1.351035 62
-4.0308 -2.906646 0.0283946 58
-4.159513 -2.445072 0 44
-5.105587 -2.407769 -0.02934758 41
-6.307771 -2.300381 -0.07805371 41
-4.055971 -2.928012 0.1464267 8
-4.185157 -2.467933 0.111876 44
-5.073222 -2.404318 0.09535141 38
-6.322136 -2.319247 0.08179282 44
nan nan nan 0
-0.2849407 -0.2018722 -0.08087836 8
-4.038495 -2.909069 -0.6860228 69
-4.104454 -2.902998 -0.4723531 52
-4.071678 -2.90098 -0.3181286 8
-4.180764 -2.444963 -0.3358774 56
-5.113489 -2.388818 -0.4233367 40
-6.75437 -2.437672 -0.5833504 8
-4.073599 -2.94295 -0.2028683 144
-4.144379 -2.450671 -0.2226688 47
-5.060089 -2.392764 -0.2912496 47
-6.354565 -2.3299 -0.3915047 6
-4.042378 -2.897979 -0.08612762 38
-4.160956 -2.440068 -0.1110636 44
-5.098629 -2.393662 -0.1630544 40
-6.316252 -2.295985 -0.230971 42
-6.77438 -2.490051 -1.301857 11
-6.60183 -2.373593 -0.784947 5
-6.306402 -2.275047 0.2676791 48
-4.132094 -2.948281 0.2930477 26
-6.307591 -2.237205 0.5411339 47
-5.616673 -3.970323 0.8396797 8
-6.25452 -2.217196 1.202323 46
-4.163563 -2.92202 1.352329 103
-4.032797 -2.886728 0.02833701 64
-4.172341 -2.433058 0 44
-5.150203 -2.406856 -0.02955702 40
-6.315763 -2.278349 -0.07805371 42
-4.058049 -2.908005 0.1461318 3
-4.206687 -2.460887 0.1122242 44
-5.117789 -2.403586 0.09603555 40
-6.325492 -2.295462 0.08173174 41
nan nan nan 0
-0.2817333 -0.198028 -0.07961464 9
-4.040575 -2.889184 -0.6846467 56
-4.106419 -2.882925 -0.4714103 52
-4.073638 -2.880978 -0.3174886 10
-4.193586 -2.432858 -0.3362262 54
-5.162524 -2.38979 -0.4267264 39
-6.80509 -2.429125 -0.5870141 7
-4.075734 -2.922881 -0.2024617 135
-4.165829 -2.443776 -0.2233675 45
-5.100064 -2.389908 -0.2930813 46
-6.357965 -2.306006 -0.3912142 7
-4.04433 -2.878044 -0.08595309 49
-4.178089 -2.43056 -0.1112958 43
-5.143211 -2.392703 -0.1642201 40
-6.319523 -2.272236 -0.2307983 41
-6.787655 -2.468066 -1.302749 12
-6.680317 -2.375449 -0.7933332 5
-6.304891 -2.24967 0.2672777 48
-4.13422 -2.92806 0.2924668 8
-6.273026 -2.200364 0.5374858 73
-5.626437 -3.947839 0.8390704 7
-6.248291 -2.19048 1.199633 44
-4.217298 -2.937879 1.366565 23
-4.030631 -2.863931 0.02825062 59
-4.19379 -2.425995 0 43
-5.190337 -2.403561 -0.02974027 39
-6.314256 -2.252936 -0.07793678 42
-4.055967 -2.885117 0.1456894 4
-4.232542 -2.45623 0.1126884 44
-5.162412 -2.402571 0.09671968 39
-6.319345 -2.268312 0.08154848 43
nan nan nan 0
nan nan nan 0
-4.0466 -2.872191 -0.6839586 49
-4.108296 -2.862873 -0.4704675 49
-4.071427 -2.858127 -0.3165284 9
-4.215019 -2.425673 -0.3372725 54
-5.211627 -2.390448 -0.4301161 39
-6.860532 -2.421909 -0.5910849 7
-4.077779 -2.902832 -0.2020552 118
-4.187281 -2.436761 -0.2240663 44
-5.135551 -2.384699 -0.2946514 46
-6.347177 -2.277071 -0.3900525 16
-4.042111 -2.855243 -0.08569131 48
-4.195204 -2.420961 -0.1115279 43
-5.183308 -2.389371 -0.1652401 40
-6.327416 -2.250163 -0.2307983 32
-6.796229 -2.444358 -1.302749 12
-6.768274 -2.380075 -0.8028376 4
-6.275005 -2.214379 0.2656725 83
-4.136254 -2.907861 0.2918859 4
-6.327766 -2.194745 0.5415392 14
nan nan nan 0
-6.255899 -2.168656 1.199633 24
-4.267224 -2.950649 1.379506 47
-4.032438 -2.844072 0.02819302 62
-4.210905 -2.416322 0 43
-5.235055 -2.402099 -0.02994971 39
-6.293786 -2.220923 -0.07758597 46
-4.057855 -2.865167 0.1453945 4
-4.258414 -2.451423 0.1131526 43
-5.211632 -2.403366 0.09748933 39
-6.317799 -2.242902 0.08142632 44
nan nan nan 0
-0.2713187 -0.1875936 -0.07582346 9
-4.048511 -2.852335 -0.6825824 47
-4.114172 -2.845679 -0.4699961 45
-4.073197 -2.838184 -0.3158883 9
-4.236454 -2.418368 -0.3383189 50
-5.265337 -2.392854 -0.4338824 39
-6.845413 -2.389752 -0.5890495 12
-4.079733 -2.882805 -0.2016486 97
-4.208735 -2.429626 -0.224765 46
-5.166528 -2.377187 -0.2959598 44
-6.322148 -2.243244 -0.3880195 7
-4.043873 -2.835367 -0.08551679 50
-4.220978 -2.416242 -0.1119921 42
-5.232538 -2.389938 -0.1665515 40
-6.330517 -2.226408 -0.2306255 19
-6.80472 -2.42062 -1.302749 12
-6.842261 -2.379231 -0.8106647 16
-6.311006 -2.202314 0.2668764 44
-4.138199 -2.887683 0.291305 17
-6.424982 -2.203283 0.5492407 11
-6.17203 -4.267262 0.9164574 33
-6.347213 -2.175442 1.215772 12
-4.273519 -2.932998 1.378211 48
-4.034155 -2.824234 0.02813542 60
-4.241035 -2.413983 0 41
-5.279826 -2.400353 -0.03015915 40
-6.358161 -2.21866 -0.07828757 9
-4.055563 -2.842366 0.1449521 5
-4.288645 -2.448946 0.1137329 44
