# .PCD v0.7 - Point Cloud Data file format
VERSION 0.7
FIELDS x y z intensity
SIZE 4 4 4 4
TYPE F F F F
COUNT 1 1 1 1
WIDTH 1670
HEIGHT 1
VIEWPOINT 0 0 0 1 0 0 0
POINTS 1670
DATA ascii
-13.53614 3.498618 -0.8942168 12
-12.46544 4.455288 -0.9228781 8
-11.31292 5.268312 -0.9397019 11
-9.779516 5.685338 -0.9208224 7
-12.98436 3.264822 -0.5431503 48
-11.77825 4.14522 -0.5804295 18
-10.74639 4.943119 -0.6178259 33
-9.875995 5.675048 -0.6604463 43
-13.00531 3.320681 -0.2336004 34
-11.81028 4.205076 -0.2901349 35
-10.72457 4.969326 -0.3434487 43
-9.801686 5.668692 -0.3900767 35
-7.371297 4.22576 -1.533853 10
-11.96228 6.975366 -1.553681 12
-9.936903 5.779373 0.460111 15
-13.05518 3.364945 0.7821381 21
-10.49063 6.17777 0.987012 34
-12.97855 3.410346 1.642799 17
nan nan nan 0
nan nan nan 0
-13.00956 3.331525 0.07712044 39
-11.78431 4.228312 0 31
-10.72479 4.992224 -0.06173202 46
-9.836167 5.720792 -0.1326036 50
-13.02522 3.328314 0.3954849 31
-11.81525 4.220886 0.290367 36
-10.76011 4.983675 0.2021621 38
-9.907584 5.737068 0.139396 32
nan nan nan 0
-0.3703561 0.0978471 -0.08972443 10
-10.15007 2.606124 -1.450488 14
-14.28243 3.797608 -1.395846 12
-13.58177 3.561011 -0.8980574 14
-12.40759 4.483523 -0.919739 6
-11.27642 5.299284 -0.9381954 8
-9.742418 5.709354 -0.9191941 7
-12.939 3.301494 -0.5417274 48
-11.74018 4.177939 -0.5792649 25
-10.70643 4.970085 -0.6165175 34
-9.838854 5.699471 -0.6592846 44
-12.95492 3.356044 -0.2329023 36
-11.76261 4.234429 -0.2893226 30
-10.68905 4.99826 -0.3428659 43
-9.768891 5.695314 -0.3895585 52
-7.399082 4.276108 -1.542776 9
-11.94642 7.022119 -1.554799 11
-10.30445 6.041623 0.4781703 7
-12.98539 3.395367 0.7786528 22
-10.54612 6.260176 0.9943081 39
-12.933 3.446697 1.638533 16
nan nan nan 0
nan nan nan 0
-12.96397 3.36813 0.07691886 35
-11.74598 4.2609 0 33
-10.68467 5.018997 -0.06160111 46
-9.79889 5.744967 -0.1323697 53
-12.97482 3.363743 0.3943052 31
-11.77223 4.251919 0.2896707 34
-10.72001 5.010617 0.2017345 39
nan nan nan 0
nan nan nan 0
-0.3277906 0.08851044 -0.07835092 10
-10.14571 2.642784 -1.451176 14
-14.30754 3.857794 -1.399617 12
-13.56443 3.607118 -0.8977373 7
-12.29348 4.490878 -0.9124146 7
-11.23533 5.327928 -0.9363122 8
-9.705272 5.733179 -0.9175657 8
-12.89353 3.33789 -0.5403045 56
-11.70203 4.210443 -0.5781003 20
-10.67093 4.998951 -0.6154708 30
-9.801661 5.723704 -0.6581228 43
-12.90444 3.391095 -0.2322042 36
-11.71957 4.265209 -0.2886262 33
-10.64894 5.024874 -0.3421373 46
-9.753259 5.731914 -0.3897312 52
-7.37986 4.299429 -1.541884 12
-11.94748 7.078983 -1.558153 12
-10.39939 6.146241 0.4835881 9
-12.93004 3.429175 0.7760389 23
-10.60971 6.348166 1.002415 34
-12.89214 3.484063 1.634877 17
nan nan nan 0
nan nan nan 0
-12.91345 3.403185 0.07668847 35
-11.70756 4.293271 0 32
-10.64902 5.047694 -0.0614964 46
-9.761566 5.768955 -0.1321359 48
-12.92433 3.39886 0.3931255 29
-11.72915 4.282704 0.2889744 33
-10.68437 5.039472 0.2013924 38
-10.21192 6.009096 0.1442828 5
nan nan nan 0
-0.3462282 0.0944435 -0.08340581 11
-10.14121 2.679446 -1.451864 13
-14.3324 3.918201 -1.403389 12
nan nan nan 0
-12.28709 4.537218 -0.9131122 11
-11.19418 5.356351 -0.934429 13
-9.668078 5.756815 -0.9159374 7
-12.84315 3.372741 -0.5386783 49
-11.6591 4.241026 -0.5767028 28
-10.63536 5.027631 -0.6144241 33
-9.768722 5.750281 -0.6572515 43
-12.85387 3.425836 -0.2315062 35
-11.67646 4.295741 -0.2879299 32
-10.61328 5.053418 -0.3415544 44
-9.7117 5.75318 -0.3888675 47
-7.364808 4.325164 -1.541884 12
-11.92696 7.123194 -1.558712 12
-10.43794 6.218329 0.4863973 10
-12.86978 3.461344 0.7731346 24
-10.67281 6.436675 1.010522 37
-12.84639 3.519877 1.630612 17
nan nan nan 0
nan nan nan 0
-12.86768 3.439217 0.07648689 38
-11.66437 4.323689 0 30
-10.61329 5.076203 -0.06139167 44
-9.719898 5.79019 -0.1318435 51
-12.87858 3.434952 0.3920933 29
-11.68599 4.31324 0.2882781 35
-10.64414 5.065991 0.2009649 37
-10.27686 6.095756 0.1455045 7
nan nan nan 0
-0.3412135 0.09443779 -0.08214208 10
-10.13179 2.714829 -1.451864 14
-14.3714 3.982811 -1.408574 10
-13.51485 3.695156 -0.8961371 8
-12.22444 4.562645 -0.9096244 8
-11.15745 5.38672 -0.9329225 13
-9.630837 5.780261 -0.914309 7
-12.7975 3.408565 -0.5372553 47
-11.62078 4.273083 -0.5755382 22
-10.59521 5.053973 -0.6131157 36
-9.731423 5.774148 -0.6560898 41
-12.80322 3.460265 -0.230808 40
-11.63328 4.326023 -0.2872336 32
-10.57306 5.079609 -0.3408259 46
-9.682981 5.781917 -0.3885219 49
-7.349666 4.350846 -1.541884 13
-11.91905 7.17504 -1.560949 12
-10.37335 6.228987 0.4843907 7
-12.81427 3.494446 0.7705207 24
-10.73542 6.525701 1.018629 34
-12.80055 3.555414 1.626346 17
nan nan nan 0
nan nan nan 0
-12.82181 3.474972 0.0762853 37
-11.62579 4.355612 0 32
-10.5775 5.104525 -0.06128696 48
-9.695342 5.821507 -0.1317851 49
-12.83273 3.470766 0.3910611 32
-11.64744 4.345273 0.2876978 34
-10.60837 5.094456 0.2006228 39
-10.29413 6.154699 0.1460543 49
nan nan nan 0
-0.3502391 0.09808836 -0.08466953 10
-10.12226 2.750179 -1.451864 14
-14.40534 4.046397 -1.413288 11
-14.18955 3.932633 -0.9419041 7
-12.18044 4.594729 -0.9075316 10
-11.11169 5.41253 -0.9306627 16
-9.597815 5.806099 -0.9130878 8
-12.73728 3.44021 -0.5352226 61
-11.5777 4.303185 -0.5741407 23
-10.55951 5.082262 -0.612069 36
-9.69836 5.80039 -0.6552185 41
-12.75249 3.494382 -0.23011 37
-11.59471 4.357815 -0.2866533 34
-10.53727 5.107763 -0.340243 46
-9.649899 5.807944 -0.3880037 49
-7.338657 4.378998 -1.542776 13
nan nan nan 0
nan nan nan 0
-12.77313 3.531186 0.7687781 25
-10.80179 6.617848 1.027141 39
-12.7594 3.592017 1.62269 17
nan nan nan 0
nan nan nan 0
-12.77103 3.509125 0.07605492 36
-11.58246 4.385548 0 34
-10.53714 5.130468 -0.06115606 45
-9.692067 5.865678 -0.1320189 40
-12.78198 3.504982 0.3898814 32
-11.60882 4.37709 0.2871175 34
-10.57253 5.122734 0.2002807 38
-10.34536 6.234497 0.1470927 50
nan nan nan 0
-0.3639176 0.1030494 -0.08846071 9
-10.11259 2.785496 -1.451864 14
-14.44859 4.11299 -1.418945 10
-14.18535 3.984835 -0.9425442 10
-12.11772 4.619459 -0.9040439 11
-11.07483 5.442485 -0.9291562 7
-9.560474 5.829181 -0.9114594 7
-12.68665 3.474111 -0.5335964 49
-11.53923 4.334795 -0.5729761 24
-10.52374 5.110363 -0.6110223 35
-9.660958 5.823892 -0.6540567 42
-12.70649 3.529523 -0.2294991 34
-11.55139 4.387617 -0.285957 34
-10.50142 5.135727 -0.3396602 44
-9.616754 5.833813 -0.3874854 50
-7.327541 4.407126 -1.543668 14
-9.821795 6.005227 -1.290914 7
nan nan nan 0
-12.73188 3.567682 0.7670355 21
-10.87189 6.713157 1.036059 37
-12.71337 3.627017 1.618425 17
nan nan nan 0
nan nan nan 0
-12.72498 3.544307 0.07585334 39
-11.53906 4.415234 0 33
-10.50121 5.158398 -0.06105134 46
nan nan nan 0
-12.73595 3.540224 0.3888492 30
-11.57011 4.408689 0.2865372 35
-10.53212 5.148626 0.1998531 38
-10.34916 6.286155 0.1474592 55
nan nan nan 0
-0.3308659 0.09548037 -0.07961464 10
-10.10281 2.820778 -1.451864 14
-14.44849 4.167534 -1.420359 10
-13.32183 3.792815 -0.8858956 14
-12.07359 4.650975 -0.9019511 7
-11.0379 5.472249 -0.9276496 7
-9.523091 5.852073 -0.9098312 7
-12.60223 3.49836 -0.5305473 54
-11.50068 4.366187 -0.5718116 23
-10.48342 5.13608 -0.6097139 37
-9.627778 5.849798 -0.6531855 42
-12.66041 3.564386 -0.2288883 35
-11.51267 4.418959 -0.2853767 35
-10.4655 5.163505 -0.3390773 43
-9.583544 5.859519 -0.3869672 53
-7.320524 4.437783 -1.545453 14
-9.796545 6.036865 -1.290354 6
-9.682111 5.952345 0.4548939 8
-12.69054 3.603933 0.7652929 22
-10.93722 6.8064 1.044571 35
-12.66726 3.661739 1.614159 17
nan nan nan 0
nan nan nan 0
-12.67884 3.579209 0.07565175 35
-11.4956 4.444672 0 32
-10.46075 5.183919 -0.06092044 46
-10.31085 6.339375 -0.1410813 116
-12.68503 3.573833 0.3876695 28
-11.52666 4.438277 0.2858409 34
-10.49615 5.176511 0.1995111 40
-10.48062 6.416285 0.1496583 49
nan nan nan 0
nan nan nan 0
-10.0929 2.856026 -1.451864 15
-14.43863 4.219338 -1.420831 11
-13.27495 3.829625 -0.8836551 14
-11.97361 4.660537 -0.8956731 8
-11.0009 5.501822 -0.9261431 13
-9.489899 5.877401 -0.9086099 8
-12.58032 3.539627 -0.5301408 46
-11.46205 4.397365 -0.5706469 20
-10.44753 5.16379 -0.6086671 35
-9.594532 5.875543 -0.6523142 40
-12.61423 3.59897 -0.2282775 34
-11.47387 4.450084 -0.2847964 36
-10.42505 5.188867 -0.3383487 44
-9.550274 5.885065 -0.3864489 56
-7.313382 4.468444 -1.547238 13
-9.720557 6.036921 -1.283086 5
-9.652782 5.980838 0.4544925 12
-12.6443 3.638561 0.7632598 21
-11.00625 6.902831 1.053488 37
-12.62105 3.696184 1.609894 18
nan nan nan 0
nan nan nan 0
-12.62781 3.612459 0.07542137 37
-11.45207 4.47386 0 36
-10.4247 5.211456 -0.06081572 44
-10.29291 6.377963 -0.1411398 107
-12.63883 3.6085 0.3866373 33
-11.48314 4.467615 0.2851446 34
-10.46012 5.204207 0.199169 38
-10.64958 6.571052 0.1524071 37
nan nan nan 0
-0.3488354 0.1029689 -0.08466953 9
-10.08763 2.892602 -1.452552 14
nan nan nan 0
nan nan nan 0
-11.94798 4.698654 -0.8949755 11
-10.96382 5.531202 -0.9246365 26
-9.45242 5.899928 -0.9069815 8
-12.53906 3.575312 -0.5289211 51
-11.41869 4.42652 -0.5692495 25
-10.4071 5.189084 -0.6073588 37
-9.561226 5.901128 -0.6514429 39
-12.57277 3.634662 -0.2277539 36
-11.435 4.480993 -0.2842162 33
-10.38901 5.216252 -0.3377659 45
-9.516943 5.910451 -0.3859307 51
-7.306114 4.49911 -1.549022 14
-9.724688 6.086644 -1.286441 9
-9.606428 5.998608 0.4532886 17
-12.59797 3.67291 0.7612268 20
-11.07474 6.999825 1.062406 33
-12.57952 3.73176 1.606238 18
nan nan nan 0
nan nan nan 0
-12.5815 3.646787 0.07521979 39
-11.40847 4.502798 0 34
-10.38413 5.236554 -0.06068482 47
-10.39353 6.490707 -0.1428354 6
-12.59255 3.642888 0.3856051 31
-11.43956 4.496704 0.2844483 36
-10.41955 5.229473 0.1987414 40
-10.86852 6.75878 0.1558889 9
nan nan nan 0
-0.329848 0.0989399 -0.07961464 11
-10.07747 2.927797 -1.452552 15
nan nan nan 0
-12.64976 3.745376 -0.843649 11
-11.9825 4.760583 -0.8988121 13
-10.92223 5.55813 -0.9227534 30
-9.414901 5.922265 -0.9053532 6
-12.4977 3.610752 -0.5277014 77
-11.37992 4.457248 -0.5680848 23
-10.37108 5.216402 -0.606312 34
-9.523619 5.923913 -0.6502811 40
-12.52642 3.668705 -0.227143 36
-11.3914 4.509846 -0.2835198 33
-10.3529 5.243449 -0.337183 47
-9.479315 5.933022 -0.3852396 52
-7.298722 4.52978 -1.550807 14
-9.648766 6.086065 -1.279173 10
-9.585431 6.032104 0.4532886 30
-12.55635 3.708392 0.7594842 22
-11.12588 7.086665 1.069702 38
-12.53315 3.765666 1.601972 17
nan nan nan 0
nan nan nan 0
-12.53511 3.680836 0.0750182 36
-11.36482 4.531487 0 37
-10.34796 5.263699 -0.0605801 46
-10.33274 6.502964 -0.1423092 9
-12.54618 3.676997 0.3845729 31
-11.39592 4.525543 0.2837519 34
-10.38339 5.256777 0.1983994 39
nan nan nan 0
nan nan nan 0
-0.3434562 0.1040739 -0.08340581 9
-10.07194 2.964352 -1.45324 15
-12.47872 3.789599 -1.231324 8
nan nan nan 0
-11.95655 4.798666 -0.8981146 9
-10.88502 5.587112 -0.9212468 21
-9.37734 5.944412 -0.9037248 7
-12.45625 3.645948 -0.5264818 50
-11.33642 4.485922 -0.5666873 19
-10.33054 5.241273 -0.6050036 37
-9.490199 5.94916 -0.6494098 45
-12.47998 3.702469 -0.2265322 37
-11.35238 4.540303 -0.2829396 34
-10.31673 5.270458 -0.3366002 45
-9.445871 5.958072 -0.3847214 58
-7.291204 4.560452 -1.552591 14
-9.459786 6.013011 -1.25681 15
-9.547445 6.054815 0.4524859 43
-12.50985 3.742199 0.7574512 25
-11.17654 7.173946 1.076998 22
-12.49619 3.802178 1.598926 17
nan nan nan 0
nan nan nan 0
-12.48864 3.714606 0.07481661 39
-11.32574 4.561793 0 33
-10.31173 5.290655 -0.06047538 45
-10.5379 6.683695 -0.1454664 21
-12.49972 3.710827 0.3835407 34
-11.35222 4.554132 0.2830556 37
-10.34272 5.281619 0.1979718 40
nan nan nan 0
nan nan nan 0
-0.3152075 0.09720826 -0.07582346 10
-10.06153 2.999492 -1.45324 15
-12.47494 3.836057 -1.232267 19
-12.49438 3.794498 -0.8350077 9
nan nan nan 0
-10.84774 5.615902 -0.9197403 18
-9.339741 5.966369 -0.9020966 7
-12.40991 3.67948 -0.5250589 50
-11.29287 4.514347 -0.5652899 23
-10.28552 5.263649 -0.6034335 38
-9.4525 5.971579 -0.6482481 39
-12.43347 3.735954 -0.2259214 36
-11.30865 4.568673 -0.2822433 31
-10.2805 5.297278 -0.3360173 44
-9.412368 5.98296 -0.3842031 49
-7.283562 4.591127 -1.554376 15
-9.413645 6.029903 -1.253455 12
-9.534669 6.093491 0.4528873 19
-12.46804 3.777173 0.7557086 21
nan nan nan 0
-12.45438 3.837019 1.59527 17
nan nan nan 0
nan nan nan 0
-12.44208 3.748096 0.07461503 40
-11.28196 4.589998 0 37
-10.27544 5.317423 -0.06037066 46
-10.49345 6.706967 -0.1451741 6
-12.45797 3.745814 0.3826559 32
-11.31309 4.584348 0.2824754 33
-10.30645 5.308529 0.1976297 39
-11.03749 7.025342 0.1593708 9
nan nan nan 0
nan nan nan 0
-10.051 3.034595 -1.45324 14
-12.45196 3.876624 -1.231324 18
-12.35227 3.798542 -0.8263664 9
nan nan nan 0
-10.8104 5.6445 -0.9182338 25
-9.302101 5.988136 -0.9004682 8
-12.36828 3.714167 -0.5238392 62
-11.24925 4.542523 -0.5638924 25
-10.24046 5.285775 -0.6018635 36
-9.418969 5.99649 -0.6473768 41
-12.38686 3.769159 -0.2253105 36
-11.26486 4.596792 -0.2815469 28
-10.24421 5.323909 -0.3354344 48
-9.378808 6.007687 -0.3836848 48
-7.275794 4.621806 -1.55616 14
-9.346634 6.033062 -1.247305 9
nan nan nan 0
-12.42614 3.8119 0.753966 22
nan nan nan 0
-12.39826 3.867188 1.589786 18
nan nan nan 0
nan nan nan 0
-12.40022 3.782762 0.07444225 37
-11.24274 4.619853 0 35
-10.23909 5.344002 -0.06026594 45
nan nan nan 0
-12.41135 3.779102 0.3816237 32
-11.26926 4.612453 0.281779 36
-10.26567 5.332947 0.1972021 39
nan nan nan 0
nan nan nan 0
-0.3191589 0.1007828 -0.07708719 9
-10.04035 3.069661 -1.45324 15
-12.3339 3.88719 -1.220953 17
-12.34847 3.844599 -0.8270065 8
nan nan nan 0
-10.77739 5.67523 -0.9171039 33
-9.276962 6.017856 -0.9000611 18
-12.32178 3.747157 -0.5224163 50
-11.2102 4.572334 -0.5627277 19
-10.19095 5.305345 -0.6000317 40
-9.381181 6.018543 -0.6462151 42
-12.34019 3.802084 -0.2246997 37
-11.22564 4.626565 -0.2809666 34
-10.20786 5.350352 -0.3348516 44
-9.345188 6.032252 -0.3831666 48
-7.263758 4.649829 -1.557053 14
-9.28388 6.038538 -1.241715 7
nan nan nan 0
-12.37939 3.844902 0.751933 18
nan nan nan 0
-12.34683 3.898504 1.584911 20
nan nan nan 0
nan nan nan 0
-12.3535 3.81571 0.07424066 38
-11.20345 4.64949 0 34
-10.20267 5.370392 -0.06016123 45
nan nan nan 0
-12.36465 3.81211 0.3805915 33
-11.22999 4.642219 0.2811988 35
-10.22485 5.357145 0.1967745 39
-10.54321 6.814364 0.1528958 5
nan nan nan 0
-0.3419696 0.1088592 -0.08340581 10
-10.02957 3.104689 -1.45324 15
-12.32025 3.93022 -1.220953 15
-12.2731 3.868207 -0.8228459 9
-11.75951 4.911333 -0.8883486 8
-10.73991 5.703459 -0.9155973 26
-9.247561 6.044744 -0.899247 4
-12.27997 3.781336 -0.5211967 61
-11.16646 4.600028 -0.5613303 22
-10.17679 5.343207 -0.6002934 36
-9.343353 6.040404 -0.6450533 44
-12.29343 3.83473 -0.2240889 36
-11.18173 4.654202 -0.2802703 36
-10.17145 5.376606 -0.3342687 44
-9.311512 6.056655 -0.3826483 50
-7.251615 4.677825 -1.557945 14
-9.43307 6.182663 -1.264637 9
-9.407637 6.151956 0.4498774 7
-12.33255 3.877625 0.7498999 21
nan nan nan 0
-12.29532 3.929507 1.580036 17
nan nan nan 0
nan nan nan 0
-12.31147 3.849868 0.07406788 38
-11.1641 4.678909 0 34
-10.1662 5.396593 -0.0600565 45
-10.27623 6.720642 -0.1431277 5
-12.31786 3.844838 0.3795593 32
-11.19065 4.671766 0.2806185 37
-10.18841 5.383458 0.1964325 41
-10.55287 6.872969 0.1533844 6
nan nan nan 0
-0.3462155 0.111461 -0.08466953 10
-10.01867 3.13968 -1.45324 15
-12.2733 3.96251 -1.217653 17
-12.25952 3.911024 -0.8228459 10
-11.72391 4.944601 -0.8869535 10
-10.70235 5.731494 -0.9140908 29
-9.222243 6.074244 -0.8988399 6
-12.23808 3.81527 -0.519977 49
-11.12728 4.629389 -0.5601656 21
-10.14925 5.374023 -0.5997701 35
-9.309668 6.064801 -0.6441821 42
-12.24659 3.867095 -0.223478 37
-11.14237 4.683524 -0.2796901 36
-10.13057 5.40032 -0.3335401 43
-9.28196 6.08364 -0.3823028 49
-7.235242 4.703109 -1.557945 14
-9.27051 6.122386 -1.245628 5
-9.361083 6.168252 0.4486734 6
-12.28565 3.910067 0.7478669 19
nan nan nan 0
-12.23902 3.958674 1.574552 21
nan nan nan 0
nan nan nan 0
-12.26458 3.882271 0.07386629 39
-11.12467 4.708111 0 33
-10.13408 5.424966 -0.05997797 45
-10.23184 6.742707 -0.1428354 5
-12.27101 3.877286 0.3785271 32
-11.15124 4.701094 0.2800382 33
-10.15191 5.409584 0.1960904 40
-10.48703 6.882313 0.1527736 6
nan nan nan 0
-0.3273322 0.1069693 -0.07961464 11
-10.00765 3.174633 -1.45324 15
-12.24046 3.999151 -1.215767 16
-12.1983 3.938483 -0.8196453 9
-11.69281 4.979633 -0.8859072 16
-10.65157 5.75223 -0.9114543 28
-9.649269 6.404239 -0.9428049 27
-12.19133 3.847455 -0.5185541 71
-11.08342 4.656599 -0.5587682 22
-10.11281 5.400008 -0.5987233 35
-9.271755 6.086297 -0.6430203 41
-12.19968 3.899182 -0.2228672 37
-11.10295 4.712627 -0.2791098 36
-10.09845 5.428547 -0.333103 45
-9.248161 6.107735 -0.3817846 48
-7.218781 4.728337 -1.557945 13
-9.203597 6.124408 -1.239478 7
nan nan nan 0
-12.23866 3.94223 0.7458339 26
nan nan nan 0
-12.1874 3.989038 1.569677 19
nan nan nan 0
nan nan nan 0
-12.22238 3.915918 0.07369351 37
-11.08518 4.737094 0 33
-10.10188 5.45318 -0.05989943 98
-8.984078 5.964737 -0.125646 7
-12.22407 3.909454 0.3774949 33
-11.11177 4.730206 0.279458 36
-10.11535 5.435519 0.1957483 39
-10.48378 6.932676 0.153079 7
nan nan nan 0
nan nan nan 0
-10.00123 3.211058 -1.453928 15
-12.20752 4.035612 -1.213882 12
-12.17025 3.976396 -0.8186852 12
-11.64328 5.00663 -0.8834657 17
-10.62705 5.78699 -0.9110777 32
-9.668267 6.465605 -0.9468758 14
-12.14451 3.879361 -0.5171311 79
-11.04411 4.685509 -0.5576036 23
-10.12028 5.449483 -0.6002934 38
-9.233806 6.107601 -0.6418586 44
-12.16221 3.93406 -0.2224309 38
-11.06805 4.743482 -0.2786456 33
-10.1058 5.47806 -0.3339773 44
-9.218467 6.134439 -0.3814391 49
-7.198129 4.750794 -1.557053 14
-9.186288 6.159267 -1.240037 13
-9.566857 6.400251 0.460713 9
-12.1916 3.974112 0.7438008 20
nan nan nan 0
-12.14041 4.020648 1.565412 23
nan nan nan 0
nan nan nan 0
-12.17534 3.947778 0.07349192 39
-11.04562 4.765859 0 35
-10.10474 5.500365 -0.06003033 49
-8.92997 5.973806 -0.1251783 30
-12.17706 3.941341 0.3764626 34
-11.07222 4.759098 0.2788777 35
-10.08753 5.466031 0.1955773 43
nan nan nan 0
nan nan nan 0
-0.3358034 0.1121661 -0.08214208 9
-9.994669 3.247477 -1.454616 14
-12.11782 4.052968 -1.206339 7
-12.12786 4.009468 -0.8167649 14
-11.61201 5.041286 -0.8824193 9
nan nan nan 0
-9.620849 6.482593 -0.9444332 12
-12.09761 3.910987 -0.5157082 78
-11.00932 4.716168 -0.5566719 19
-10.09242 5.48001 -0.5997701 36
-9.199973 6.131485 -0.6409873 49
-12.11989 3.967171 -0.2219073 39
-11.02849 4.772166 -0.2780653 33
-10.09101 5.5157 -0.334123 40
-9.184551 6.158226 -0.3809208 47
-7.177406 4.773165 -1.55616 14
-9.160616 6.188512 -1.239478 35
-9.643851 6.500673 0.4655288 8
-12.14446 4.005713 0.7417678 21
nan nan nan 0
-12.09336 4.051978 1.561146 19
nan nan nan 0
nan nan nan 0
-12.12822 3.979357 0.07329033 39
-11.01058 4.796402 0 34
-10.08986 5.53801 -0.0600565 40
nan nan nan 0
-12.13473 3.974502 0.3755779 35
-11.03261 4.787772 0.2782974 37
-10.064 5.498811 0.1954918 43
nan nan nan 0
nan nan nan 0
-0.3169783 0.1074447 -0.07708719 9
-9.987978 3.28389 -1.455304 15
-12.07059 4.084088 -1.203039 9
-12.15639 4.066004 -0.8196453 7
-11.57607 5.073782 -0.8810242 7
-9.997588 5.534928 -0.8602322 5
-9.585797 6.507733 -0.943212 9
-12.05064 3.942332 -0.5142853 65
-10.96987 4.744659 -0.5555074 23
-10.13454 5.548786 -0.6034335 34
-9.166086 6.155207 -0.640116 41
-12.08224 4.001605 -0.221471 38
-10.98886 4.800632 -0.277485 33
-10.1067 5.570196 -0.3352887 42
-9.15472 6.184649 -0.3805753 52
-7.156616 4.795448 -1.555268 14
-9.114321 6.203664 -1.236124 21
-9.674811 6.570813 0.4681374 7
-12.10199 4.038613 0.7400252 18
nan nan nan 0
-12.05564 4.086212 1.5581 18
nan nan nan 0
nan nan nan 0
-12.08104 4.010655 0.07308875 40
-10.97088 4.824746 0 33
-10.10546 5.59257 -0.06026594 43
nan nan nan 0
-12.08756 4.005845 0.3745457 30
-10.98836 4.814222 0.2776011 35
-10.09291 5.560451 0.1964325 36
-9.135493 6.17876 0.1342648 21
nan nan nan 0
nan nan nan 0
-9.981153 3.320295 -1.455992 16
-12.11749 4.147127 -1.209167 7
-12.14212 4.108414 -0.8196453 7
-11.53548 5.104071 -0.8792803 8
-9.9695 5.564931 -0.8594789 6
nan nan nan 0
-12.00835 3.974966 -0.5130656 69
-10.93035 4.772932 -0.5543427 21
-10.04517 5.545506 -0.5992467 43
-9.132147 6.178769 -0.6392447 42
-12.03975 4.034237 -0.2209475 36
-10.95374 4.830894 -0.2770208 34
-10.02604 5.571444 -0.3332487 42
-9.120687 6.208126 -0.380057 47
-7.135757 4.817645 -1.554376 14
-9.072129 6.22138 -1.233328 7
-9.59411 6.565017 0.4653281 5
-12.05471 4.06967 0.7379922 23
nan nan nan 0
-12.01783 4.120231 1.555053 17
nan nan nan 0
nan nan nan 0
-12.03378 4.041673 0.07288717 40
-10.93113 4.852871 0 33
-10.03349 5.598567 -0.05995179 46
nan nan nan 0
-12.04507 4.038495 0.373661 35
-10.94863 4.842444 0.2770208 34
-10.13025 5.627216 0.1975442 34
-9.060177 6.173985 0.1334707 35
nan nan nan 0
-0.3162205 0.109655 -0.07708719 10
-9.974197 3.356693 -1.45668 15
-12.13587 4.200783 -1.212467 8
nan nan nan 0
-11.49482 5.134139 -0.8775364 13
-9.932635 5.589913 -0.8579723 6
nan nan nan 0
-11.97071 4.008937 -0.5120493 78
-10.89534 4.803001 -0.5534111 21
-10.0083 5.570819 -0.5982 36
-9.102277 6.20498 -0.6386638 41
-11.99245 4.06502 -0.2203366 40
-10.91397 4.858939 -0.2764406 34
-9.989096 5.596633 -0.3326659 45
-9.086602 6.231441 -0.3795388 48
-7.11483 4.839754 -1.553483 15
-9.029926 6.238878 -1.230533 11
-9.484788 6.538877 0.4611143 5
-12.01209 4.102057 0.7362496 22
nan nan nan 0
-11.96585 4.149165 1.550178 17
nan nan nan 0
nan nan nan 0
-11.98646 4.07241 0.07268558 38
-10.8913 4.880778 0 34
-9.996456 5.623747 -0.05984706 48
-9.067896 6.25125 -0.1283355 11
-12.0025 4.070896 0.3727762 34
-10.9134 4.872484 0.2765566 34
-10.07129 5.640551 0.1967745 37
-9.120976 6.262209 0.1346924 5
nan nan nan 0
-0.320428 0.1122795 -0.07835092 10
-9.971797 3.394675 -1.458057 15
-14.32489 5.01357 -1.433559 11
nan nan nan 0
-11.45864 5.166035 -0.8761413 15
-9.895719 5.614706 -0.8564658 5
nan nan nan 0
-11.93298 4.042694 -0.5110329 66
-10.85113 4.828825 -0.5520136 22
-9.971382 5.595944 -0.5971532 36
-9.068222 6.228231 -0.6377925 43
-11.94508 4.095521 -0.2197258 37
-10.87415 4.886765 -0.2758603 32
-9.952093 5.621632 -0.332083 45
-9.052464 6.254593 -0.3790205 45
-7.093837 4.861776 -1.552591 16
-8.98771 6.256156 -1.227738 8
-9.486516 6.589056 0.4623182 21
-11.96938 4.134197 0.7345069 20
-49.73368 34.97239 4.941951 6
-11.91851 4.179427 1.545913 20
nan nan nan 0
nan nan nan 0
-11.94379 4.104488 0.0725128 40
-10.85598 4.910527 0 34
-9.963719 5.651205 -0.05976853 47
-9.066545 6.297136 -0.1286278 15
-11.95985 4.103049 0.3718914 34
-10.87354 4.900283 0.2759763 34
-10.02977 5.663378 0.1963469 37
nan nan nan 0
nan nan nan 0
nan nan nan 0
-9.96457 3.431072 -1.458745 15
-14.3073 5.063543 -1.433559 13
-12.02778 4.210638 -0.8148446 7
-11.41783 5.195675 -0.8743973 17
-9.845769 5.63188 -0.8538294 7
-8.98373 6.283643 -0.8923266 7
-11.90934 4.081088 -0.5106263 62
-10.81142 4.856443 -0.550849 20
-9.934406 5.620879 -0.5961065 31
-9.034117 6.251321 -0.6369212 41
-11.89764 4.125741 -0.2191149 38
-10.83426 4.914372 -0.27528 34
-9.906354 5.641493 -0.3312087 8
-9.022378 6.280441 -0.378675 47
-7.072777 4.883711 -1.551699 16
-8.945485 6.273217 -1.224942 7
-9.561665 6.690921 0.467134 21
-11.9266 4.166089 0.7327643 21
-48.90378 34.64445 4.871421 6
-11.8711 4.209408 1.541647 18
nan nan nan 0
nan nan nan 0
-11.90105 4.136319 0.07234 40
-10.81603 4.938011 0 34
-9.926572 5.67602 -0.05966381 47
-9.044508 6.328745 -0.1286278 7
-11.91712 4.134954 0.3710067 33
-10.83817 4.929934 0.2755121 34
-9.975187 5.678562 0.1956628 37
nan nan nan 0
nan nan nan 0
-0.3150549 0.1129604 -0.07708719 10
-9.966566 3.470713 -1.460809 15
-14.27548 5.108427 -1.432145 12
-12.04594 4.264238 -0.817085 11
-11.37243 5.223012 -0.8723047 18
-9.791501 5.646283 -0.8508163 9
-8.937308 6.297727 -0.8898841 7
-11.83365 4.101394 -0.5079838 71
-10.76711 4.881783 -0.5494515 19
-9.901716 5.648098 -0.5953215 33
-8.999961 6.274247 -0.6360499 43
-11.85486 4.157332 -0.2185914 40
-10.79886 4.943841 -0.2748158 32
nan nan nan 0
-8.984041 6.300412 -0.377984 48
-7.051649 4.905557 -1.550807 15
-8.90325 6.290059 -1.222147 10
-9.730103 6.859643 0.476565 37
-11.88374 4.197732 0.7310218 22
-48.6203 34.69913 4.855207 28
-11.82363 4.23911 1.537382 19
nan nan nan 0
nan nan nan 0
-11.85823 4.167901 0.07216723 38
-10.77602 4.965278 0 33
-9.893703 5.703142 -0.05958527 45
nan nan nan 0
-11.87431 4.166612 0.370122 31
-10.80272 4.959396 0.2750479 37
-9.946634 5.70837 0.1954918 38
nan nan nan 0
nan nan nan 0
-0.3192347 0.1156288 -0.07835092 10
-9.963735 3.508767 -1.462185 14
-14.26692 5.16161 -1.433087 13
-12.39747 4.437266 -0.8420488 12
-11.3315 5.252193 -0.8705607 19
-9.78466 5.687945 -0.8519462 8
-8.939644 6.346207 -0.8923266 9
-11.78154 4.129472 -0.5063576 85
-10.72729 4.908949 -0.5482869 22
-9.868955 5.675158 -0.5945364 33
-8.969838 6.299883 -0.635469 43
-11.812 4.188676 -0.2180678 38
-10.75885 4.971026 -0.2742355 32
-9.836452 5.692985 -0.3301887 8
-8.961994 6.331733 -0.377984 47
-7.030455 4.927316 -1.549914 15
-8.885285 6.323982 -1.222706 36
-10.00334 7.104885 0.4912131 32
-11.84081 4.229127 0.7292791 21
-48.86707 35.1334 4.892093 10
-11.78543 4.27191 1.534335 21
nan nan nan 0
nan nan nan 0
-11.81534 4.199235 0.07199444 39
-10.73595 4.992326 0 37
-9.860768 5.730105 -0.05950673 46
nan nan nan 0
-11.83143 4.19802 0.3692372 33
-10.76266 4.986572 0.2744676 33
-9.896359 5.725526 0.1948932 36
nan nan nan 0
nan nan nan 0
-0.3188291 0.1167425 -0.07835092 10
-9.956093 3.545185 -1.462873 15
-14.23479 5.206254 -1.431673 14
-12.37722 4.478819 -0.8417287 9
-11.28599 5.27904 -0.868468 19
-9.751844 5.714502 -0.8508163 8
-8.921489 6.380275 -0.8927337 10
-11.72938 4.157238 -0.5047314 89
-10.68742 4.935898 -0.5471223 22
-9.836127 5.702058 -0.5937514 31
-8.939646 6.325385 -0.6348881 43
-11.76906 4.21977 -0.2175442 39
-10.71877 4.997993 -0.2736553 35
-9.816519 5.727286 -0.3301887 44
-8.931698 6.357179 -0.3776385 42
-7.013213 4.951828 -1.549914 16
-8.85912 6.352062 -1.222147 32
-10.1247 7.244484 0.4984369 27
-11.7978 4.260273 0.7275365 18
-48.65535 35.23945 4.883176 12
-11.74714 4.304496 1.531288 18
nan nan nan 0
nan nan nan 0
-11.76767 4.228631 0.07179286 42
-10.69582 5.019154 0 34
-9.836392 5.761963 -0.05948055 45
nan nan nan 0
-11.78847 4.229181 0.3683524 35
-10.72708 5.015644 0.2740034 35
nan nan nan 0
nan nan nan 0
nan nan nan 0
-0.3229846 0.119456 -0.07961464 11
-9.943657 3.579916 -1.462873 15
-14.21186 5.254187 -1.431202 13
-12.28183 4.492886 -0.8362879 10
-11.25396 5.312017 -0.8674217 18
-9.727545 5.745971 -0.8504397 7
-8.963833 6.458019 -0.899247 9
-11.69127 4.189739 -0.503715 99
-10.64749 4.962628 -0.5459577 19
-9.803231 5.728798 -0.5929664 35
-8.909386 6.350753 -0.6343073 43
-11.72606 4.250616 -0.2170207 39
-10.67865 5.02474 -0.273075 35
-9.779236 5.75138 -0.3296058 43
-8.897276 6.379577 -0.3771203 12
-6.995885 4.976277 -1.549914 16
-8.82884 6.377125 -1.221029 29
nan nan nan 0
-11.75003 4.289462 0.7255035 22
-48.54009 35.41495 4.883986 15
-11.70412 4.335145 1.527632 20
nan nan nan 0
nan nan nan 0
-11.72464 4.259451 0.07162006 41
-10.66016 5.047902 0 36
-9.794696 5.783548 -0.05934965 44
nan nan nan 0
-11.74545 4.260093 0.3674677 33
-10.6869 5.042397 0.2734231 34
-10.33448 6.075785 0.2043855 13
nan nan nan 0
nan nan nan 0
-0.3088876 0.115731 -0.07582346 9
-9.935755 3.616296 -1.463561 16
-14.17478 5.296801 -1.429316 12
-12.25671 4.532273 -0.8356478 9
-11.23084 5.349124 -0.8670729 22
-9.690293 5.769685 -0.8489331 8
-9.287957 6.741178 -0.9342561 11
-11.66248 4.225426 -0.5031052 73
-10.6075 4.989139 -0.5447931 19
-9.765967 5.752843 -0.5919196 30
-8.879057 6.375988 -0.6337264 44
-11.68298 4.281214 -0.2164971 37
-10.64298 5.053411 -0.2726108 33
-9.741905 5.775283 -0.329023 44
nan nan nan 0
-6.978471 5.000668 -1.549914 15
-8.786447 6.393277 -1.218233 9
-48.19559 35.0222 2.391253 13
-11.70688 4.320096 0.7237609 24
-48.21943 35.43953 4.864125 10
-11.66103 4.365545 1.523976 20
nan nan nan 0
nan nan nan 0
-11.68622 4.291744 0.07147607 43
-10.62443 5.076462 0 33
-9.761559 5.810029 -0.05927111 14
nan nan nan 0
-11.70234 4.290756 0.3665829 35
-10.64666 5.068931 0.2728429 34
-10.2745 6.088878 0.2036159 8
nan nan nan 0
nan nan nan 0
nan nan nan 0
-9.927718 3.652663 -1.464249 16
-14.23538 5.376118 -1.43733 11
-11.84814 4.42845 -0.8087637 15
nan nan nan 0
-9.657271 5.795777 -0.8478032 8
-9.155792 6.694091 -0.9232649 8
-11.6242 4.257528 -0.5020888 74
-10.57197 5.017573 -0.5438615 20
-9.732948 5.779247 -0.5911346 35
-8.84866 6.401087 -0.6331456 42
-11.63983 4.311563 -0.2159735 38
-10.60273 5.079736 -0.2720305 34
-9.713107 5.804124 -0.3287316 42
-8.836364 6.429766 -0.3764292 5
-6.960973 5.024997 -1.549914 16
-8.732029 6.400393 -1.213761 6
-48.11336 35.21973 2.393259 5
-11.65899 4.348737 0.7217278 22
-47.97127 35.5157 4.851559 12
-11.61786 4.395698 1.52032 22
nan nan nan 0
nan nan nan 0
-11.64304 4.322083 0.07130329 41
-10.58862 5.104835 0 32
nan nan nan 0
nan nan nan 0
-11.65917 4.32117 0.3656982 39
-10.61088 5.097408 0.2723787 35
-10.30898 6.158041 0.2047276 9
nan nan nan 0
nan nan nan 0
-0.3080721 0.1178846 -0.07582346 10
-9.919552 3.689019 -1.464937 15
-14.28164 5.450602 -1.44393 9
-12.01936 4.540233 -0.8215657 15
-11.08999 5.377362 -0.8590509 17
-9.619919 5.819127 -0.8462967 9
-9.056159 6.669822 -0.9155303 7
-11.59053 4.29115 -0.5012757 67
-10.53187 5.043663 -0.5426969 24
-9.695579 5.802927 -0.5900879 31
-8.818197 6.426051 -0.6325647 43
-11.59662 4.341662 -0.2154499 40
-10.56243 5.105842 -0.2714502 34
-9.679945 5.830256 -0.3282944 45
-8.813867 6.460572 -0.3764292 6
-6.943391 5.049264 -1.549914 16
-8.693651 6.419022 -1.211524 7
-49.38531 36.41647 2.462888 7
-11.60637 4.375339 0.7194043 24
-47.75912 35.61738 4.842641 12
-11.57463 4.425603 1.516664 22
nan nan nan 0
nan nan nan 0
-11.60448 4.353927 0.0711593 39
-10.55275 5.133019 0 36
-10.26408 6.206694 -0.06259595 46
nan nan nan 0
-11.61593 4.351336 0.3648134 34
-10.57053 5.123518 0.2717984 38
-10.40304 6.26363 0.2070366 28
nan nan nan 0
nan nan nan 0
nan nan nan 0
-9.911252 3.725363 -1.465626 14
nan nan nan 0
-12.16662 4.644376 -0.8327674 13
nan nan nan 0
-9.582521 5.842286 -0.8447902 8
nan nan nan 0
-11.55208 4.322837 -0.5002593 67
-10.49621 5.071706 -0.5417652 20
-9.658165 5.826416 -0.5890412 33
-8.79169 6.453839 -0.6322743 43
-11.55333 4.371513 -0.2149264 39
-10.52657 5.133919 -0.270986 35
-9.64672 5.856227 -0.3278573 43
nan nan nan 0
-6.925724 5.073471 -1.549914 16
-8.70706 6.476036 -1.216556 5
-49.23383 36.57076 2.461684 20
-11.55836 4.403401 0.7173713 22
-47.65044 35.79585 4.844263 13
-11.5267 4.453472 1.512398 18
nan nan nan 0
nan nan nan 0
-11.56115 4.383784 0.07098652 41
-10.51682 5.161016 0 34
nan nan nan 0
nan nan nan 0
-11.57262 4.381252 0.3639287 34
-10.53462 5.151605 0.2713342 34
-10.4965 6.36995 0.2093455 16
-9.889562 7.311263 0.1497804 18
nan nan nan 0
-0.3117779 0.1217132 -0.07708719 10
-9.902818 3.761693 -1.466314 16
nan nan nan 0
-12.1224 4.676054 -0.8308471 19
nan nan nan 0
-9.549329 5.867867 -0.8436602 8
-8.654232 6.467202 -0.8792999 9
-11.51355 4.35431 -0.499243 84
-10.46048 5.099563 -0.5408335 19
-9.620704 5.849714 -0.5879945 37
-8.761085 6.478548 -0.6316934 41
-11.50998 4.401114 -0.2144028 38
-10.48616 5.159601 -0.2704057 36
-9.609167 5.879428 -0.3272744 42
nan nan nan 0
-6.911928 5.100539 -1.550807 17
-8.7162 6.530238 -1.221029 6
-81.30915 60.84228 4.077189 6
-11.49633 4.425807 0.714467 27
nan nan nan 0
-11.48797 4.484668 1.509352 20
nan nan nan 0
nan nan nan 0
-11.52243 4.415179 0.07084253 41
-10.48081 5.188825 0 34
-10.35256 6.359347 -0.06340753 78
nan nan nan 0
-11.52925 4.410918 0.3630439 34
-10.49416 5.177292 0.2707539 39
-10.7386 6.568317 0.2146476 14
-9.932125 7.396533 0.1508189 20
nan nan nan 0
-0.3249424 0.1278904 -0.08087836 9
-9.894251 3.79801 -1.467002 14
-13.34828 5.255515 -1.354833 7
-12.0688 4.70386 -0.8282867 17
-11.0688 5.510978 -0.8618411 34
-9.51607 5.893286 -0.8425303 8
-8.631604 6.497372 -0.8792999 17
-11.47495 4.385567 -0.4982266 84
-10.42021 5.125028 -0.539669 20
-9.583199 5.872823 -0.5869477 30
-8.738417 6.50909 -0.6316934 41
-11.47123 4.432266 -0.2139665 41
-10.45018 5.187286 -0.2699415 32
-9.575826 5.905063 -0.3268373 42
-8.725742 6.537524 -0.3755655 4
-6.905922 5.133447 -1.553483 17
-8.689387 6.557628 -1.22047 9
-80.86089 60.94829 4.065351 9
-11.48547 4.467718 0.7147574 24
-47.62528 36.29985 4.867367 13
-11.44454 4.513828 1.505696 20
nan nan nan 0
nan nan nan 0
-11.47897 4.444553 0.07066973 40
-10.44027 5.214211 0 36
-10.41106 6.445463 -0.06390494 255
-9.081626 6.839171 -0.1324867 19
-11.48581 4.440336 0.3621591 38
-10.45812 5.204985 0.2702897 35
-10.80496 6.660865 0.2164434 22
-9.942229 7.458175 0.1513686 22
nan nan nan 0
nan nan nan 0
-9.88555 3.834312 -1.46769 14
nan nan nan 0
-12.01516 4.731349 -0.8257263 21
-10.99155 5.520489 -0.857307 23
-9.482756 5.918547 -0.8414004 7
-8.596963 6.518423 -0.8780786 11
-11.4316 4.414809 -0.4970069 77
-10.38435 5.152493 -0.5387373 24
-9.549897 5.898365 -0.5861627 32
-8.711652 6.536556 -0.631403 37
-11.4324 4.463202 -0.2135302 38
-10.40965 5.212545 -0.2693613 35
-9.538177 5.927897 -0.3262544 48
-8.706855 6.570955 -0.3757382 6
-6.895834 5.163424 -1.555268 17
-8.62295 6.554822 -1.21432 8
nan nan nan 0
-11.44192 4.49684 0.7130148 20
-47.61686 36.55693 4.879528 10
-11.40566 4.544574 1.502649 25
nan nan nan 0
nan nan nan 0
-11.43544 4.473679 0.07049695 39
-10.40414 5.241627 0 36
-10.41819 6.500296 -0.0640882 255
-9.169189 6.955487 -0.1341237 26
-11.4423 4.469504 0.3612744 36
-10.42202 5.232491 0.2698255 33
-10.84958 6.740763 0.2178117 20
-37.89728 28.65481 0.5800021 120
nan nan nan 0
-0.3240417 0.1301558 -0.08087836 9
-9.876719 3.870601 -1.468378 15
nan nan nan 0
-11.9893 4.769576 -0.8250862 19
nan nan nan 0
-9.445157 5.94099 -0.8398939 9
-8.578116 6.55142 -0.8784857 11
-11.38819 4.443802 -0.4957873 66
-10.34844 5.17977 -0.5378057 19
-9.516533 5.923747 -0.5853776 33
-8.684802 6.563914 -0.6311125 45
-11.39349 4.49392 -0.2130939 40
-10.36909 5.237586 -0.268781 35
-9.504721 5.953195 -0.3258173 45
-8.679889 6.598281 -0.3755655 19
-6.889545 5.196358 -1.557945 17
-8.568469 6.560701 -1.209847 7
-79.60404 60.87698 4.023413 16
-11.41224 4.531232 0.7121435 21
-47.56386 36.78085 4.887229 11
-11.3667 4.575105 1.499602 22
nan nan nan 0
nan nan nan 0
-11.39185 4.502554 0.07032417 40
-10.36795 5.268855 0 35
-10.39544 6.536623 -0.0640882 250
-9.220308 7.045161 -0.1352346 27
-11.40338 4.500256 0.3605371 35
-10.38139 5.25755 0.2692452 33
nan nan nan 0
nan nan nan 0
nan nan nan 0
-0.3326102 0.1347739 -0.08340581 10
-9.867753 3.906874 -1.469066 14
-13.20025 5.357601 -1.345405 8
-11.9309 4.794669 -0.8222057 20
-10.36642 5.297571 -0.8112677 185
-9.40752 5.963243 -0.8383874 7
-8.555195 6.581323 -0.8784857 13
-11.34472 4.472546 -0.4945676 76
-10.31246 5.20686 -0.5368739 21
-9.47888 5.946313 -0.5843309 33
-8.657866 6.591163 -0.6308221 39
-11.35915 4.526269 -0.2127448 39
-10.33738 5.266942 -0.2684328 38
-9.471204 5.978331 -0.3253801 46
-8.708361 6.668058 -0.3778112 16
-6.887028 5.23229 -1.561514 31
-8.529784 6.578425 -1.207611 8
-79.19713 61.00508 4.01358 13
-11.36855 4.559905 0.7104009 23
-49.25541 38.36468 5.074903 11
-11.33227 4.607285 1.497165 18
nan nan nan 0
nan nan nan 0
-11.35284 4.533032 0.07018017 39
-10.32725 5.293612 0 34
nan nan nan 0
-9.346165 7.193249 -0.1374564 27
-11.36438 4.53079 0.3597998 36
-10.34517 5.284664 0.268781 38
-10.89527 6.875047 0.2196931 7
nan nan nan 0
nan nan nan 0
-0.3231252 0.1324148 -0.08087836 9
-9.877051 3.950479 -1.472506 14
-13.14922 5.390441 -1.342105 9
-11.90946 4.834411 -0.8218858 17
-10.33456 5.32687 -0.8102214 255
-9.369842 5.985307 -0.8368808 7
-8.536108 6.6142 -0.8788928 12
-11.29654 4.499194 -0.4931447 76
-10.27642 5.233762 -0.5359423 22
-9.445406 5.971358 -0.5835459 34
-8.634806 6.621345 -0.6308221 38
-11.31082 4.55284 -0.212134 38
-10.30559 5.296142 -0.2680847 36
-9.437629 6.003306 -0.324943 43
-8.605926 6.637341 -0.3743562 44
-6.860911 5.250313 -1.55973 43
-8.514614 6.614259 -1.208729 9
-49.40839 38.33193 2.510043 7
-11.3248 4.588326 0.7086583 19
-48.98788 38.43178 5.061122 12
-11.28857 4.635516 1.493509 22
nan nan nan 0
nan nan nan 0
-11.30912 4.561424 0.07000739 40
-10.29094 5.320447 0 35
nan nan nan 0
-9.534296 7.391341 -0.1406136 30
-11.32532 4.561107 0.3590625 34
-10.30444 5.309299 0.2682007 36
-11.02728 7.012314 0.2228572 9
-37.99863 29.36194 0.5862328 14
nan nan nan 0
nan nan nan 0
-9.881572 3.992343 -1.475259 13
-13.13493 5.43821 -1.342577 9
nan nan nan 0
-10.2805 5.344512 -0.8074312 255
-9.332126 6.00718 -0.8353743 8
-8.516895 6.647025 -0.8792999 12
-11.26222 4.531148 -0.4923316 69
-10.24476 5.262757 -0.5352436 24
-9.407661 5.993557 -0.5824992 26
-8.607691 6.648393 -0.6305316 44
-11.2717 4.582891 -0.2116977 41
-10.26929 5.322885 -0.2676204 35
-9.403995 6.028119 -0.3245059 42
-8.610317 6.688813 -0.3755655 46
-6.842542 5.27423 -1.55973 42
-8.487562 6.640877 -1.20817 12
nan nan nan 0
-11.28099 4.616499 0.7069157 23
-49.08411 38.78486 5.085037 11
-11.24939 4.665396 1.490462 20
nan nan nan 0
nan nan nan 0
-11.26998 4.591451 0.0698634 40
-10.25457 5.347092 0 34
nan nan nan 0
-9.673886 7.553885 -0.1430692 6
-11.28154 4.589324 0.3581778 35
-10.2681 5.336018 0.2677365 39
nan nan nan 0
-37.79728 29.41763 0.5847057 11
nan nan nan 0
-0.3087112 0.1292943 -0.07708719 9
-9.890509 4.036157 -1.478699 13
nan nan nan 0
nan nan nan 0
-10.32363 5.412781 -0.8123141 103
-9.290187 6.026148 -0.8334911 7
-8.477976 6.664386 -0.8776715 12
-11.22319 4.56104 -0.4913152 68
-10.20415 5.287001 -0.534079 22
-9.369877 6.015567 -0.5814524 31
-8.584432 6.678399 -0.6305316 41
-11.22788 4.610826 -0.2111741 38
-10.23735 5.351753 -0.2672723 35
-9.370301 6.052771 -0.3240687 42
-8.602651 6.731153 -0.3762565 47
-6.820205 5.295064 -1.558837 45
-8.460429 6.667387 -1.207611 23
nan nan nan 0
-11.24174 4.646326 0.7054635 23
nan nan nan 0
-11.20557 4.693145 1.486806 18
nan nan nan 0
nan nan nan 0
-11.23076 4.62126 0.06971941 40
-10.21371 5.371222 0 34
nan nan nan 0
-34.56578 27.20344 -0.5139267 34
-11.24234 4.61919 0.3574405 35
-10.2317 5.362549 0.2672723 38
nan nan nan 0
-38.95336 30.53657 0.6042529 7
nan nan nan 0
-0.3037704 0.1285643 -0.07582346 10
-9.899257 4.08008 -1.48214 13
nan nan nan 0
nan nan nan 0
-10.72359 5.670218 -0.8454484 19
-9.269095 6.05854 -0.8334911 17
-8.462472 6.70013 -0.8784857 8
-11.18409 4.590714 -0.4902989 60
-10.17235 5.31565 -0.5333802 22
-9.332055 6.037386 -0.5804058 29
-8.561067 6.708323 -0.6305316 44
-11.184 4.638512 -0.2106505 39
-10.20534 5.380465 -0.2669241 35
-9.340739 6.079988 -0.3237773 42
-8.579102 6.76114 -0.3762565 45
-6.805554 5.321871 -1.55973 43
-8.440994 6.699969 -1.20817 16
-47.869 37.94709 2.451852 11
-11.20242 4.675935 0.7040114 20
nan nan nan 0
-11.16169 4.720644 1.48315 23
nan nan nan 0
nan nan nan 0
-11.18685 4.648935 0.06954663 41
-10.17723 5.397474 0 36
nan nan nan 0
-33.86729 26.84557 -0.5049227 20
-11.19844 4.646925 0.3565557 39
-10.19524 5.388892 0.2668081 38
-10.5552 6.868322 0.2147331 11
-37.6106 29.69627 0.5850111 21
nan nan nan 0
-0.3033197 0.1296239 -0.07582346 10
-9.912394 4.126015 -1.486268 13
-14.36872 6.125513 -1.475514 14
nan nan nan 0
-10.70374 5.707615 -0.8454484 18
-9.227074 6.077143 -0.8316079 7
nan nan nan 0
-11.1403 4.618259 -0.4890792 74
-10.11838 5.332503 -0.5315168 23
-9.294195 6.059014 -0.579359 31
-8.545433 6.744355 -0.6311125 45
-11.14468 4.667877 -0.2102142 41
-10.16884 5.406672 -0.2664599 35
-9.306924 6.104331 -0.3233401 43
-8.571099 6.803481 -0.3769475 44
-6.786936 5.345595 -1.55973 45
-8.417556 6.729393 -1.20817 7
-47.80651 38.17006 2.455464 36
-11.16762 4.707263 0.7028496 22
nan nan nan 0
-11.11776 4.747894 1.479494 21
nan nan nan 0
nan nan nan 0
-11.1475 4.678293 0.06940264 40
-10.14069 5.423537 0 31
-10.43164 6.868402 -0.06518775 7
-35.40642 28.26773 -0.529362 26
-11.1591 4.676339 0.3558184 35
-10.16313 5.417395 0.2664599 37
-10.51026 6.891416 0.2143055 10
-37.24456 29.61885 0.5809184 18
nan nan nan 0
nan nan nan 0
-9.920764 4.170174 -1.489709 13
-14.3381 6.171699 -1.474571 14
-11.6672 4.975045 -0.8110041 23
-10.67935 5.742582 -0.8450996 18
-9.18919 6.098284 -0.8301014 8
nan nan nan 0
-11.09646 4.645555 -0.4878596 63
-10.10853 5.372477 -0.5319827 20
-9.256296 6.080452 -0.5783123 30
-8.52965 6.780359 -0.6316934 39
-11.1053 4.697024 -0.2097779 36
-10.11026 5.420882 -0.2654154 37
-9.273051 6.128512 -0.322903 41
-8.559003 6.842725 -0.3774658 42
-6.772088 5.372314 -1.560622 46
nan nan nan 0
-48.21022 38.76881 2.483155 8
-11.12815 4.736454 0.7013975 22
-75.32397 61.25045 7.893259 25
-11.07833 4.776859 1.476447 20
nan nan nan 0
nan nan nan 0
-11.10808 4.707432 0.06925865 41
-10.1217 5.458901 0 83
nan nan nan 0
nan nan nan 0
-11.11969 4.705535 0.3550811 35
-10.12214 5.441009 0.2658796 33
-10.49448 6.933575 0.2144765 8
-37.16045 29.76431 0.5812238 17
nan nan nan 0
-0.3202812 0.1391528 -0.08087836 10
-9.928945 4.214442 -1.493149 12
-14.30277 6.215763 -1.473157 13
-11.65434 5.017713 -0.8113241 17
-10.6417 5.770317 -0.8437045 17
nan nan nan 0
nan nan nan 0
-11.05256 4.672602 -0.4866399 63
-10.05889 5.391219 -0.5303522 22
-9.218362 6.101699 -0.5772656 31
-8.51372 6.816335 -0.6322743 39
-11.06584 4.725953 -0.2093416 40
-10.09567 5.458517 -0.2655315 38
-9.243284 6.155302 -0.3226116 42
-8.56619 6.897647 -0.3788478 38
-6.757135 5.398993 -1.561514 43
-8.401231 6.813047 -1.212642 5
-47.6204 38.56892 2.459677 16
-11.09321 4.767394 0.7002357 19
-75.11742 61.51933 7.894069 6
-11.03883 4.805606 1.4734 21
nan nan nan 0
nan nan nan 0
-11.06859 4.736354 0.06911466 38
-10.0894 5.487035 0 48
-8.974442 5.998891 -0.05631279 24
-34.10489 27.62046 -0.5127573 17
-11.08021 4.734514 0.3543438 33
-10.0943 5.471545 0.2656475 38
-10.47021 6.970165 0.2144765 6
-36.87346 29.74628 0.5783528 15
nan nan nan 0
-0.3153316 0.1384008 -0.07961464 10
-9.932386 4.256869 -1.495901 13
-14.35393 6.297625 -1.4807 7
-11.60014 5.042465 -0.8087637 17
nan nan nan 0
-9.510218 6.407506 -0.8632452 23
nan nan nan 0
-11.00861 4.699399 -0.4854203 51
-10.02683 5.419176 -0.5296535 25
-9.180392 6.122756 -0.5762189 25
-8.509295 6.861688 -0.6337264 36
-11.02632 4.754664 -0.2089053 39
-10.11606 5.515253 -0.266576 33
-9.205143 6.176389 -0.3220287 42
-8.569218 6.949553 -0.380057 36
-6.742079 5.425634 -1.562407 44
-8.381245 6.845476 -1.213202 5
-47.93839 39.10443 2.483155 11
-11.0536 4.796164 0.6987836 23
-74.51779 61.46404 7.853535 5
-10.99926 4.834135 1.470353 19
nan nan nan 0
nan nan nan 0
-11.02903 4.765057 0.06897067 37
-10.10965 5.543851 0 31
-8.945155 6.024593 -0.05626043 15
-33.61314 27.41696 -0.5067937 18
-11.04067 4.763273 0.3536065 36
-10.07514 5.506747 0.2656475 35
nan nan nan 0
-36.4978 29.65409 0.5740768 15
nan nan nan 0
-0.3014803 0.1338463 -0.07582346 10
-9.931105 4.297408 -1.497966 12
-11.71904 5.191482 -1.21011 14
-11.56419 5.074914 -0.8074836 16
-9.96775 5.495385 -0.7931311 8
-9.471295 6.42946 -0.8617386 22
-8.417416 6.906899 -0.8862203 5
-10.9646 4.725945 -0.4842006 63
-10.06049 5.482815 -0.5324485 19
-9.1341 6.138049 -0.5746487 31
-8.481418 6.8882 -0.633436 31
-10.99132 4.785151 -0.2085562 38
-10.14055 5.574605 -0.2677365 29
-9.171106 6.200083 -0.3215916 41
-8.575854 7.004727 -0.3814391 29
-6.726919 5.452235 -1.563299 45
-8.368804 6.884166 -1.214879 5
-74.54369 61.24555 3.87332 5
-11.01392 4.824715 0.6973314 19
-73.9348 61.41805 7.814621 16
-10.95964 4.862448 1.467307 18
nan nan nan 0
nan nan nan 0
-10.98942 4.793541 0.06882668 41
-10.14275 5.608131 0 31
nan nan nan 0
-33.47474 27.4992 -0.5061505 35
-11.00106 4.791815 0.3528692 35
-10.09964 5.566003 0.2668081 30
-9.269919 6.264719 0.1907028 5
-36.31668 29.71798 0.5728552 18
nan nan nan 0
-0.327704 0.1462998 -0.08340581 10
-9.934199 4.339969 -1.500718 13
-14.2778 6.383469 -1.4774 9
nan nan nan 0
-9.948507 5.530145 -0.7931311 6
-9.440565 6.456851 -0.8609853 22
-8.385575 6.929887 -0.8854062 5
-10.92513 4.754233 -0.4831842 88
-10.08944 5.544351 -0.5350106 26
-9.096084 6.158696 -0.5736021 32
nan nan nan 0
-10.95166 4.813441 -0.2081199 38
-10.07294 5.583318 -0.2664599 35
-9.128757 6.217987 -0.320863 43
-8.559067 7.040973 -0.3817846 16
-6.711655 5.478796 -1.564191 40
-8.379145 6.941882 -1.219911 6
-74.11005 61.32383 3.861882 13
-10.97418 4.853047 0.6958792 23
-73.55178 61.53504 7.796786 14
-10.91542 4.888515 1.463651 23
-73.88219 61.83344 17.55338 11
nan nan nan 0
-10.94973 4.821808 0.06868269 38
-10.0707 5.614294 0 34
nan nan nan 0
-33.33617 27.58082 -0.5055074 19
-10.96139 4.820138 0.3521319 36
-10.13258 5.630349 0.2682007 34
-9.214941 6.274525 0.1900187 9
-36.2436 29.87001 0.5733439 27
nan nan nan 0
nan nan nan 0
-9.932588 4.380608 -1.502782 14
-11.60083 5.236341 -1.201625 14
nan nan nan 0
-9.955252 5.579466 -0.7952237 8
-9.405653 6.481276 -0.8598555 19
-8.388135 6.981445 -0.8882557 6
-10.8856 4.782304 -0.4821679 74
-9.98701 5.533557 -0.5305852 22
-9.078654 6.193224 -0.5738637 27
nan nan nan 0
-10.91193 4.841513 -0.2076836 39
-10.01847 5.598942 -0.2655315 33
-9.111117 6.252643 -0.3210087 43
nan nan nan 0
-6.696288 5.505318 -1.565083 17
-8.389183 6.999755 -1.224942 6
-73.63074 61.36143 3.848037 11
-10.93438 4.881162 0.6944271 20
-73.16124 61.64369 7.778141 7
-10.87567 4.916377 1.460604 19
-73.41768 61.88171 17.4942 19
nan nan nan 0
-10.90998 4.849856 0.0685387 39
-10.02052 5.632268 0 32
nan nan nan 0
nan nan nan 0
-10.92165 4.848244 0.3513947 36
-10.07798 5.646144 0.2672723 35
nan nan nan 0
nan nan nan 0
nan nan nan 0
-0.3044976 0.1389273 -0.07708719 11
-9.935336 4.423299 -1.505535 13
-11.56889 5.270618 -1.200211 14
nan nan nan 0
-9.914001 5.601917 -0.7934799 7
-9.362497 6.499848 -0.8579723 19
-8.436246 7.071545 -0.8959904 6
-10.85056 4.81218 -0.4813548 59
-9.958912 5.563515 -0.5301194 23
-9.048752 6.219219 -0.5733404 30
nan nan nan 0
-10.87215 4.869367 -0.2072473 41
-9.990158 5.628973 -0.2652994 33
-9.081016 6.278723 -0.3207173 34
-8.628595 7.199857 -0.3871399 8
-6.67703 5.528658 -1.565083 17
-8.383709 7.044988 -1.227738 8
-73.19799 61.435 3.836599 6
-10.89452 4.909058 0.6929749 23
-73.00261 61.94706 7.784221 5
-10.83586 4.94402 1.457557 21
-73.03623 61.99753 17.45475 17
nan nan nan 0
-10.87018 4.877686 0.06839471 41
-9.987751 5.659819 0 36
nan nan nan 0
-32.71009 27.44966 -0.4989006 8
-10.88185 4.876129 0.3506573 36
-10.02338 5.661627 0.2663438 35
nan nan nan 0
-36.32568 30.36604 0.5779863 22
nan nan nan 0
-0.3128681 0.143883 -0.07961464 10
-9.933391 4.464037 -1.507599 12
-11.53232 5.302659 -1.198325 11
-11.40591 5.196609 -0.8014026 22
-9.881383 5.629085 -0.7924335 7
-9.327497 6.523915 -0.8568425 21
-8.449574 7.133114 -0.9000611 10
-10.79722 4.833713 -0.4797286 70
-9.913317 5.583541 -0.5287219 22
-9.022882 6.247924 -0.5730787 28
nan nan nan 0
-10.83231 4.897001 -0.206811 39
-9.953062 5.653938 -0.2648351 32
-9.054943 6.307526 -0.3205716 16
nan nan nan 0
-6.661467 5.555085 -1.565976 17
-8.404559 7.112751 -1.234447 7
nan nan nan 0
-10.85459 4.936734 0.6915227 22
nan nan nan 0
-10.796 4.971445 1.454511 17
-72.57635 62.04433 17.39647 16
nan nan nan 0
-10.83031 4.905296 0.06825072 39
-9.950567 5.684731 0 32
-9.051703 6.328807 -0.05762178 14
-32.90044 27.80575 -0.5032856 8
-10.84199 4.903798 0.3499201 35
-9.98184 5.684217 0.2657636 33
nan nan nan 0
-35.69553 30.05146 0.5696177 19
nan nan nan 0
-0.3079421 0.143012 -0.07835092 10
-9.92677 4.502771 -1.508975 13
-11.36923 5.275891 -1.18324 14
-11.36503 5.225979 -0.7998024 19
-9.853022 5.658575 -0.7917359 5
-9.288366 6.544944 -0.8553359 22
-8.417033 7.156107 -0.899247 37
-10.75751 4.861097 -0.4787122 63
-9.863361 5.600853 -0.5270914 20
-8.988734 6.270809 -0.5722936 30
-8.512614 7.163806 -0.6450533 6
-10.7924 4.924418 -0.2063747 39
-9.915912 5.678712 -0.2643709 30
nan nan nan 0
nan nan nan 0
-6.642036 5.578304 -1.565976 16
-8.428819 7.183968 -1.241715 9
-72.05215 61.33564 3.798875 6
-10.81461 4.964192 0.6900706 19
nan nan nan 0
-10.75607 4.998652 1.451464 18
-72.09841 62.07261 17.33371 14
nan nan nan 0
-10.79492 4.934764 0.06813554 40
-9.904663 5.704461 0 33
-9.021382 6.354604 -0.05756942 6
nan nan nan 0
-10.80207 4.931246 0.3491828 34
-9.953267 5.714049 0.2655315 36
nan nan nan 0
nan nan nan 0
nan nan nan 0
nan nan nan 0
-9.919999 4.541512 -1.510351 13
-11.40034 5.338746 -1.188425 12
-11.31956 5.253028 -0.7978821 22
nan nan nan 0
-9.253269 6.568666 -0.854206 19
-8.490379 7.269764 -0.9098312 33
-10.66773 4.865483 -0.4754598 86
-9.843751 5.635248 -0.5270914 19
