# .PCD v0.7 - Point Cloud Data file format
VERSION 0.7
FIELDS x y z intensity
SIZE 4 4 4 4
TYPE F F F F
COUNT 1 1 1 1
WIDTH 1615
HEIGHT 1
VIEWPOINT 0 0 0 1 0 0 0
POINTS 1615
DATA ascii
-0.2878145 -0.1890808 -0.07961464 9
nan nan nan 0
-4.810478 -3.157306 -0.5411791 9
-5.226937 -3.457189 -0.3994211 10
-5.580548 -3.007886 -0.4405121 17
-7.033838 -2.990737 -0.5743669 6
-14.74024 -4.738451 -1.261551 9
nan nan nan 0
-5.634746 -3.072499 -0.2974352 24
-7.039233 -3.032037 -0.399585 14
-19.38538 -6.338022 -1.184389 9
-6.532558 -4.350071 -0.1363033 8
-5.848353 -3.161427 -0.1534233 5
-7.242722 -3.095768 -0.2284801 23
-28.40982 -9.198275 -1.030991 9
-7.254548 -2.382307 -1.377702 13
-11.26184 -3.606438 -1.326136 11
-108.036 -34.67153 4.555561 8
-28.62928 -18.99307 1.996732 32
nan nan nan 0
-25.30081 -16.61317 3.711531 42
nan nan nan 0
-49.04464 -31.99 15.67926 10
-6.0496 -4.021783 0.04161279 9
-6.117446 -3.287684 0 18
-7.531782 -3.20367 -0.04264692 17
nan nan nan 0
nan nan nan 0
-57.11477 -30.81527 1.5058 5
nan nan nan 0
-72.30902 -23.36078 0.9279423 9
nan nan nan 0
-0.2844655 -0.185365 -0.07835092 9
nan nan nan 0
-4.829807 -3.145936 -0.5421219 10
-5.234805 -3.43618 -0.399101 9
nan nan nan 0
-7.108572 -2.993237 -0.5796398 6
-14.75194 -4.685462 -1.261144 9
nan nan nan 0
-5.6674 -3.064697 -0.2985997 19
-7.114079 -3.034862 -0.4032485 13
-19.44063 -6.281049 -1.186422 9
-6.572715 -4.343797 -0.1368269 5
-5.854949 -3.13863 -0.1533073 18
-7.119998 -3.013998 -0.2242544 34
-28.47983 -9.111224 -1.032373 9
-7.253459 -2.353939 -1.375917 14
-11.27437 -3.567104 -1.326136 12
nan nan nan 0
-28.54951 -18.79693 1.986567 17
-73.93726 -23.00656 6.294988 6
-25.34617 -16.51662 3.709702 36
nan nan nan 0
-49.28168 -31.89997 15.71937 8
-6.046917 -3.989614 0.04149759 9
-6.128886 -3.266311 0 16
-7.635083 -3.216158 -0.04317052 6
-40.51282 -12.84935 -0.4965619 12
nan nan nan 0
-57.32336 -30.66995 1.508469 6
-44.64785 -18.89858 0.8286594 19
-72.26151 -23.06718 0.926293 136
nan nan nan 0
-0.2931443 -0.189763 -0.08087836 9
-4.557683 -3.002055 -0.7527673 9
-4.849115 -3.13447 -0.5430647 9
-5.284374 -3.44243 -0.4019815 16
nan nan nan 0
-7.192614 -2.999088 -0.5856659 7
-14.7682 -4.63394 -1.261144 8
nan nan nan 0
-5.722073 -3.068512 -0.3009289 18
-7.184429 -3.035259 -0.4066504 13
-19.44818 -6.2086 -1.185551 9
nan nan nan 0
-5.887934 -3.129911 -0.1538876 16
-7.513082 -3.14941 -0.2363487 3
-28.54482 -9.022291 -1.033582 8
-7.25226 -2.325607 -1.374133 13
-11.28675 -3.527728 -1.326136 12
-110.7545 -34.69291 4.659903 7
-27.57875 -18.01987 1.914539 20
-74.16479 -22.7937 6.307554 4
-25.24116 -16.32292 3.685938 38
nan nan nan 0
-49.51463 -31.80607 15.7582 9
-6.044083 -3.957514 0.0413824 8
-6.126989 -3.237885 0 12
-7.724718 -3.222193 -0.04361558 4
-40.76735 -12.7736 -0.4991344 27
-28.52388 -18.72284 1.005522 38
-57.59786 -30.5587 1.512879 6
nan nan nan 0
-72.37975 -22.82683 0.9267817 171
nan nan nan 0
nan nan nan 0
-4.576419 -2.991556 -0.7541435 10
-4.868402 -3.122907 -0.5440075 10
-5.287982 -3.418538 -0.4013414 6
-5.695617 -2.993394 -0.447139 4
-7.272173 -3.002486 -0.5913154 7
-14.77953 -4.580887 -1.260737 9
nan nan nan 0
-5.750385 -3.057905 -0.3018606 13
-7.259473 -3.037127 -0.4103139 11
-19.45545 -6.136175 -1.184679 9
nan nan nan 0
-5.938616 -3.130328 -0.154932 16
nan nan nan 0
-28.61907 -8.935992 -1.035137 8
-7.250951 -2.297312 -1.372348 13
-11.30374 -3.489772 -1.326695 11
-59.09961 -18.28884 2.483155 15
-27.62892 -17.91534 1.913668 43
-74.61111 -22.6461 6.338765 9
-25.34393 -16.2642 3.692641 35
nan nan nan 0
-49.7516 -31.71352 15.79831 9
-6.04529 -3.928209 0.04129601 8
-6.155967 -3.225766 0 9
nan nan nan 0
-41.28455 -12.7775 -0.5049227 16
-28.8068 -18.76504 1.01319 6
-57.87228 -30.44591 1.51729 7
-72.5892 -30.12866 1.343728 7
-72.44467 -22.56958 0.9265985 111
nan nan nan 0
-0.2944619 -0.1877119 -0.08087836 9
-4.59929 -2.983661 -0.7562077 9
-4.88347 -3.108571 -0.544479 11
nan nan nan 0
nan nan nan 0
-7.356457 -3.00725 -0.5973416 7
-14.79066 -4.527812 -1.26033 9
-6.61449 -4.306878 -0.319548 5
nan nan nan 0
-7.334619 -3.038508 -0.4139774 17
-19.46245 -6.063775 -1.183808 10
nan nan nan 0
-5.971653 -3.121162 -0.1555123 11
-7.64584 -3.142456 -0.2398458 3
-28.69306 -8.849284 -1.036692 9
-7.25423 -2.270521 -1.371456 13
-11.32536 -3.453187 -1.327813 12
-59.11053 -18.06638 2.480947 49
-27.86337 -17.92956 1.925576 6
-74.83292 -22.42843 6.350925 4
-25.2959 -16.10898 3.677407 42
-3.975688 -1.196439 0.7495465 5
-49.98853 -31.61971 15.83843 10
-6.042164 -3.896232 0.04118082 8
-6.171626 -3.206564 0 10
-42.69069 -17.44978 -0.2412732 11
-41.94093 -12.82031 -0.5124065 16
nan nan nan 0
nan nan nan 0
nan nan nan 0
-59.46307 -18.2988 0.7596532 28
nan nan nan 0
-0.2870259 -0.1813751 -0.07835092 9
-4.609677 -2.967588 -0.7562077 9
-4.902703 -3.09683 -0.5454218 11
nan nan nan 0
-5.73853 -2.965012 -0.4488829 7
-7.436242 -3.009593 -0.6029911 7
-14.80161 -4.474715 -1.259923 9
nan nan nan 0
-6.373447 -3.332595 -0.3335373 7
-7.409861 -3.039401 -0.4176409 11
-19.47395 -5.992867 -1.183227 10
nan nan nan 0
nan nan nan 0
-7.666022 -3.119513 -0.2401372 20
-28.76202 -8.760715 -1.038074 9
-7.257411 -2.243736 -1.370563 15
-11.35162 -3.417923 -1.32949 11
-59.41717 -17.93353 2.491181 48
-27.87111 -17.79726 1.9218 31
-66.56695 -19.6987 5.643196 7
-25.36876 -16.03119 3.679845 25
nan nan nan 0
-50.2254 -31.52463 15.87855 10
-6.0431 -3.867022 0.04109442 8
-6.236113 -3.212493 0 9
-43.03406 -17.41505 -0.2428702 9
-42.32526 -12.77637 -0.5165577 17
nan nan nan 0
-58.37646 -30.19271 1.524949 9
nan nan nan 0
-59.47396 -18.07514 0.7589812 43
nan nan nan 0
-0.2836033 -0.1777324 -0.07708719 9
-4.649203 -2.970172 -0.7610243 8
-4.917698 -3.082344 -0.5458932 11
-5.302409 -3.349634 -0.3997411 5
-5.771037 -2.956339 -0.4506268 10
-7.520759 -3.013268 -0.6090173 10
-14.81236 -4.421597 -1.259516 9
-6.308108 -4.04462 -0.303286 33
-6.407208 -3.321828 -0.3347019 11
-7.485198 -3.039806 -0.4213044 10
-19.50908 -5.929204 -1.184098 10
nan nan nan 0
nan nan nan 0
-7.649047 -3.081535 -0.239263 19
-28.8355 -8.673209 -1.039629 9
-7.265198 -2.218389 -1.370563 14
-11.37777 -3.382519 -1.331167 11
-59.45547 -17.71889 2.490178 16
-27.87404 -17.66245 1.917734 40
-65.24324 -19.05968 5.52524 7
-25.4624 -15.96627 3.685329 23
-4.163378 -1.221022 0.7836168 18
-50.46221 -31.42828 15.91866 9
-6.043905 -3.837854 0.04100803 7
-6.300715 -3.218009 0 8
-43.08995 -17.26287 -0.242844 12
-42.96854 -12.80699 -0.5238661 15
nan nan nan 0
-58.6683 -30.08456 1.529823 9
-72.23298 -29.0979 1.331414 9
-59.46007 -17.84444 0.7580038 45
nan nan nan 0
nan nan nan 0
-4.676262 -2.964549 -0.7637767 7
-4.932653 -3.067792 -0.5463646 11
-5.326746 -3.339066 -0.4007013 5
-5.856913 -2.974592 -0.4565561 15
-7.591487 -3.010878 -0.6139135 7
-14.82292 -4.368458 -1.259109 9
-6.701358 -4.264226 -0.3215808 9
-6.440973 -3.310865 -0.3358665 10
-7.574526 -3.045306 -0.425753 12
-19.53922 -5.863936 -1.184679 9
nan nan nan 0
nan nan nan 0
-7.761897 -3.095524 -0.2424687 29
-28.8608 -8.571079 -1.039456 9
-7.277609 -2.194432 -1.371456 14
-11.40382 -3.346974 -1.332844 11
-59.43548 -17.48728 2.486767 30
-28.21016 -17.73779 1.936612 28
-63.40831 -18.28383 5.364319 10
-25.60224 -15.92974 3.697516 31
-4.158162 -1.203759 0.7818237 15
-50.70307 -31.3332 15.96008 6
-6.044581 -3.808727 0.04092164 7
-6.334211 -3.207296 0 8
nan nan nan 0
-43.30557 -12.74298 -0.5274326 13
-52.0919 -32.91176 1.816842 16
-58.96456 -29.977 1.534814 8
-73.15139 -29.17148 1.346465 17
-59.49803 -17.62968 0.7576984 43
nan nan nan 0
-0.3133433 -0.1940277 -0.08593326 9
-4.707529 -2.961414 -0.7672171 7
-4.951799 -3.055791 -0.5473074 11
-5.325665 -3.312535 -0.3997411 6
-5.858352 -2.949641 -0.4558585 17
-7.690138 -3.018956 -0.6210696 7
-14.82851 -4.31391 -1.258294 9
-6.682423 -4.219446 -0.3199546 10
-6.465838 -3.295169 -0.3365653 9
-7.650065 -3.044683 -0.4294165 9
-19.56915 -5.798529 -1.18526 8
nan nan nan 0
-6.679389 -3.37341 -0.1728044 4
-25.88575 -10.21431 -0.8101718 55
-28.89534 -8.47169 -1.039629 8
-7.289941 -2.170416 -1.372348 15
-11.43452 -3.312668 -1.335081 11
-59.44818 -17.26577 2.48476 48
-28.25073 -17.626 1.93516 45
-61.73176 -17.56739 5.217179 11
-28.52044 -17.60835 4.110653 32
-4.133949 -1.181166 0.7764441 14
-50.93976 -31.23429 16.00019 9
-6.045126 -3.779642 0.04083524 10
nan nan nan 0
-43.18615 -16.9525 -0.2427131 12
-43.90675 -12.75344 -0.5342147 10
-25.74676 -16.13801 0.8953707 4
-59.26525 -29.86999 1.53992 7
-73.34113 -28.95083 1.348089 10
-59.47283 -17.39662 0.7565989 44
nan nan nan 0
-0.2854489 -0.1747528 -0.07708719 9
-4.743029 -2.960723 -0.7713457 7
-4.966678 -3.04109 -0.5477788 12
-5.332951 -3.291301 -0.3994211 6
-5.899848 -2.944775 -0.4583 16
-7.761049 -3.015554 -0.6259657 6
-14.8339 -4.259375 -1.25748 9
-6.671721 -4.180161 -0.3187349 9
-6.495131 -3.281593 -0.3374969 6
-7.753566 -3.054544 -0.4346501 8
-19.60364 -5.734385 -1.186131 10
nan nan nan 0
-6.677715 -3.343357 -0.1724562 21
-25.78158 -10.06935 -0.8058004 36
-28.93434 -8.37355 -1.039974 9
-7.302194 -2.14634 -1.37324 14
-11.46513 -3.278189 -1.337317 11
-59.50808 -17.05815 2.48476 9
-28.47759 -17.62977 1.946487 28
-61.96544 -17.40028 5.231771 16
nan nan nan 0
-4.123838 -1.162743 0.7737544 13
-51.18051 -31.13663 16.0416 9
-6.045543 -3.7506 0.04074885 7
nan nan nan 0
-43.32429 -16.83242 -0.2431582 13
-44.32108 -12.70615 -0.5387167 12
-25.79445 -16.04276 0.8950757 28
-43.42372 -21.69545 1.126072 11
-54.4851 -21.28851 0.9999499 14
-59.50917 -17.18199 0.7562934 33
nan nan nan 0
-0.3024189 -0.1840868 -0.08214208 9
-4.757542 -2.946761 -0.7720337 9
-4.985767 -3.028911 -0.5487216 8
-5.335901 -3.267446 -0.398781 6
-5.98161 -2.959571 -0.4638805 15
-7.850646 -3.018847 -0.6323685 5
-14.83909 -4.204855 -1.256666 10
-6.677791 -4.151566 -0.3183284 8
nan nan nan 0
-7.861882 -3.065532 -0.4401454 9
-19.63313 -5.668688 -1.186712 9
-6.608086 -4.07478 -0.1348198 23
-6.680391 -3.31558 -0.1722241 18
-26.0823 -10.08199 -0.8141061 23
-28.973 -8.275243 -1.04032 9
-7.309641 -2.120838 -1.37324 14
-11.49085 -3.242189 -1.338994 11
-62.10079 -17.56676 2.590507 27
-28.58999 -17.56162 1.949972 28
-72.3085 -20.03166 6.099612 28
-28.77837 -17.49131 4.130152 22
-4.118391 -1.145717 0.7719612 14
-51.42532 -31.04016 16.08431 9
-6.050087 -3.724226 0.04069126 7
nan nan nan 0
-43.45279 -16.70801 -0.2435509 8
-44.44214 -12.57313 -0.5396522 12
nan nan nan 0
-43.48574 -21.53708 1.125723 14
-54.56374 -21.09999 1.000035 9
nan nan nan 0
nan nan nan 0
nan nan nan 0
-4.78045 -2.937928 -0.774098 8
-5.00057 -3.014063 -0.549193 8
-5.33875 -3.243611 -0.3981409 7
-6.063548 -2.973834 -0.4694611 16
-15.19168 -5.778965 -1.224814 5
-14.84887 -4.151691 -1.256259 9
-6.687991 -4.125605 -0.3181251 8
nan nan nan 0
-7.942416 -3.065022 -0.4440705 7
-19.6672 -5.604221 -1.187584 9
-6.643582 -4.064749 -0.1352561 23
nan nan nan 0
-26.38808 -10.09443 -0.8225575 28
-29.01133 -8.176767 -1.040665 9
-7.32173 -2.09666 -1.374133 16
-11.52125 -3.207381 -1.341231 10
-62.37829 -17.41031 2.599537 6
-28.46359 -17.34738 1.937193 24
-60.01343 -16.40121 5.057068 10
-28.93699 -17.44971 4.144167 35
-4.108129 -1.127448 0.7692714 15
-51.67423 -30.94484 16.12831 9
-6.050255 -3.695256 0.04060486 7
nan nan nan 0
-43.85666 -16.6878 -0.2454882 15
-44.40389 -12.39508 -0.5386583 13
nan nan nan 0
-43.62796 -21.4182 1.127464 4
nan nan nan 0
nan nan nan 0
nan nan nan 0
-0.2913716 -0.1743083 -0.07835092 9
-4.807579 -2.931552 -0.7768503 9
-5.032411 -3.009382 -0.5515501 9
-5.341497 -3.219797 -0.3975008 7
-6.150141 -2.989741 -0.4753903 15
nan nan nan 0
-14.86808 -4.101157 -1.256666 10
-6.706611 -4.104845 -0.3183284 5
nan nan nan 0
nan nan nan 0
-19.71548 -5.543635 -1.189326 8
-6.60647 -4.010367 -0.134209 24
nan nan nan 0
-26.31565 -9.961573 -0.8192061 26
-29.04932 -8.078125 -1.041011 10
-7.329004 -2.07109 -1.374133 21
-11.54675 -3.171085 -1.342908 10
-60.02545 -16.5282 2.499007 8
-28.47699 -17.2195 1.933998 39
-74.32805 -20.03332 6.258102 10
-28.63576 -17.13197 4.092372 39
-4.131039 -1.118216 0.7728578 17
-51.91895 -30.84569 16.17101 9
-6.054569 -3.668925 0.04054727 7
-6.627665 -3.211888 0 11
nan nan nan 0
-45.93156 -12.64868 -0.5566662 13
nan nan nan 0
-60.4496 -29.41583 1.559881 6
-56.60789 -21.43733 1.034755 6
nan nan nan 0
nan nan nan 0
-0.287861 -0.1707503 -0.07708719 9
-4.809313 -2.909618 -0.7754741 8
-5.059999 -3.001971 -0.5534357 9
-5.348424 -3.198567 -0.3971808 7
-6.209962 -2.992082 -0.4792269 14
-15.20829 -5.664069 -1.222931 49
-14.88711 -4.050539 -1.257073 8
nan nan nan 0
-7.388609 -3.604694 -0.3815182 8
nan nan nan 0
-19.73471 -5.474782 -1.189326 8
-6.658955 -4.010522 -0.1349944 22
-6.611245 -3.195387 -0.1695548 28
-26.47195 -9.915226 -0.8229947 28
-29.09662 -7.981959 -1.041702 9
-7.336189 -2.045494 -1.374133 45
-11.57213 -3.13465 -1.344585 10
-71.83741 -19.51003 2.988213 10
-28.7766 -17.26383 1.950263 39
-75.27894 -20.00794 6.33228 9
-28.67832 -17.02177 4.089935 34
-4.120654 -1.100003 0.7701681 12
-52.1636 -30.74521 16.21372 9
-6.05449 -3.640029 0.04046087 6
nan nan nan 0
nan nan nan 0
-46.21668 -12.55377 -0.5595896 9
-53.59576 -32.3117 1.845301 12
-60.75001 -29.30019 1.564988 7
-102.0316 -38.23108 1.863158 6
-74.25878 -20.32043 0.9401593 5
nan nan nan 0
-0.2925814 -0.1722699 -0.07835092 9
-4.844903 -2.90813 -0.7796027 8
-5.091886 -2.996934 -0.5557928 8
-5.355267 -3.177329 -0.3968607 6
-6.265373 -2.991891 -0.4827148 14
-15.1999 -5.600609 -1.220671 11
-14.90598 -3.999839 -1.25748 8
-7.423757 -4.47351 -0.3510556 10
nan nan nan 0
-20.32668 -7.597676 -1.135167 6
-19.82111 -5.424289 -1.193392 9
-6.625727 -3.959014 -0.1340345 18
-6.599821 -3.161487 -0.1689746 19
-26.81103 -9.935626 -0.8324661 37
-29.14361 -7.885561 -1.042393 10
-7.348029 -2.021175 -1.375025 45
-11.59261 -3.096797 -1.345703 11
-71.70238 -19.20488 2.979786 12
-28.9096 -17.20669 1.9552 33
-71.94961 -18.85468 6.046513 14
-28.88295 -17.0072 4.110653 43
-4.143503 -1.090595 0.7737544 9
-52.40818 -30.6434 16.25642 8
-6.058575 -3.613744 0.04040328 7
-6.740207 -3.208544 0 4
-44.79372 -16.50944 -0.2497555 5
-46.8784 -12.55789 -0.5670733 9
-53.82402 -32.1937 1.849283 6
-61.03682 -29.17635 1.569746 7
-102.0754 -37.84167 1.861533 8
-73.90449 -19.94648 0.9347838 10
nan nan nan 0
-0.2973158 -0.1737587 -0.07961464 9
-4.889046 -2.911505 -0.7851074 8
-5.123798 -2.991709 -0.5581499 9
-5.357729 -3.153547 -0.3962206 7
-6.316349 -2.989215 -0.4858538 14
-15.22404 -5.549224 -1.221048 9
-14.92467 -3.949056 -1.257887 9
-7.405037 -4.427039 -0.3494294 24
-6.566934 -3.147009 -0.3377298 8
-20.36245 -7.53014 -1.13569 9
-19.88811 -5.368062 -1.196297 8
nan nan nan 0
-6.547605 -3.108402 -0.1673498 36
-26.85963 -9.847137 -0.8329033 34
-29.19509 -7.790221 -1.043257 9
-7.35504 -1.995514 -1.375025 45
-11.61296 -3.05884 -1.346822 10
-71.91872 -18.99401 2.986006 14
-29.04685 -17.15137 1.960428 29
-71.96673 -18.59095 6.042459 13
-28.96785 -16.9213 4.114309 40
nan nan nan 0
-52.64015 -30.53298 16.29525 9
-6.062551 -3.587474 0.04034568 8
nan nan nan 0
nan nan nan 0
-47.55038 -12.5601 -0.5746741 16
-54.07359 -32.08725 1.854001 13
-38.83624 -18.39716 0.9967875 29
-102.0332 -37.42144 1.858369 14
-74.17658 -19.74238 0.9373494 10
nan nan nan 0
-0.3020642 -0.1752164 -0.08087836 10
-4.954577 -2.927223 -0.7940525 6
-5.160041 -2.988798 -0.5609783 9
-5.364398 -3.132306 -0.3959006 6
-6.367383 -2.98622 -0.4889928 14
-15.23394 -5.492667 -1.220294 10
-14.93836 -3.896935 -1.257887 9
nan nan nan 0
-6.564346 -3.117635 -0.3370311 4
-20.34641 -7.44358 -1.133335 9
-19.94532 -5.308868 -1.19862 9
nan nan nan 0
-6.599119 -3.104689 -0.1683943 3
-26.98311 -9.785688 -0.8356718 28
-29.24627 -7.694616 -1.04412 9
-7.36196 -1.969828 -1.375025 45
-11.63799 -3.022024 -1.348499 10
nan nan nan 0
-29.36493 -17.20129 1.977854 27
-73.59597 -18.7379 6.17379 9
-29.53767 -17.11625 4.186821 35
nan nan nan 0
-52.91385 -30.4454 16.34701 10
-6.070727 -3.563756 0.04031688 7
-6.884725 -3.218613 0 21
nan nan nan 0
-48.07293 -12.51872 -0.5804623 13
-54.28432 -31.95663 1.857393 8
nan nan nan 0
-102.1068 -37.04459 1.857343 12
-73.10375 -19.18392 0.9229333 10
nan nan nan 0
-0.3068263 -0.1766431 -0.08214208 9
-5.016007 -2.94001 -0.8023096 10
-5.192012 -2.983186 -0.5633354 9
-5.362353 -3.106047 -0.3949404 7
-6.418473 -2.982904 -0.4921319 16
-15.28119 -5.449502 -1.222554 10
-14.9567 -3.846006 -1.258294 9
nan nan nan 0
-6.57067 -3.092574 -0.3367982 3
-20.43331 -7.394597 -1.136737 9
-19.96373 -5.239214 -1.19862 8
nan nan nan 0
-6.646155 -3.098541 -0.1693227 4
-27.2288 -9.767365 -0.8422289 23
-29.30198 -7.600003 -1.045157 9
-7.368792 -1.944118 -1.375025 45
-11.66291 -2.985071 -1.350176 10
-73.9659 -18.98314 3.065467 12
-32.2557 -18.74432 2.168378 8
-73.65125 -18.47846 6.172979 14
nan nan nan 0
nan nan nan 0
-53.18338 -30.35389 16.39748 9
-6.07881 -3.540023 0.04028809 8
-6.977571 -3.232412 0 22
-46.33927 -16.52993 -0.2574 14
-48.40206 -12.42415 -0.5839119 11
-32.14894 -18.77228 1.097242 17
nan nan nan 0
-102.1649 -36.66262 1.85606 7
-72.93793 -18.86853 0.9200013 9
nan nan nan 0
-0.307441 -0.175571 -0.08214208 9
-5.06475 -2.944924 -0.8085024 10
-5.224007 -2.977387 -0.5656924 8
-5.377486 -3.0898 -0.3952605 7
-6.474146 -2.981356 -0.4956197 10
-15.29542 -5.39447 -1.222178 9
-14.97003 -3.793774 -1.258294 9
nan nan nan 0
-6.495433 -3.029484 -0.3323727 39
-20.4637 -7.324908 -1.136999 9
-20.00123 -5.174491 -1.199782 8
nan nan nan 0
-12.81858 -5.923711 -0.326924 4
-27.68195 -9.82096 -0.8551975 28
-29.36222 -7.506331 -1.046366 9
-7.380295 -1.919619 -1.375917 46
-11.6829 -2.946767 -1.351294 10
-73.43113 -18.57297 3.040585 12
-32.31228 -18.62663 2.167798 20
-73.59921 -18.19257 6.163251 13
-32.16963 -18.34312 4.54207 18
nan nan nan 0
-53.44871 -30.25849 16.44666 9
-6.086803 -3.516278 0.04025929 7
-7.029705 -3.226819 0 24
-46.83992 -16.52443 -0.2598609 14
-42.25538 -10.69002 -0.5092493 7
-32.20995 -18.65744 1.097095 7
-35.24537 -16.24622 0.9001145 29
-102.1273 -36.24726 1.853067 13
-72.91615 -18.59159 0.9189017 15
nan nan nan 0
-0.308052 -0.1744968 -0.08214208 10
-5.109301 -2.947054 -0.814007 9
-5.256023 -2.9714 -0.5680495 8
-5.396905 -3.075959 -0.3959006 9
-6.534423 -2.981526 -0.4994563 13
-15.35182 -5.354177 -1.225191 10
-14.98802 -3.742701 -1.258702 9
nan nan nan 0
nan nan nan 0
-20.50326 -7.25843 -1.137784 9
-20.03368 -5.108338 -1.200653 9
-7.283212 -4.181696 -0.1459021 22
-12.8619 -5.889338 -0.3275043 3
-28.05562 -9.843386 -0.865689 27
-29.41731 -7.41111 -1.047403 8
-7.386951 -1.893845 -1.375917 45
-11.70758 -2.909556 -1.352971 10
-73.21434 -18.24648 3.028947 12
-32.17346 -18.39724 2.154147 7
-73.56057 -17.9108 6.154739 11
-32.25938 -18.24538 4.545726 8
nan nan nan 0
-53.8193 -30.22073 16.52818 8
-6.094704 -3.49252 0.04023049 8
-7.109189 -3.233327 0 31
-47.41189 -16.54032 -0.2627145 13
-41.89463 -10.44334 -0.504455 7
nan nan nan 0
-35.41553 -16.17501 0.9030159 41
-102.1542 -35.85578 1.851271 10
-73 -18.34183 0.9191461 9
nan nan nan 0
-0.3044811 -0.1709819 -0.08087836 9
-5.196888 -2.973544 -0.8263926 9
-5.288061 -2.965226 -0.5704065 7
-5.407609 -3.057102 -0.3959006 9
-6.599325 -2.983367 -0.5036417 29
-15.3987 -5.310306 -1.22745 9
-15.00099 -3.69036 -1.258702 9
-6.420207 -3.686801 -0.2996271 7
-6.684423 -3.061051 -0.3409907 7
-20.54261 -7.191763 -1.138569 8
-20.06107 -5.040808 -1.201234 9
-7.32382 -4.171108 -0.1464257 25
-7.27908 -3.301455 -0.1846419 20
-28.29757 -9.817458 -0.8721004 17
-29.46726 -7.314395 -1.048266 9
-7.393517 -1.868049 -1.375917 44
-11.72732 -2.87103 -1.354089 10
-73.23878 -17.98128 3.027342 9
-32.14197 -18.23063 2.147758 8
-73.46755 -17.61674 6.141768 12
-32.25362 -18.0938 4.535976 16
nan nan nan 0
-53.87805 -30.00683 16.51395 8
-6.106857 -3.471225 0.04023049 7
-7.170571 -3.231098 0 11
-48.1169 -16.59807 -0.2663011 13
-41.83857 -10.27439 -0.5033441 7
-55.36779 -31.56195 1.879217 6
-35.15755 -15.90908 0.8950081 23
-54.40731 -18.88457 0.9844713 16
-73.23343 -18.12893 0.921284 10
nan nan nan 0
-0.3050761 -0.169918 -0.08087836 10
-5.267504 -2.989664 -0.8360258 10
-5.32012 -2.958866 -0.5727636 8
-5.422598 -3.040651 -0.3962206 9
-6.664318 -2.984791 -0.5078271 11
-15.45018 -5.26778 -1.230087 9
-15.01862 -3.639146 -1.259109 9
-6.459072 -3.679224 -0.3008467 19
-7.440899 -3.376337 -0.379189 15
-20.58175 -7.124913 -1.139354 9
-20.09308 -4.974345 -1.202105 9
-7.381846 -4.170135 -0.1472983 24
-7.327033 -3.292425 -0.1855703 19
-28.60587 -9.812661 -0.8805519 9
-29.5363 -7.222165 -1.049821 9
-7.399992 -1.842229 -1.375917 46
-11.7421 -2.831239 -1.354649 10
-77.46762 -18.73274 3.199507 7
-32.16626 -18.09629 2.145144 13
-72.6507 -17.15298 6.068401 12
-32.38163 -18.01731 4.545117 23
nan nan nan 0
-54.0966 -29.88163 16.54889 8
-6.114584 -3.447428 0.04020169 7
-7.241154 -3.232559 0 10
-48.48687 -16.53652 -0.268029 15
-48.68745 -11.77533 -0.5853151 16
-55.65164 -31.4669 1.885115 6
-35.81038 -16.05417 0.9102113 16
nan nan nan 0
-73.23313 -17.8578 0.92049 9
nan nan nan 0
-0.3056674 -0.168852 -0.08087836 9
-5.377116 -3.027228 -0.8518519 7
-5.347842 -2.949908 -0.5746492 8
-5.402668 -3.004701 -0.3939803 35
-6.729401 -2.985798 -0.5120125 11
-15.49682 -5.223369 -1.232347 9
-15.05548 -3.592474 -1.261144 8
-6.467528 -3.654194 -0.3006435 25
-7.434421 -3.342148 -0.3782574 12
-20.63011 -7.061108 -1.140662 8
-20.14428 -4.912446 -1.204138 10
-6.280279 -3.518029 -0.1249592 25
-7.288253 -3.244456 -0.1842937 16
-28.82928 -9.776943 -0.8863804 7
-29.62934 -7.135387 -1.05224 9
-7.406378 -1.816387 -1.375917 36
-11.75675 -2.79138 -1.355208 10
-75.30658 -17.93232 3.107605 12
-32.20308 -17.9693 2.143401 40
-72.69558 -16.89589 6.067185 5
-32.41391 -17.88738 4.540852 28
nan nan nan 0
-54.35305 -29.77617 16.59548 7
-6.126581 -3.426063 0.04020169 7
-7.311834 -3.233566 0 14
-49.15549 -16.57322 -0.2714062 12
-48.8693 -11.63889 -0.5870107 13
-55.89191 -31.3458 1.889539 7
-62.99258 -27.97816 1.59934 9
-71.47692 -24.25103 1.290451 5
-60.76696 -14.59434 0.7630739 15
nan nan nan 0
-0.3104583 -0.1701787 -0.08214208 9
-5.391971 -3.010858 -0.8525399 7
-5.406122 -2.957543 -0.5798347 7
-5.474263 -3.019617 -0.398461 38
-6.799137 -2.988394 -0.5165467 10
-15.55753 -5.183421 -1.235736 8
-15.07278 -3.541037 -1.261551 9
nan nan nan 0
nan nan nan 0
-20.66882 -6.993852 -1.141447 9
-20.14188 -4.837441 -1.202976 9
-6.248839 -3.471772 -0.1240866 37
-7.139471 -3.148365 -0.1802318 9
-29.10017 -9.755668 -0.8936661 9
-29.72215 -7.048048 -1.054658 9
-7.417456 -1.791674 -1.376809 15
-11.76642 -2.750324 -1.355208 4
-75.45141 -17.68872 3.111017 10
-32.4665 -17.96799 2.156761 30
nan nan nan 0
-32.50227 -17.78843 4.544508 18
nan nan nan 0
-54.55851 -29.6416 16.62654 8
-6.138503 -3.404656 0.04020169 7
-7.37345 -3.230104 0 13
-49.68266 -16.55802 -0.273998 11
-45.26368 -10.61375 -0.5432187 5
-55.704 -30.98528 1.879512 9
nan nan nan 0
-54.68739 -18.34241 0.9860106 47
-60.77375 -14.37178 0.7625241 32
nan nan nan 0
-0.3110504 -0.169094 -0.08214208 10
-5.363476 -2.970389 -0.8463472 9
-5.447025 -2.955296 -0.5831346 6
-5.506647 -3.012482 -0.4000612 26
-6.868973 -2.99054 -0.5210808 10
-15.57079 -5.127525 -1.23536 9
-15.0899 -3.489523 -1.261958 8
-6.095683 -3.387784 -0.2821455 8
-7.000659 -3.088451 -0.3549657 5
-20.74046 -6.937497 -1.144064 9
-20.14893 -4.764809 -1.202396 8
-6.335323 -3.491011 -0.1255701 9
-7.177898 -3.135437 -0.1809281 8
-29.43768 -9.754623 -0.9029918 9
-29.7855 -6.953335 -1.05604 9
-7.414091 -1.763502 -1.375025 14
-4.599124 -1.061568 -0.5266525 5
-62.46126 -14.41448 2.57305 10
nan nan nan 0
-3.810257 -0.8631245 0.3145467 37
-32.51619 -17.64881 4.537805 35
nan nan nan 0
-54.8062 -29.52888 16.67053 8
-6.150349 -3.383208 0.04020169 7
-7.467234 -3.240191 0 7
-50.25304 -16.55342 -0.2768254 10
-48.85192 -11.27496 -0.5858413 13
-55.69805 -30.72787 1.875678 28
-42.8042 -18.65413 1.083132 14
-54.83176 -18.17814 0.9874644 48
-60.79433 -14.15275 0.7621576 18
nan nan nan 0
-0.3285189 -0.1774682 -0.08719698 9
-5.352119 -2.939708 -0.8429067 7
-5.496742 -2.957524 -0.5873773 8
-5.560967 -3.017074 -0.4032617 16
-6.938906 -2.992233 -0.525615 9
-15.59808 -5.076226 -1.236113 9
nan nan nan 0
nan nan nan 0
-7.029702 -3.072 -0.3558974 12
-20.80248 -6.877593 -1.146157 7
-20.15086 -4.691056 -1.201524 9
-6.316775 -3.45207 -0.1249592 9
-7.225497 -3.126251 -0.1818566 17
-29.83728 -9.771558 -0.9142119 10
-29.85342 -6.859385 -1.057595 8
-7.415411 -1.736493 -1.374133 13
-4.588262 -1.042223 -0.5249752 3
-61.89732 -14.05701 2.547767 10
nan nan nan 0
nan nan nan 0
-32.63877 -17.56814 4.546336 16
nan nan nan 0
-55.05803 -29.41706 16.71583 9
-6.162122 -3.361719 0.04020169 8
-7.510652 -3.227933 0 6
-50.63857 -16.48469 -0.2786318 8
-48.89099 -11.10436 -0.5858413 6
nan nan nan 0
nan nan nan 0
nan nan nan 0
-60.77026 -13.92371 0.7612413 14
nan nan nan 0
-0.3079951 -0.1645678 -0.08087836 9
-5.353654 -2.916262 -0.8415305 11
-5.53776 -2.954747 -0.5906771 10
-5.593425 -3.009483 -0.4048619 21
-7.008933 -2.993475 -0.5301492 9
-15.6252 -5.0248 -1.236866 8
nan nan nan 0
-5.667871 -3.097957 -0.2612081 50
-7.072464 -3.061339 -0.3575278 10
-20.85484 -6.81424 -1.147727 8
-20.14278 -4.61512 -1.200072 12
nan nan nan 0
-7.181236 -3.07737 -0.1804639 30
-30.24686 -9.788898 -0.9257233 9
-29.90155 -6.760642 -1.058459 5
-7.416632 -1.709496 -1.37324 12
-3.961333 -0.886067 -0.452295 4
-62.50674 -13.96609 2.570843 4
-57.06832 -30.81189 3.771282 6
-3.976884 -0.8714813 0.3279231 16
-32.61672 -17.40969 4.534758 9
nan nan nan 0
-55.31401 -29.3061 16.76241 8
-6.173819 -3.340189 0.04020169 7
nan nan nan 0
-50.66724 -16.29864 -0.2784747 6
nan nan nan 0
-57.06647 -30.96527 1.914459 33
-72.48206 -30.98891 1.829243 6
nan nan nan 0
nan nan nan 0
nan nan nan 0
-0.291622 -0.1541487 -0.07582346 9
-5.416063 -2.92585 -0.8497875 8
-5.578825 -2.951719 -0.593977 17
nan nan nan 0
-7.083646 -2.996208 -0.5350321 9
-15.65215 -4.973246 -1.23762 8
-4.59797 -1.01666 -0.381437 11
-5.71377 -3.09723 -0.2628343 69
-7.170317 -3.074048 -0.3619532 9
-20.90226 -6.749071 -1.149036 9
-20.13928 -4.540394 -1.19891 6
-5.900549 -3.170879 -0.116233 5
-7.394376 -3.138257 -0.1855703 9
-30.63788 -9.797409 -0.9366519 10
-3.900847 -0.8725183 -0.1368205 17
nan nan nan 0
-3.925569 -0.8637458 -0.4478224 7
nan nan nan 0
-57.34274 -30.70205 3.782319 7
-3.936043 -0.8482075 0.324275 18
nan nan nan 0
nan nan nan 0
-55.59553 -29.20719 16.81677 7
-6.189844 -3.320984 0.04023049 7
nan nan nan 0
nan nan nan 0
nan nan nan 0
-57.24902 -30.80615 1.916966 116
-44.55761 -18.86562 1.122474 21
nan nan nan 0
nan nan nan 0
nan nan nan 0
-0.3006474 -0.1577717 -0.07835092 10
-5.44806 -2.918639 -0.853228 9
-5.624343 -2.950757 -0.5977483 11
nan nan nan 0
-7.163064 -3.000385 -0.5402638 9
-15.67417 -4.920071 -1.237996 8
-4.586878 -0.9974447 -0.3802158 15
-5.737742 -3.084374 -0.2634442 35
-7.199391 -3.056813 -0.3628849 11
-20.94947 -6.683653 -1.150344 10
nan nan nan 0
-5.871891 -3.129071 -0.1154477 20
-7.497441 -3.151184 -0.1878914 4
-31.06269 -9.813845 -0.9486005 8
-3.874579 -0.8524941 -0.135784 42
nan nan nan 0
-3.909129 -0.8458614 -0.445586 10
-3.895363 -0.8471232 0.1585206 50
-57.61709 -30.59066 3.793355 8
-3.92435 -0.8313852 0.3230589 17
-56.16612 -29.48188 7.783795 4
nan nan nan 0
-55.86847 -29.10221 16.86853 7
-6.201399 -3.299357 0.04023049 7
nan nan nan 0
nan nan nan 0
-3.873797 -0.8424007 -0.04589675 49
nan nan nan 0
nan nan nan 0
nan nan nan 0
-3.896611 -0.8550515 0.04825715 44
nan nan nan 0
nan nan nan 0
-5.506301 -2.925204 -0.8607969 9
-5.669922 -2.949512 -0.6015196 11
nan nan nan 0
-7.251809 -3.007866 -0.5461932 9
-15.69125 -4.865328 -1.237996 7
-4.595206 -0.9824635 -0.3806229 10
-5.79254 -3.087866 -0.2654769 44
-7.274468 -3.058782 -0.3661457 11
-20.99172 -6.616488 -1.151391 8
-3.900271 -0.8551788 -0.2300235 26
-5.935796 -3.136626 -0.1164948 10
-7.642214 -3.180725 -0.1912569 3
-31.47844 -9.824455 -0.9602576 8
-3.887302 -0.8410642 -0.1361295 52
-3.901662 -0.8589509 -0.7174042 5
-3.897474 -0.8291296 -0.4439088 10
-3.888523 -0.831445 0.1581193 78
-57.87369 -30.46842 3.80323 8
-3.917467 -0.8156638 0.3222483 17
-56.45357 -29.38189 7.809388 6
-3.934769 -0.8185173 0.7253387 40
-56.14135 -28.99568 16.9203 7
-6.217299 -3.280027 0.04025929 7
nan nan nan 0
-51.84278 -16.07966 -0.2839987 8
-3.871823 -0.8278348 -0.04583828 59
nan nan nan 0
nan nan nan 0
-72.23898 -22.55706 1.293872 25
-3.894684 -0.8403966 0.04819607 58
nan nan nan 0
-0.3060022 -0.1579602 -0.07961464 9
-5.560275 -2.929086 -0.8676778 14
-5.71556 -2.947986 -0.6052909 11
-5.657023 -2.942625 -0.4064622 40
-7.33608 -3.012868 -0.5517737 9
-15.70813 -4.810526 -1.237996 7
-4.583974 -0.9633601 -0.3794016 9
nan nan nan 0
-7.349646 -3.060265 -0.3694066 11
-21.0433 -6.552076 -1.152961 9
-3.88859 -0.8384228 -0.2291522 27
-5.995399 -3.14145 -0.1174547 9
-7.768799 -3.20167 -0.1941583 22
-31.77045 -9.794005 -0.9681261 8
-3.880436 -0.8254238 -0.135784 69
-3.890208 -0.8422225 -0.7147274 8
-3.871155 -0.809459 -0.4405543 9
-3.876729 -0.814804 0.1575173 88
-58.11685 -30.33784 3.812233 4
-3.910523 -0.8000007 0.3214376 39
-56.68367 -29.25065 7.827058 7
-3.92314 -0.8018428 0.7226489 49
-56.41847 -28.8898 16.97335 7
-6.22871 -3.258305 0.04025929 6
nan nan nan 0
-52.16154 -15.97914 -0.2854386 8
-3.864901 -0.8122715 -0.04572134 72
nan nan nan 0
-72.44536 -29.78381 1.817637 5
-59.39962 -18.3209 1.062634 29
-3.86824 -0.8206109 0.04782956 71
nan nan nan 0
-0.3065517 -0.1568911 -0.07961464 10
-5.614342 -2.932627 -0.8745587 7
-5.765686 -2.948446 -0.6095335 11
-5.689424 -2.934315 -0.4080624 99
-7.420473 -3.017318 -0.5573542 7
-15.72006 -4.754222 -1.23762 8
-4.587308 -0.9473532 -0.3794016 9
-6.402202 -3.356318 -0.2925124 6
-7.415689 -3.05745 -0.3722016 10
-21.09468 -6.487385 -1.154531 9
-3.896378 -0.8258723 -0.2294426 36
-6.015196 -3.125119 -0.1176292 5
-7.844716 -3.200986 -0.195783 22
-31.74707 -9.665584 -0.9663776 8
-3.868616 -0.808826 -0.1352658 82
-3.869058 -0.8235489 -0.7102659 9
-3.869089 -0.7949481 -0.4399952 8
-3.859974 -0.7972518 0.1567146 95
-58.36868 -30.21052 3.821818 6
-3.903517 -0.7843959 0.3206269 82
-56.96215 -29.14304 7.851432 8
-3.930739 -0.7891051 0.7235455 54
-56.69122 -28.78015 17.02512 8
-6.240046 -3.236543 0.04025929 8
-52.93518 -21.46048 0 7
-52.44671 -15.86645 -0.2866952 9
-3.853019 -0.7957621 -0.04554595 77
nan nan nan 0
nan nan nan 0
-59.4393 -18.10616 1.062206 51
-3.856394 -0.8040615 0.0476463 74
nan nan nan 0
nan nan nan 0
-5.668501 -2.935825 -0.8814396 8
-5.815884 -2.948591 -0.6137763 11
-5.717395 -2.923539 -0.4093426 95
-7.504985 -3.021215 -0.5629347 7
-15.73656 -4.69932 -1.23762 9
-4.566162 -0.9264097 -0.3773662 8
nan nan nan 0
-7.504918 -3.063655 -0.3761612 10
-21.12197 -6.415162 -1.154793 8
-3.874797 -0.8072096 -0.2279905 47
nan nan nan 0
-7.837306 -3.16609 -0.1953188 20
-31.79498 -9.559022 -0.9668148 8
-3.861623 -0.7933194 -0.1349203 81
-3.862275 -0.8080362 -0.7084813 9
-3.866968 -0.7804615 -0.4394361 9
-3.862733 -0.7837732 0.1567146 96
-58.54927 -30.04534 3.826755 13
-3.89645 -0.7688498 0.3198162 93
-57.19188 -29.00915 7.869103 8
-3.923815 -0.7734904 0.7217523 79
-56.96388 -28.66895 17.07688 8
-6.273529 -3.226192 0.04040328 8
nan nan nan 0
-52.81797 -15.77772 -0.2884231 9
-3.845972 -0.780333 -0.04542901 79
nan nan nan 0
-73.02242 -29.4268 1.826922 9
-59.47342 -17.88993 1.061693 58
-3.849378 -0.7886018 0.04752413 63
nan nan nan 0
-0.311924 -0.1569937 -0.08087836 10
-5.72275 -2.938681 -0.8883204 3
-5.861708 -2.946183 -0.6175475 11
-5.718668 -2.899044 -0.4087025 104
-7.584981 -3.022712 -0.5681664 7
-15.74808 -4.642951 -1.237243 8
nan nan nan 0
-6.452111 -3.325294 -0.2937321 13
-7.58502 -3.065529 -0.3796549 12
-21.1251 -6.335659 -1.153746 9
-3.858025 -0.7897019 -0.2268288 47
-11.53309 -5.895612 -0.2253978 3
-27.14034 -10.85888 -0.6777552 5
-31.89523 -9.467886 -0.9688547 9
-3.84967 -0.7768898 -0.134402 90
-3.845791 -0.7906126 -0.7049121 8
-3.864794 -0.7659994 -0.4388771 9
-3.845842 -0.7664069 0.155912 97
-58.86288 -29.94718 3.840405 11
-3.889322 -0.7533627 0.3190055 93
-57.44796 -28.88738 7.89043 9
-3.936152 -0.7616442 0.7235455 50
-57.24511 -28.5605 17.13123 7
-6.329278 -3.227019 0.04069126 9
-53.75748 -21.35812 0 11
nan nan nan 0
-3.838863 -0.7649629 -0.04531208 81
-58.87386 -30.10799 1.949849 6
-73.02255 -29.13097 1.824368 11
-59.50195 -17.67225 1.061094 56
-3.842303 -0.7732009 0.04740196 73
nan nan nan 0
-0.2995934 -0.1492093 -0.07708719 10
-5.777088 -2.941194 -0.8952013 4
-5.912038 -2.945715 -0.6217902 11
-5.71984 -2.874576 -0.4080624 113
-7.669718 -3.025517 -0.5737469 7
-15.75941 -4.586559 -1.236866 9
-3.990389 -0.7813551 -0.3289233 3
-6.49036 -3.316411 -0.2949518 10
-7.655952 -3.063167 -0.3826829 8
-21.12794 -6.25621 -1.152699 8
-3.841178 -0.7723211 -0.225667 44
-11.64277 -5.900554 -0.227143 4
-27.01077 -10.6978 -0.6735772 131
-31.99523 -9.376167 -0.9708947 10
-3.842552 -0.7615181 -0.1340565 91
-3.848527 -0.7771835 -0.7049121 9
-3.862565 -0.751562 -0.438318 8
-3.858302 -0.7548825 0.1563133 95
-59.20325 -29.86068 3.855798 10
-3.882133 -0.7379347 0.3181948 90
-57.73054 -28.77746 7.915413 10
-3.938787 -0.7478999 0.7235455 3
-57.52195 -28.44831 17.18429 8
-6.380648 -3.225237 0.04095043 9
-53.9108 -21.20145 0 12
nan nan nan 0
-3.831694 -0.7496517 -0.04519514 84
-59.10787 -29.96786 1.954126 7
-73.24003 -28.9218 1.82727 14
-59.49612 -17.44475 1.059897 58
-3.844978 -0.759784 0.04740196 71
nan nan nan 0
-0.3216123 -0.1592453 -0.08340581 9
-5.831512 -2.943363 -0.9020822 12
-5.962437 -2.944931 -0.6260329 10
-5.711981 -2.845677 -0.4067822 117
-7.745274 -3.024138 -0.5786299 6
-15.76574 -4.528769 -1.236113 9
-3.944141 -0.7580833 -0.3248525 6
nan nan nan 0
-7.754818 -3.071389 -0.3871082 9
-21.13527 -6.17822 -1.151914 8
-3.848749 -0.7598683 -0.2259575 51
-11.72136 -5.889078 -0.2282775 5
nan nan nan 0
-32.06618 -9.275534 -0.9720604 9
-3.840281 -0.7471529 -0.1338837 89
-3.84639 -0.7627944 -0.7040198 10
-3.860284 -0.7371495 -0.4377589 8
-3.870729 -0.7432805 0.1567146 96
-38.45395 -19.225 2.499182 31
-3.874885 -0.7225661 0.3173842 97
-58.04865 -28.68351 7.945271 7
nan nan nan 0
-57.80303 -28.33665 17.23864 8
-6.441019 -3.227623 0.04126721 9
-54.03574 -21.03309 0 10
nan nan nan 0
-3.824465 -0.7344002 -0.04507821 84
-59.41305 -29.86237 1.960762 7
-73.61057 -28.77152 1.834001 7
-59.50383 -17.22168 1.058957 61
-3.842697 -0.7454125 0.04734088 63
nan nan nan 0
-0.3092431 -0.1515172 -0.07961464 10
-5.886022 -2.945187 -0.9089631 15
-6.01737 -2.946022 -0.630747 10
-5.730824 -2.830148 -0.4074223 113
-7.876739 -3.043853 -0.5876983 4
-15.77665 -4.472349 -1.235736 9
-3.95656 -0.7461445 -0.3256666 8
nan nan nan 0
-7.863134 -3.082605 -0.3919995 9
-21.12313 -6.09472 -1.150083 10
-3.851378 -0.7464291 -0.2259575 53
-11.84922 -5.901663 -0.2303718 6
-27.69527 -10.74588 -0.6887803 15
-32.15122 -9.178635 -0.9736633 10
-3.833046 -0.7318826 -0.1335382 92
-3.85869 -0.7512307 -0.7058044 12
-3.857948 -0.722762 -0.4371998 8
-3.883122 -0.7316009 0.157116 96
-38.56555 -19.11283 2.502087 48
-3.87248 -0.7081465 0.3169788 95
-48.23678 -23.62505 6.590084 30
nan nan nan 0
-58.08837 -28.22548 17.29429 7
-6.497008 -3.227398 0.04155519 7
-54.13682 -20.85513 0 10
nan nan nan 0
-3.841748 -0.7238023 -0.04525361 88
-59.6869 -29.7395 1.966365 7
nan nan nan 0
nan nan nan 0
-3.855101 -0.733851 0.04746305 59
nan nan nan 0
-0.3270316 -0.1591826 -0.08466953 9
-5.940614 -2.946667 -0.9158439 11
-6.076859 -2.948942 -0.6359326 9
-5.745148 -2.812323 -0.4077424 105
-8.003777 -3.060905 -0.5964178 4
-15.78736 -4.415909 -1.23536 10
-3.934632 -0.727831 -0.3236312 9
-7.463555 -3.716548 -0.3376395 5
-7.939029 -3.080448 -0.3952603 8
-21.2067 -6.038721 -1.153484 49
-3.858865 -0.7339067 -0.2262479 48
-11.95042 -5.900136 -0.2319425 6
-27.29398 -10.48068 -0.6778712 10
-32.25042 -9.08532 -0.9757033 9
-3.830665 -0.7175851 -0.1333655 92
-3.924124 -0.7496752 -0.7174042 9
-3.85556 -0.7084 -0.4366408 8
-3.89548 -0.7198438 0.1575173 49
-38.64995 -18.98689 2.503248 44
-3.870022 -0.6937525 0.3165734 96
-48.52432 -23.55624 6.618114 15
nan nan nan 0
-58.37364 -28.11267 17.34993 8
-6.553073 -3.226822 0.04184316 7
-54.18126 -20.65534 0 10
-54.86685 -15.35195 -0.2981096 8
-3.854086 -0.7121909 -0.04537055 83
-59.95615 -29.61288 1.971821 7
nan nan nan 0
nan nan nan 0
-3.862555 -0.7213007 0.04752413 82
nan nan nan 0
nan nan nan 0
-5.999732 -2.94999 -0.9234129 10
-6.131958 -2.949322 -0.6406466 10
-5.768392 -2.798798 -0.4087025 90
-16.11681 -6.101056 -1.202253 7
-15.79307 -4.358122 -1.234606 11
-3.922435 -0.7114446 -0.32241 8
-7.436179 -3.670544 -0.33581 6
nan nan nan 0
-21.25649 -5.972761 -1.155055 88
-3.861403 -0.7204322 -0.2262479 49
-6.592574 -3.223551 -0.1274026 6
-27.40048 -10.41198 -0.679612 6
-32.29638 -8.976704 -0.9761404 9
-3.857726 -0.7086895 -0.1342292 84
-4.052472 -0.759371 -0.7406039 5
-3.858009 -0.6949372 -0.4366408 8
-3.883217 -0.7035901 0.1569153 96
-39.10641 -19.04203 2.528516 15
-3.86751 -0.6793842 0.3161681 61
nan nan nan 0
nan nan nan 0
-58.66319 -28.00029 17.40687 7
-6.609213 -3.225893 0.04213114 7
-54.21092 -20.4502 0 10
-55.20929 -15.24015 -0.2996804 8
-3.876233 -0.7022715 -0.04560441 76
-60.23421 -29.48914 1.977572 8
-101.9309 -38.61612 2.529744 16
nan nan nan 0
-3.884726 -0.7113894 0.04776847 47
nan nan nan 0
nan nan nan 0
-6.058943 -2.952935 -0.9309819 10
-6.191625 -2.951498 -0.6458322 9
-5.791611 -2.785144 -0.4096627 48
-16.12867 -6.041261 -1.201555 10
-15.80338 -4.301659 -1.23423 10
-3.924895 -0.6977485 -0.32241 9
-7.354739 -3.598392 -0.3315412 42
-22.41382 -8.521082 -1.116372 10
-21.28202 -5.899858 -1.155316 87
-3.863894 -0.7069491 -0.2262479 45
-6.576803 -3.187417 -0.126879 5
-27.55831 -10.36202 -0.6826295 5
-32.37572 -8.877126 -0.9775976 8
-3.874934 -0.6978558 -0.1347475 93
-4.084137 -0.7505188 -0.7459576 8
-3.855517 -0.6806092 -0.4360817 8
-3.875809 -0.6882975 0.156514 96
-42.58894 -20.55471 2.749246 15
-3.864946 -0.665042 0.3157628 84
-48.72342 -23.234 6.622989 11
-4.964694 -0.8517316 0.9109321 7
-58.95266 -27.88623 17.46381 7
-6.665426 -3.224611 0.04241912 9
-54.2164 -20.23637 0 10
nan nan nan 0
-3.868813 -0.6870019 -0.04548748 86
-60.53461 -29.37472 1.98406 8
-102.1447 -38.28991 2.531717 7
-60.10006 -16.48839 1.06537 6
-3.877341 -0.6960713 0.0476463 82
nan nan nan 0
-0.3113285 -0.1471847 -0.07961464 9
-6.118248 -2.955503 -0.9385508 9
-6.25138 -2.953293 -0.6510177 8
-5.814806 -2.771362 -0.4106228 16
-16.11225 -5.971055 -1.198765 10
-15.81348 -4.245176 -1.233853 10
-3.927306 -0.6840438 -0.32241 9
nan nan nan 0
-22.45745 -8.448069 -1.117071 9
nan nan nan 0
-3.866339 -0.6934572 -0.2262479 53
nan nan nan 0
nan nan nan 0
-32.43546 -8.771887 -0.9784719 8
-3.892113 -0.6869107 -0.1352658 67
-3.994717 -0.7198013 -0.7290041 9
-3.857869 -0.6671467 -0.4360817 8
-3.868342 -0.6730652 0.1561127 97
-38.55849 -18.44324 2.484661 31
-3.862328 -0.650726 0.3153574 96
-38.72257 -18.2982 5.253788 49
-4.996748 -0.8392523 0.9163116 9
-59.24205 -27.77048 17.52076 7
-6.721709 -3.222976 0.0427071 7
-54.21635 -20.02101 0 9
nan nan nan 0
-3.86626 -0.6726429 -0.04542901 87
-60.86196 -29.27156 1.991433 7
-102.1324 -37.87923 2.52812 7
nan nan nan 0
-3.869896 -0.6808134 0.04752413 91
nan nan nan 0
-0.3292222 -0.154601 -0.08466953 10
-6.177644 -2.957693 -0.9461198 8
-6.311224 -2.954707 -0.6562032 9
nan nan nan 0
-16.11894 -5.909624 -1.197719 42
-15.82338 -4.188676 -1.233477 11
-3.92967 -0.6703308 -0.32241 9
-6.560448 -3.152513 -0.2945452 7
-22.5102 -8.378338 -1.118235 9
nan nan nan 0
-3.873653 -0.6808142 -0.2265383 70
-6.481576 -3.085467 -0.1246102 36
-26.8935 -9.898258 -0.664409 28
-32.4707 -8.6599 -0.9786175 8
-3.879711 -0.6707869 -0.1347475 96
-3.842137 -0.6786774 -0.7004507 11
-3.855274 -0.6528536 -0.4355226 8
-3.860815 -0.6578934 0.1557114 96
-38.68126 -18.33634 2.488436 42
-3.859658 -0.6364364 0.3149521 95
-38.85361 -18.1945 5.262927 42
-4.999648 -0.8218052 0.9163116 10
-59.53573 -27.6551 17.57899 7
-6.782576 -3.223136 0.04302387 7
-54.20607 -19.80247 0 9
-56.56936 -14.97983 -0.3061992 10
-3.863655 -0.6583101 -0.04537055 83
-38.84468 -18.51341 1.268442 22
-102.1186 -37.46912 2.524522 8
-74.09592 -19.77256 1.311146 9
-3.862393 -0.6656161 0.04740196 89
nan nan nan 0
-0.3123485 -0.1450076 -0.07961464 9
-6.241601 -2.96163 -0.9543768 8
-6.375666 -2.957837 -0.6618601 8
-6.376106 -2.984981 -0.4490287 10
-16.17698 -5.86693 -1.200509 77
-15.84273 -4.134675 -1.233853 11
-3.931986 -0.6566095 -0.32241 9
nan nan nan 0
-22.46901 -8.273819 -1.114741 11
nan nan nan 0
-3.876006 -0.6672885 -0.2265383 37
nan nan nan 0
-26.84804 -9.775244 -0.662436 17
-32.51041 -8.549046 -0.9789091 9
-3.877101 -0.6564128 -0.1345747 96
-3.829937 -0.6627648 -0.6977738 8
-3.85753 -0.6393923 -0.4355226 8
-3.858159 -0.6435975 0.1555107 96
-39.59434 -18.60031 2.543038 20
-3.856935 -0.6221732 0.3145467 96
-38.89889 -18.05041 5.26049 50
-5.104492 -0.8206322 0.93514 12
-59.82493 -27.53598 17.63593 7
-6.861613 -3.231445 0.04345584 7
-54.23254 -19.59784 0 9
-57.07606 -14.90098 -0.3086601 10
-3.856064 -0.643188 -0.04525361 86
-39.08078 -18.45884 1.274045 5
-102.136 -37.0715 2.521737 10
-74.40622 -19.5774 1.315422 8
-3.859762 -0.6513045 0.04734088 86
nan nan nan 0
nan nan nan 0
-6.301181 -2.963046 -0.9619458 8
-6.435685 -2.95847 -0.6670456 9
-6.44531 -2.990048 -0.4531893 8
-16.21145 -5.815481 -1.201555 81
-15.85707 -4.079348 -1.233853 11
-3.934254 -0.6428803 -0.32241 10
-6.568748 -3.100229 -0.2939354 7
-22.53999 -8.210726 -1.116838 11
nan nan nan 0
-3.878311 -0.6537547 -0.2265383 53
-6.684045 -3.124969 -0.1281006 4
-27.01368 -9.728901 -0.6656856 16
-32.54005 -8.435511 -0.9789091 9
-3.869507 -0.641255 -0.1342292 95
-3.822523 -0.647761 -0.6959891 9
-3.854832 -0.6251346 -0.4349635 9
-3.85545 -0.6293283 0.15531 96
-39.07078 -18.18806 2.505281 17
-3.854159 -0.6079369 0.3141414 96
-38.94362 -17.90622 5.258053 32
-5.214249 -0.8194956 0.9548649 12
-60.11841 -27.41717 17.69416 7
-6.931731 -3.235005 0.04383021 7
-54.27708 -19.4 0 8
-57.38921 -14.76894 -0.3100738 9
-3.85335 -0.6289255 -0.04519514 88
nan nan nan 0
-102.1518 -36.67421 2.518951 8
-72.83848 -18.89333 1.286517 12
-3.857078 -0.6370195 0.04727979 91
nan nan nan 0
-0.3133532 -0.1428235 -0.07961464 10
-6.365334 -2.966177 -0.9702028 9
-6.500315 -2.960786 -0.6727026 8
-6.50556 -2.990493 -0.4567099 8
-16.25045 -5.765529 -1.20295 82
-15.87604 -4.025197 -1.23423 11
-3.941396 -0.6299229 -0.3228171 9
-6.547863 -3.06244 -0.2925124 26
-22.54032 -8.121836 -1.11544 13
nan nan nan 0
-3.875644 -0.6394071 -0.2262479 50
-7.062209 -3.272112 -0.1351689 3
-27.67844 -9.859348 -0.6812367 13
-32.59835 -8.329295 -0.9797833 10
-3.861854 -0.6261581 -0.1338837 96
-3.83447 -0.6360109 -0.6977738 8
-3.856991 -0.611675 -0.4349635 11
-3.852689 -0.6150858 0.1551094 98
-38.89835 -17.94282 2.490179 53
-3.851331 -0.5937276 0.3137361 96
-39.01492 -17.77429 5.259271 43
-5.280293 -0.810929 0.9665205 18
-60.4162 -27.29865 17.75369 7
-7.001957 -3.238115 0.04420458 6
-54.29733 -19.19375 0 7
-57.61489 -14.61277 -0.3110163 10
-3.850584 -0.6146897 -0.04513668 85
-62.20772 -28.85646 2.022104 5
-102.152 -36.27225 2.515818 9
-73.04444 -18.67487 1.288997 11
-3.849405 -0.6219704 0.04715762 84
nan nan nan 0
nan nan nan 0
-6.434079 -2.970975 -0.979148 8
-6.565037 -2.962687 -0.6783594 8
-6.552275 -2.984339 -0.4592702 7
-16.30342 -5.720332 -1.205392 50
-15.89483 -3.970962 -1.234606 9
-3.943571 -0.616161 -0.3228171 8
nan nan nan 0
-22.57794 -8.04646 -1.115906 13
-21.51704 -5.482447 -1.161597 8
-3.872923 -0.6250861 -0.2259575 56
-7.055421 -3.239084 -0.1348198 20
-28.04742 -9.880616 -0.6894766 13
-32.6563 -8.222775 -0.9806576 10
-3.85908 -0.6118982 -0.133711 93
-3.822095 -0.6202778 -0.6950969 10
-3.854192 -0.5974537 -0.4344045 7
-3.849875 -0.6008702 0.1549087 97
-38.75646 -17.71353 2.477109 48
-3.85338 -0.5802804 0.3137361 96
nan nan nan 0
-5.278226 -0.7917678 0.9656239 27
-60.70948 -27.1764 17.81193 6
-7.076833 -3.24286 0.04460775 6
-54.34512 -18.9975 0 7
-57.82562 -14.45157 -0.3118802 10
-3.847765 -0.6004809 -0.04507821 90
-62.37617 -28.67046 2.024316 4
-102.1554 -35.87239 2.5128 9
-73.25462 -18.45642 1.291563 9
-3.846613 -0.6077563 0.04709654 82
nan nan nan 0
nan nan nan 0
-6.502934 -2.975329 -0.9880931 8
-6.629852 -2.964172 -0.6840163 33
-6.599025 -2.977895 -0.4618306 36
-16.33271 -5.666658 -1.206089 9
-15.91344 -3.916646 -1.234983 10
-3.945698 -0.6023916 -0.3228171 8
nan nan nan 0
-22.65299 -7.984205 -1.118235 73
-21.57964 -5.418245 -1.163952 8
-3.87015 -0.6107919 -0.225667 58
-7.175863 -3.264192 -0.1369141 19
-28.22335 -9.831994 -0.6929582 12
-32.72847 -8.119562 -0.9819691 10
-3.856253 -0.5976654 -0.1335382 90
-3.824237 -0.6069324 -0.6950969 9
-3.856254 -0.5839964 -0.4344045 9
-3.84701 -0.5866817 0.1547081 98
-35.1306 -15.90776 2.241568 15
-3.850451 -0.5661083 0.3133307 96
-35.06998 -15.68175 4.712078 8
-5.315033 -0.7782913 0.9719001 11
-61.00705 -27.0544 17.87145 7
-7.133621 -3.23884 0.04489573 8
-54.38747 -18.79951 0 9
-58.19614 -14.32852 -0.3136081 10
-3.844894 -0.5862992 -0.04501974 91
-34.92295 -15.90176 1.13101 17
-102.195 -35.48606 2.510711 9
-73.55149 -18.25841 1.295667 10
-3.843769 -0.5935691 0.04703545 80
nan nan nan 0
-0.3060535 -0.1354653 -0.07708719 9
-6.580915 -2.983335 -0.9984143 8
-6.699306 -2.967259 -0.6901447 7
-6.641256 -2.969121 -0.464071 6
-16.33352 -5.603137 -1.204694 8
-15.93671 -3.863422 -1.235736 10
-3.942847 -0.5878869 -0.32241 8
-7.475072 -3.401996 -0.3325576 16
nan nan nan 0
-21.60811 -5.345283 -1.164475 9
-3.867324 -0.5965246 -0.2253766 58
-7.173545 -3.232952 -0.1366523 19
-30.61107 -10.54427 -0.750753 8
-32.81488 -8.019505 -0.9837177 10
-3.853374 -0.5834597 -0.1333655 93
-3.821469 -0.592832 -0.6942046 7
-3.858269 -0.570532 -0.4344045 7
-3.844091 -0.5725206 0.1545074 97
-41.69809 -18.70762 2.656888 10
-3.852403 -0.5526643 0.3133307 96
-47.26151 -20.93761 6.34208 14
-5.351809 -0.7645674 0.9781762 17
-61.30893 -26.93259 17.93228 7
-7.226934 -3.250897 0.04541409 7
-57.69368 -19.71728 0 6
-58.52277 -14.19245 -0.3151003 8
-3.841971 -0.572145 -0.04496127 89
-35.16957 -15.86611 1.137203 20
-102.1906 -35.08529 2.507578 8
-73.6682 -18.01462 1.296608 11
-3.845818 -0.5801483 0.04703545 95
nan nan nan 0
-0.3109207 -0.1364153 -0.07835092 10
-6.654516 -2.9888 -1.008048 7
-6.764306 -2.967895 -0.6958016 8
-6.719992 -2.97628 -0.4688717 8
-16.33881 -5.54128 -1.203648 7
-15.95494 -3.808926 -1.236113 10
-3.944875 -0.5741202 -0.32241 8
-7.432268 -3.351202 -0.3301183 13
-22.70818 -7.825864 -1.118235 11
-21.65575 -5.276914 -1.166045 8
-3.864446 -0.5822846 -0.2250862 53
-7.125461 -3.181355 -0.1355179 19
-30.80383 -10.49054 -0.7545829 17
-32.81837 -7.899063 -0.982989 10
-3.850443 -0.5692814 -0.1331927 96
-3.81865 -0.5787584 -0.6933123 7
-3.860237 -0.5570607 -0.4344045 8
-3.841122 -0.558387 0.1543067 97
-41.71296 -18.53965 2.653693 33
-3.849372 -0.5385303 0.3129254 97
-42.82193 -18.79172 5.737 30
-5.36419 -0.7472284 0.9799693 14
-61.60185 -26.80515 17.99051 6
-7.306721 -3.256227 0.04584606 4
-54.74476 -18.49619 0 11
nan nan nan 0
-3.838996 -0.5580183 -0.04490281 94
-62.90568 -28.11973 2.031837 5
nan nan nan 0
-73.8084 -17.77609 1.297976 9
-3.842872 -0.5659986 0.04697437 86
nan nan nan 0
-0.3202012 -0.1393368 -0.08087836 9
-6.72371 -2.99177 -1.016993 8
-6.829391 -2.968112 -0.7014586 7
-6.789722 -2.978909 -0.4730324 8
-16.37224 -5.488972 -1.204694 7
-15.9827 -3.75663 -1.237243 10
-3.946855 -0.5603465 -0.32241 9
-7.466721 -3.335442 -0.3311347 10
nan nan nan 0
-21.69831 -5.207113 -1.167354 8
-3.861516 -0.5680719 -0.2247957 60
-7.11824 -3.148361 -0.1351689 13
-30.50392 -10.26969 -0.746343 16
-32.88465 -7.793677 -0.9841548 9
-3.84746 -0.5551307 -0.13302 95
-3.820647 -0.5654253 -0.6933123 10
-3.857237 -0.542897 -0.4338454 9
-3.843047 -0.5449756 0.1543067 97
-41.74088 -18.37783 2.65137 25
-3.851229 -0.5250902 0.3129254 96
-42.71887 -18.56891 5.714453 27
-5.347266 -0.7258734 0.976383 16
-61.93897 -26.69511 18.06169 6
-7.395777 -3.265084 0.04633562 5
-54.77105 -18.29231 0 39
-59.2775 -13.93802 -0.3186346 9
-3.835969 -0.5439193 -0.04484434 94
-62.96689 -27.88379 2.030657 11
nan nan nan 0
nan nan nan 0
-3.839875 -0.5518765 0.04691328 93
nan nan nan 0
-0.3162755 -0.1362298 -0.07961464 10
-6.820186 -3.006299 -1.030066 8
-6.899129 -2.969881 -0.7075869 7
-6.859553 -2.981087 -0.477193 9
-16.41971 -5.441205 -1.206787 8
-15.99086 -3.699694 -1.236866 9
-3.94385 -0.5458897 -0.3220029 10
nan nan nan 0
-22.767 -7.668737 -1.118468 12
-21.69206 -5.125601 -1.166045 9
-3.863475 -0.5545893 -0.2247957 57
-7.0651 -3.095362 -0.1339472 20
-30.35935 -10.10317 -0.741933 16
-32.86785 -7.668622 -0.9828433 10
-3.849375 -0.5416973 -0.13302 94
