# .PCD v0.7 - Point Cloud Data file format
VERSION 0.7
FIELDS x y z intensity
SIZE 4 4 4 4
TYPE F F F F
COUNT 1 1 1 1
WIDTH 1573
HEIGHT 1
VIEWPOINT 0 0 0 1 0 0 0
POINTS 1573
DATA ascii
0.3483772 -9.330917 0.2158604 32
-1.634474 -30.60685 0.5236204 17
nan nan nan 0
nan nan nan 0
0.5852211 -4.276185 -1.117132 11
0.9071294 -6.998635 -0.9750195 25
1.097533 -9.072777 -0.861738 36
1.517621 -12.17526 -0.78444 14
0.3142021 -9.326951 -0.6497815 17
-0.5926901 -10.06887 -0.7589176 32
-1.391662 -9.239367 -0.7600245 36
2.148487 -16.34033 -0.6689774 17
0.361977 -9.387781 -0.4362538 10
-0.7440077 -13.72597 -0.718311 13
-1.81768 -12.48168 -0.7316025 15
3.190958 -24.95256 -0.4384044 30
0.326719 -9.361714 -0.2165567 27
-1.02019 -17.88826 -0.5212203 10
-2.460955 -16.56279 -0.577514 6
-0.8118758 -5.629236 -1.024353 22
-1.183136 -7.795806 -0.8827859 35
nan nan nan 0
6.120627 -48.69852 2.853512 18
-7.159021 -45.64914 3.755104 9
nan nan nan 0
-1.536795 -9.816943 1.803933 59
5.591643 -47.50082 12.80507 11
6.173276 -48.50249 0.2813831 7
0.3031023 -9.340011 0 14
-1.788131 -30.39696 -0.1592257 25
-3.73476 -24.70216 -0.2916929 23
19.54491 -152.8278 4.544684 7
0.315634 -9.32708 0.2157443 25
-1.74187 -30.61093 0.5237914 27
nan nan nan 0
nan nan nan 0
0.5689995 -4.268613 -1.114605 7
0.8820708 -6.996846 -0.9743314 28
1.06819 -9.096327 -0.8636237 37
1.473908 -12.17058 -0.7837999 14
0.283006 -9.37286 -0.6529205 7
-0.6240975 -10.00702 -0.7543979 32
-1.424667 -9.239377 -0.7604316 37
2.0908 -16.34277 -0.6687741 17
0.3276208 -9.344063 -0.4341575 16
-0.7919158 -13.72329 -0.718311 14
-1.862715 -12.48514 -0.7321835 17
3.077886 -24.75519 -0.4347394 29
0.2937228 -9.352805 -0.2163246 10
-1.082322 -17.8796 -0.5210745 9
-2.516495 -16.53928 -0.5769957 7
-0.8315206 -5.626368 -1.024353 21
-1.217236 -7.835812 -0.8878176 33
nan nan nan 0
5.943937 -48.66508 2.850317 24
-7.319113 -45.6288 3.75551 10
nan nan nan 0
-1.589786 -9.928078 1.825451 108
5.413735 -47.41449 12.7766 11
5.985497 -48.37488 0.2805191 7
nan nan nan 0
-1.903877 -30.54523 -0.1600372 31
-3.854656 -24.90636 -0.2942654 18
6.058228 -48.75325 1.448342 28
0.2849062 -9.388081 0.217137 19
-1.861686 -30.81924 0.5274686 21
nan nan nan 0
nan nan nan 0
0.5522091 -4.256184 -1.110814 10
0.8576419 -6.999882 -0.9743314 24
1.031337 -9.055491 -0.859381 39
1.430831 -12.1707 -0.7834799 13
nan nan nan 0
-0.65771 -9.984886 -0.7528914 32
-1.45769 -9.23927 -0.7608387 36
2.031885 -16.3351 -0.6681643 17
0.2940502 -9.315198 -0.43276 11
-0.8395085 -13.71546 -0.7180493 14
-1.90175 -12.44895 -0.7304409 22
2.957822 -24.48785 -0.4298528 32
nan nan nan 0
-1.144408 -17.87073 -0.5209288 9
-2.573442 -16.52545 -0.5768229 8
-0.8511552 -5.623431 -1.024353 19
-1.250064 -7.865861 -0.8917311 33
-7.270077 -45.88479 1.864322 25
5.795212 -48.86398 2.860772 15
-7.474307 -45.57838 3.753483 9
nan nan nan 0
-1.685039 -10.29136 1.893591 46
5.240751 -47.36589 12.75848 11
5.798088 -48.24159 0.2796264 9
nan nan nan 0
-2.006543 -30.47853 -0.1597231 33
-3.943921 -24.90756 -0.2944408 26
5.910195 -48.95768 1.453798 31
0.2526749 -9.409006 0.2176012 11
-1.972126 -30.85746 0.5282383 25
nan nan nan 0
nan nan nan 0
0.5361244 -4.248487 -1.108286 9
0.8326135 -6.997916 -0.9736432 28
1.001367 -9.073879 -0.8607953 38
1.387204 -12.1657 -0.7828397 14
0.265971 -11.44399 -0.7976652 16
-0.6925598 -9.982529 -0.7528914 31
-1.490728 -9.239043 -0.7612457 37
1.97365 -16.33217 -0.6677577 20
0.2623795 -9.346123 -0.4341575 10
-0.8870562 -13.70746 -0.7177876 14
-1.950605 -12.47676 -0.7324739 17
2.905571 -24.78104 -0.4348267 24
nan nan nan 0
-1.205769 -17.85167 -0.5204917 9
-2.629535 -16.5065 -0.5764774 9
-0.8707795 -5.620425 -1.024353 21
-1.280715 -7.881064 -0.8939674 34
-7.422205 -45.80982 1.862316 84
5.699997 -49.53848 2.89911 40
-7.629238 -45.52744 3.751456 11
5.968234 -54.10795 6.679049 7
-1.619152 -9.679034 1.781518 124
5.069203 -47.32628 12.74296 10
5.609363 -48.08772 0.2786185 8
nan nan nan 0
-2.154461 -31.06989 -0.1628647 28
-4.037242 -24.93313 -0.2949085 28
nan nan nan 0
nan nan nan 0
-2.076461 -30.80051 0.5273831 32
-7.202194 -44.99849 0.5563011 8
nan nan nan 0
0.5272455 -4.298342 -1.120924 8
0.8081812 -7.00078 -0.9736432 23
0.9712822 -9.092167 -0.8622094 35
1.344179 -12.16551 -0.7825197 13
0.2260224 -11.44485 -0.7976652 15
-0.7154084 -9.815957 -0.7404625 34
-1.525411 -9.248533 -0.762467 36
1.915461 -16.32904 -0.6673512 18
0.36058 -14.62462 -0.6803509 12
-0.9352393 -13.70926 -0.7180493 15
-1.964113 -12.28259 -0.7214375 21
nan nan nan 0
0.4461452 -21.20953 -0.4916046 21
-1.267011 -17.83239 -0.5200545 10
-2.685528 -16.48736 -0.5761319 9
-0.8896183 -5.612493 -1.023461 20
-1.307399 -7.871645 -0.8934084 34
nan nan nan 0
5.528148 -49.56799 2.89969 22
-7.784746 -45.48088 3.749835 11
5.791454 -54.24194 6.693064 7
-1.646277 -9.634539 1.774345 120
4.892516 -47.23319 12.71319 12
5.429657 -48.00267 0.2780137 8
nan nan nan 0
-2.281081 -31.31152 -0.1641736 33
-4.142234 -25.0274 -0.2961948 23
5.637748 -49.60854 1.471935 80
nan nan nan 0
-2.192103 -30.90777 0.52935 24
-7.341449 -44.86453 0.5549573 9
nan nan nan 0
0.5093449 -4.276141 -1.114605 9
0.7831844 -6.998637 -0.9729552 25
0.934396 -9.045991 -0.8574954 34
1.301172 -12.16517 -0.7821996 13
0.1860711 -11.44557 -0.7976652 17
nan nan nan 0
-1.559348 -9.252979 -0.7632812 33
1.857884 -16.33067 -0.667148 18
0.3096347 -14.63079 -0.6805838 15
-0.9838035 -13.71588 -0.7185726 13
-1.9989 -12.2264 -0.7185331 21
nan nan nan 0
0.3721956 -21.21596 -0.4917206 18
-1.328134 -17.81291 -0.5196174 10
-2.741419 -16.46803 -0.5757864 9
-0.9092042 -5.609354 -1.023461 22
-1.334034 -7.862135 -0.8928493 29
nan nan nan 0
nan nan nan 0
-7.938305 -45.42398 3.747403 11
5.632687 -54.55802 6.729625 7
-1.663782 -9.536674 1.75731 43
4.722798 -47.20193 12.70025 15
nan nan nan 0
nan nan nan 0
-2.394555 -31.35821 -0.1644616 38
-4.221224 -24.96349 -0.2956101 26
nan nan nan 0
nan nan nan 0
-2.309262 -31.02456 0.5314879 29
-7.49471 -44.8189 0.5547129 10
nan nan nan 0
0.04152547 -0.4051266 -0.09604306 38
0.7582124 -6.996405 -0.9722671 25
0.8953592 -8.974904 -0.8504242 41
1.258185 -12.16467 -0.7818796 13
0.1460531 -11.44116 -0.7973164 16
-0.7847149 -9.820662 -0.7412158 35
-1.596726 -9.276944 -0.7657236 33
1.796475 -16.29733 -0.6655217 21
0.258384 -14.62179 -0.680118 15
-1.032425 -13.72232 -0.719096 12
-2.024247 -12.11596 -0.7124339 21
nan nan nan 0
0.2985598 -21.24711 -0.492417 16
-1.388747 -17.78823 -0.5190345 10
-2.797207 -16.4485 -0.5754409 9
-0.9279703 -5.601294 -1.022569 20
-1.357211 -7.832955 -0.8900539 39
-7.905765 -45.7542 1.863319 5
5.146664 -49.26779 2.879941 12
-8.097692 -45.4009 3.747808 10
4.764476 -47.78733 5.891773 7
-1.706577 -9.584073 1.767172 50
4.563578 -47.27581 12.71578 16
4.673189 -44.07178 0.2550331 6
nan nan nan 0
nan nan nan 0
-4.331337 -25.08162 -0.2971888 26
nan nan nan 0
nan nan nan 0
-2.421042 -31.06117 0.5322576 26
-7.624156 -44.63477 0.5527582 10
nan nan nan 0
0.4794797 -4.279593 -1.114605 11
0.7337858 -6.999009 -0.9722671 30
0.867863 -9.017611 -0.8541955 37
1.215714 -12.16899 -0.7818796 14
0.1062091 -11.45157 -0.798014 16
-0.8206525 -9.837738 -0.7427223 29
-1.625638 -9.251684 -0.7640954 33
1.736386 -16.27369 -0.6643021 19
0.2071284 -14.60762 -0.6794193 15
-1.081104 -13.72859 -0.7196194 14
-2.100203 -12.30563 -0.7240514 22
nan nan nan 0
0.2244981 -21.25802 -0.4926491 14
-1.449203 -17.76335 -0.5184516 10
-2.852894 -16.4288 -0.5750954 10
-0.9483424 -5.60287 -1.023461 21
-1.381939 -7.813493 -0.8883767 33
-8.061955 -45.70665 1.862517 6
4.969637 -49.23579 2.877037 11
-8.24898 -45.33313 3.744565 11
4.560062 -47.41342 5.843635 18
-1.753252 -9.650645 1.780621 72
4.396736 -47.27222 12.7106 14
4.859303 -47.40036 0.2742124 11
nan nan nan 0
-2.669962 -32.01836 -0.1680221 17
-4.432766 -25.14512 -0.2981242 25
5.077431 -49.27211 1.460286 7
0.4595262 -48.06978 1.115162 37
-2.524577 -30.99274 0.5312313 30
-7.779914 -44.60788 0.5527582 9
nan nan nan 0
0.03605447 -0.381363 -0.08972443 43
0.7088471 -6.996601 -0.971579 24
0.8391547 -9.050323 -0.857024 36
1.17371 -12.17812 -0.7821996 13
0.06599822 -11.41197 -0.7952237 17
-0.851958 -9.800044 -0.7400859 29
-1.65704 -9.241049 -0.7636883 36
1.676483 -16.24984 -0.6630825 20
0.1562451 -14.61824 -0.679885 15
-1.128609 -13.71975 -0.7193577 14
-2.122527 -12.18021 -0.7170809 23
nan nan nan 0
0.1500778 -21.22869 -0.4919528 12
-1.509927 -17.74325 -0.5180146 9
-2.909349 -16.41382 -0.5749226 9
-0.9695793 -5.60922 -1.025246 23
-1.405661 -7.789065 -0.8861403 36
-8.199312 -45.5553 1.8575 7
4.790959 -49.18328 2.872971 12
-8.408993 -45.31386 3.745376 9
4.391321 -47.39446 5.839369 15
-1.795918 -9.692828 1.789587 42
4.220923 -47.16702 12.67825 13
4.683952 -47.31752 0.2736364 11
nan nan nan 0
-2.789508 -32.09851 -0.1684933 21
-4.522285 -25.13934 -0.2982412 24
4.89748 -49.20996 1.457927 8
0.2914232 -48.02111 1.114002 32
-2.670866 -31.43205 0.5389279 16
-7.925933 -44.52631 0.5520862 10
nan nan nan 0
0.4521488 -4.306889 -1.120924 10
0.6844201 -6.999033 -0.971579 28
0.8066679 -9.043282 -0.8560812 36
1.131193 -12.18215 -0.7821996 12
0.02611384 -11.39218 -0.7938287 17
-0.8843607 -9.777149 -0.7385793 30
-1.688387 -9.230306 -0.7632812 33
1.616271 -16.22079 -0.6616595 19
0.105217 -14.6187 -0.679885 15
-1.176066 -13.71075 -0.719096 14
-2.214099 -12.44792 -0.7333452 21
2.347148 -24.43338 -0.4277585 15
nan nan nan 0
-1.57097 -17.72791 -0.5177231 10
-2.964844 -16.39372 -0.5745772 9
-0.9882938 -5.600956 -1.024353 22
-1.43555 -7.79877 -0.8878176 35
-8.34835 -45.47235 1.855293 8
4.611307 -49.11523 2.868033 11
-7.462147 -39.44752 3.262206 42
4.226298 -47.41444 5.839979 15
-1.840731 -9.744495 1.800346 46
4.041756 -47.01305 12.63296 12
4.508288 -47.22409 0.2730029 8
nan nan nan 0
nan nan nan 0
nan nan nan 0
4.71946 -49.16208 1.45601 9
0.1235871 -47.94185 1.112145 38
nan nan nan 0
-8.066113 -44.41475 0.5510478 11
nan nan nan 0
0.4381017 -4.318065 -1.123451 10
0.6599848 -7.001379 -0.971579 26
0.7750961 -9.046041 -0.8560812 36
1.090001 -12.20093 -0.7831598 13
-0.01357933 -11.32237 -0.7889457 21
-0.9147441 -9.734291 -0.7355663 26
-1.720597 -9.224357 -0.7632812 35
1.556282 -16.19153 -0.6602366 22
0.05418755 -14.61898 -0.679885 15
-1.223918 -13.70656 -0.719096 13
-2.26647 -12.48922 -0.7362496 17
2.253071 -24.34684 -0.4261005 26
nan nan nan 0
-1.632383 -17.71734 -0.5175774 10
-3.021143 -16.37836 -0.5744044 10
nan nan nan 0
-1.464604 -7.803477 -0.8889357 34
-7.354427 -39.29001 1.603867 36
4.433537 -49.06143 2.863967 11
-8.355057 -43.33588 3.586481 13
4.048048 -47.28057 5.821699 21
-1.887792 -9.805627 1.812898 104
3.866498 -46.89211 12.59672 12
4.330125 -47.09515 0.2721677 10
nan nan nan 0
nan nan nan 0
nan nan nan 0
4.543216 -49.12849 1.454535 9
nan nan nan 0
-4.295873 -46.68083 0.8012084 57
-8.215634 -44.35683 0.5506814 9
nan nan nan 0
0.03492667 -0.4106036 -0.09730678 42
0.6355414 -7.00364 -0.971579 28
0.7443357 -9.058616 -0.857024 36
1.04569 -12.18478 -0.7818796 13
-0.05337331 -11.38211 -0.7931311 21
-0.9429002 -9.671494 -0.7310467 32
-1.752785 -9.218293 -0.7632812 37
1.497442 -16.17199 -0.6592203 23
0.00315572 -14.61408 -0.6796522 16
-1.271293 -13.69724 -0.7188343 15
-2.310962 -12.48614 -0.73654 22
2.164072 -24.30975 -0.4253151 29
nan nan nan 0
-1.693742 -17.70656 -0.5174317 10
-3.077371 -16.36281 -0.5742316 9
-1.023799 -5.574569 -1.020784 18
-1.493708 -7.808075 -0.8900539 35
-7.534631 -39.48983 1.613097 31
4.255335 -48.99704 2.85932 11
-8.493782 -43.24288 3.581212 32
3.874851 -47.19549 5.809511 12
-1.988476 -10.13683 1.87566 40
3.697081 -46.8331 12.57731 13
4.14939 -46.9257 0.2711022 9
nan nan nan 0
nan nan nan 0
nan nan nan 0
4.36416 -49.05943 1.452028 8
-0.1425377 -32.22593 0.7472715 25
-4.457366 -46.65062 0.8009518 59
-7.462575 -39.52326 0.4909402 43
nan nan nan 0
0.03118744 -0.3866449 -0.09098815 47
0.6110902 -7.005816 -0.971579 25
0.713497 -9.071082 -0.8579668 37
1.003563 -12.19333 -0.7821996 13
-0.09350441 -11.43173 -0.7966189 18
-0.9786626 -9.687984 -0.7325532 30
-1.785904 -9.217011 -0.7636883 33
1.441427 -16.18209 -0.6594235 22
-0.04784128 -14.60901 -0.6794193 15
-1.31718 -13.67284 -0.7177876 14
-2.327632 -12.33576 -0.7281174 21
nan nan nan 0
nan nan nan 0
-1.755539 -17.70054 -0.5174317 10
-3.134469 -16.35196 -0.5742316 9
-1.046891 -5.5903 -1.024353 24
-1.520955 -7.802814 -0.8900539 31
-8.430966 -43.36198 1.772621 20
nan nan nan 0
-9.023244 -45.10408 3.73808 10
3.701907 -47.10483 5.796715 12
-2.01805 -10.10089 1.87028 39
3.52776 -46.76866 12.55661 13
3.986834 -46.95485 0.2711886 9
-0.2940513 -31.58856 0 21
nan nan nan 0
nan nan nan 0
4.191605 -49.05942 1.451586 8
-0.2539664 -32.09028 0.744138 22
-4.618208 -46.61487 0.8006098 58
nan nan nan 0
nan nan nan 0
0.03117061 -0.4012031 -0.09477933 53
0.5862147 -7.002972 -0.9708909 28
0.6810771 -9.06359 -0.857024 41
nan nan nan 0
-0.1325462 -11.35652 -0.7913871 25
-1.014552 -9.704345 -0.7340598 31
-1.81613 -9.200945 -0.7628741 38
1.384077 -16.17707 -0.659017 17
-0.09880282 -14.60376 -0.6791863 15
-1.36639 -13.68306 -0.7185726 14
-2.329109 -12.1119 -0.7153383 25
nan nan nan 0
nan nan nan 0
-1.816804 -17.68933 -0.5172859 10
-3.190569 -16.33602 -0.5740589 9
-1.065472 -5.58178 -1.023461 22
-1.547211 -7.792584 -0.8894948 30
-8.578391 -43.31269 1.771819 31
0.7628908 -9.613128 0.5587945 27
-9.178641 -45.06254 3.737269 103
3.531876 -47.04323 5.787575 13
-2.054279 -10.0986 1.871176 34
3.358934 -46.70361 12.5359 12
0.7775743 -9.608008 0.05529172 25
-0.4010654 -31.33236 0 19
-3.351879 -32.0698 -0.1686242 16
nan nan nan 0
nan nan nan 0
-0.3641095 -31.92425 0.7403082 30
-4.776302 -46.55371 0.7998402 64
-8.513159 -43.41961 0.5401136 41
nan nan nan 0
0.03019748 -0.4061282 -0.09604306 61
0.5617661 -7.004975 -0.9708909 27
0.6483596 -9.051018 -0.8556098 39
0.7251509 -9.6476 -0.6180145 6
-0.1709892 -11.2762 -0.7858066 25
-1.041442 -9.636305 -0.7291635 28
-1.847251 -9.189664 -0.762467 37
nan nan nan 0
-0.1497789 -14.60333 -0.6791863 16
-1.418257 -13.71794 -0.7206661 13
-2.381954 -12.15758 -0.7185331 18
nan nan nan 0
-0.2905378 -20.93728 -0.4852216 9
-1.87854 -17.68288 -0.5172859 11
-3.246597 -16.31988 -0.5738861 10
-1.085893 -5.582856 -1.024353 21
-1.573415 -7.782267 -0.8889357 30
-9.11103 -45.17281 1.849273 101
0.7285693 -9.605777 0.5582137 23
nan nan nan 0
3.360902 -46.96123 5.775998 14
-2.061517 -9.956515 1.846072 41
3.191265 -46.6476 12.51778 15
nan nan nan 0
-0.5031294 -30.88083 0 20
-3.470252 -32.11755 -0.1689384 14
-4.97458 -24.67646 -0.2939146 7
0.7506566 -9.631179 0.2838584 32
-0.4753212 -31.90779 0.7399601 28
-4.934027 -46.49202 0.7990705 62
nan nan nan 0
nan nan nan 0
0.02836895 -0.4014109 -0.09477933 69
0.5373108 -7.006893 -0.9708909 26
0.6157382 -9.038327 -0.8541955 36
0.6921889 -9.660028 -0.6186547 5
-0.2111799 -11.32041 -0.7889457 27
-1.072857 -9.612793 -0.727657 32
-1.876312 -9.168514 -0.7612457 36
nan nan nan 0
-0.2006851 -14.59772 -0.6789534 16
-1.474636 -13.79234 -0.724853 11
-2.435146 -12.20303 -0.7217278 17
0.7186758 -9.631351 -0.1678921 13
-0.3627572 -20.88616 -0.4840611 8
-1.940253 -17.67622 -0.5172859 10
-3.303544 -16.30845 -0.5738861 9
-1.104414 -5.574206 -1.023461 23
-1.598561 -7.766995 -0.8878176 25
-9.268657 -45.14073 1.849273 95
0.6932197 -9.583371 0.5567615 21
-9.489923 -44.98273 3.736053 8
3.193244 -46.91821 5.769295 14
-2.115579 -10.0407 1.863107 25
3.023714 -46.58616 12.49837 13
0.7104794 -9.613202 0.05529172 15
-0.6138787 -31.02885 0 16
-3.591218 -32.18475 -0.1693572 13
-5.051631 -24.61487 -0.2933884 8
0.7159114 -9.618788 0.2834161 25
nan nan nan 0
-5.091923 -46.43476 0.7983864 65
nan nan nan 0
nan nan nan 0
0.02736146 -0.4063291 -0.09604306 85
0.5124837 -7.003787 -0.9702028 26
0.5815942 -9.000685 -0.8504242 39
0.653335 -9.587715 -0.6138539 7
-0.2512427 -11.34454 -0.7906896 31
-1.099549 -9.549552 -0.7231373 30
-1.909324 -9.166788 -0.7616528 40
0.7220035 -9.654637 -0.3923204 24
-0.2516394 -14.59693 -0.6789534 16
-1.512893 -13.69778 -0.7201427 13
-2.508604 -12.34608 -0.7307313 17
0.6832646 -9.608868 -0.1674558 9
-0.4349346 -20.84978 -0.4832487 8
-1.995185 -17.60975 -0.5155374 10
-3.360451 -16.29682 -0.5738861 9
-1.123865 -5.570317 -1.023461 22
-1.623619 -7.751643 -0.8866994 18
nan nan nan 0
0.6580352 -9.560833 0.5553093 18
-9.644792 -44.93959 3.735243 8
3.029449 -46.92907 5.769295 14
nan nan nan 0
2.856632 -46.52413 12.47896 13
0.6747947 -9.585701 0.05511894 13
-0.7246229 -31.13149 0 18
-3.66464 -31.83426 -0.167577 17
-5.120127 -24.51389 -0.2923944 9
0.6791229 -9.576362 0.2820889 26
-0.6753849 -30.86423 0.7158209 16
-5.253417 -46.41173 0.7983009 67
nan nan nan 0
nan nan nan 0
0.02631998 -0.411245 -0.09730678 97
0.4880327 -7.005533 -0.9702028 26
0.5517048 -9.027502 -0.8527813 38
0.6188898 -9.575 -0.6128938 7
-0.2890618 -11.27379 -0.7858066 28
-1.134054 -9.555559 -0.7238906 32
-1.944418 -9.174691 -0.7628741 37
0.6832852 -9.587338 -0.3894746 20
-0.3025907 -14.59596 -0.6789534 16
-1.567492 -13.75195 -0.7232829 11
-2.549658 -12.32748 -0.7301504 17
0.6493792 -9.606208 -0.1673686 8
-0.5031035 -20.65824 -0.4788387 9
-2.054901 -17.58778 -0.5151002 10
-3.417317 -16.28499 -0.5738861 10
-1.143302 -5.56636 -1.023461 19
-1.648589 -7.736211 -0.8855813 17
-9.572135 -45.02117 1.847066 7
0.6236731 -9.548131 0.5544381 24
-9.800538 -44.90078 3.734837 9
2.866526 -46.95422 5.771122 14
nan nan nan 0
2.69002 -46.46149 12.45955 14
0.6396474 -9.563054 0.05497495 14
-0.8199375 -30.62895 0 17
-3.772204 -31.79148 -0.1674199 17
-5.183817 -24.39317 -0.2911666 9
0.6446739 -9.563717 0.2816466 30
-0.7815992 -30.80171 0.7144282 16
-5.412493 -46.36828 0.7978732 69
nan nan nan 0
nan nan nan 0
0.02524449 -0.4161587 -0.0985705 105
0.4635759 -7.007195 -0.9702028 27
0.5196113 -9.019434 -0.8518385 39
0.5830053 -9.537259 -0.6103334 8
-0.3271125 -11.22784 -0.7826676 27
-1.166797 -9.546593 -0.723514 30
-1.980644 -9.18733 -0.7645024 35
0.650837 -9.604616 -0.3900844 17
-0.3536586 -14.59981 -0.6791863 15
-1.620153 -13.78606 -0.7253763 9
-2.582372 -12.26966 -0.727246 17
0.6142302 -9.583472 -0.1669323 9
-0.5735468 -20.5964 -0.477446 9
nan nan nan 0
-3.475186 -16.27785 -0.5740589 8
-1.162725 -5.562335 -1.023461 22
-1.673472 -7.720699 -0.8844631 17
-9.725002 -44.96795 1.846263 8
0.5887861 -9.525339 0.5529858 26
-9.951809 -44.84197 3.73281 11
2.702037 -46.95403 5.769904 15
nan nan nan 0
2.52388 -46.39826 12.44014 13
0.6046663 -9.54028 0.05483096 14
-0.9310742 -30.76584 0 19
nan nan nan 0
-5.257303 -24.32117 -0.2905235 8
0.6096781 -9.54097 0.2809093 27
-0.8876731 -30.74883 0.7132677 30
-5.572524 -46.33422 0.7976167 63
-9.30632 -43.43552 0.5422516 8
nan nan nan 0
0.02413503 -0.4210697 -0.09983423 110
0.4387999 -7.003828 -0.9695148 24
0.4883962 -9.026162 -0.8523099 39
0.5476816 -9.504367 -0.608093 7
-0.3633889 -11.13689 -0.7763895 32
-1.200736 -9.547408 -0.7238906 30
-2.011632 -9.175495 -0.7640954 37
0.6111646 -9.512108 -0.3862222 14
-0.4046192 -14.59849 -0.6791863 16
nan nan nan 0
-2.609478 -12.18736 -0.7228896 16
0.5783323 -9.545638 -0.1662342 9
-0.6424716 -20.49935 -0.475241 10
nan nan nan 0
-3.531986 -16.26562 -0.5740589 9
-1.182134 -5.558243 -1.023461 22
-1.699339 -7.709959 -0.883904 17
-9.885132 -44.94837 1.846865 9
0.5543591 -9.507405 0.5518241 22
-6.073468 -26.9322 2.242362 5
2.533289 -46.87397 5.758935 15
nan nan nan 0
2.35846 -46.33926 12.42202 13
0.5692486 -9.507397 0.05462938 15
-1.048565 -31.06223 0 17
-1.267537 -10.09049 -0.05304031 34
-5.323902 -24.21967 -0.2895296 9
0.5748491 -9.518099 0.280172 29
-0.9961308 -30.78052 0.71408 25
-1.249331 -10.10149 0.1734284 18
-9.462141 -43.42231 0.5424959 9
nan nan nan 0
0.02299158 -0.425978 -0.1010979 112
0.4143493 -7.005317 -0.9695148 27
0.4563772 -9.01787 -0.8513671 47
0.5128672 -9.476326 -0.6061727 9
-0.4036961 -11.17544 -0.7791798 24
-1.237258 -9.567882 -0.7257738 30
-2.036038 -9.134371 -0.7612457 36
0.5785692 -9.524156 -0.3866287 12
-0.455575 -14.59699 -0.6791863 15
-1.255929 -10.08313 -0.5304249 18
-2.609436 -11.98311 -0.7112722 16
0.5429939 -9.512663 -0.1656233 8
-0.7115936 -20.42704 -0.4736162 9
-1.28585 -10.09405 -0.2955087 31
-3.588742 -16.25319 -0.5740589 9
-1.201529 -5.554082 -1.023461 21
-1.725151 -7.699132 -0.8833449 17
-10.03434 -44.87947 1.845461 10
0.5197886 -9.484363 0.5503719 19
-6.162985 -26.89141 2.24074 8
2.368649 -46.86271 5.756498 15
-9.598926 -41.83595 7.816443 11
2.193483 -46.27967 12.4039 13
0.5343521 -9.479375 0.05445659 15
-1.146765 -30.78357 0 16
-1.30147 -10.07609 -0.05298796 36
-5.395314 -24.14239 -0.288828 9
0.5399001 -9.490108 0.2792872 28
-1.098562 -30.63698 0.7108306 29
-1.281425 -10.07227 0.1730008 23
-9.604999 -43.34997 0.5420072 9
nan nan nan 0
0.02057553 -0.4115725 -0.09730678 115
0.3896145 -7.001775 -0.9688267 24
0.424422 -9.009463 -0.8504242 46
0.4782552 -9.448159 -0.6042524 7
-0.4417197 -11.14904 -0.7774358 26
-1.276568 -9.607984 -0.7291635 26
-2.061287 -9.098052 -0.7588032 37
0.543301 -9.491204 -0.3852058 12
-0.5066978 -14.6003 -0.6794193 16
-1.284765 -10.02915 -0.5278081 16
-2.59935 -11.74002 -0.6973314 17
0.5076224 -9.474565 -0.1649252 8
-0.7804098 -20.3595 -0.4721076 10
-1.316529 -10.05481 -0.2944887 31
-3.644358 -16.23569 -0.5738861 9
-1.220909 -5.549854 -1.023461 22
-1.753122 -7.697907 -0.883904 16
-6.117919 -26.93119 1.107637 8
0.4851271 -9.456211 0.5486293 18
-10.41066 -44.69162 3.729162 9
2.199209 -46.74676 5.741265 16
-9.749372 -41.82135 7.82003 10
2.02895 -46.2195 12.38579 13
0.4993913 -9.446234 0.05425501 14
nan nan nan 0
-1.33861 -10.08635 -0.0530665 34
-5.460709 -24.04053 -0.287834 10
0.5051538 -9.461991 0.2784025 28
-1.203929 -30.593 0.7099021 28
-1.310085 -10.01816 0.1721456 21
-9.739774 -43.24302 0.541091 7
nan nan nan 0
0.01767473 -0.3874978 -0.09098815 106
0.3649096 -6.998147 -0.9681386 29
0.3927507 -9.005918 -0.8499528 48
0.4445591 -9.43482 -0.6032923 8
-0.4782794 -11.09261 -0.7735993 29
-1.300649 -9.534311 -0.7238906 28
-2.090791 -9.08109 -0.757989 39
0.509083 -9.47309 -0.3843927 11
-0.5576593 -14.59844 -0.6794193 15
-1.315849 -9.994905 -0.526238 14
-2.665574 -11.84287 -0.7040114 17
0.4730293 -9.446321 -0.1644017 9
-0.8489714 -20.29671 -0.4707149 10
-1.35362 -10.06501 -0.2949259 29
-3.701009 -16.22287 -0.5738861 9
-1.239196 -5.540759 -1.022569 19
-1.779983 -7.691741 -0.883904 16
-6.226511 -26.97296 1.110246 7
0.4504272 -9.422946 0.5465963 16
-10.56775 -44.65985 3.729568 14
2.03039 -46.62525 5.725421 15
-9.889627 -41.76313 7.815547 11
1.864865 -46.15874 12.36767 14
0.464918 -9.417956 0.05408222 14
-1.368046 -30.91968 0 29
-1.375161 -10.09152 -0.05311885 33
-5.536715 -23.98722 -0.2874247 9
0.4706104 -9.433749 0.2775177 28
-1.31648 -30.72345 0.7130356 27
-1.347047 -10.02839 0.1724022 18
-6.172707 -26.97532 0.3376168 12
nan nan nan 0
0.016322 -0.3875571 -0.09098815 96
0.3402348 -6.994432 -0.9674504 27
0.3603 -8.982366 -0.8475958 46
0.4096403 -9.391449 -0.6004119 10
-0.5167655 -11.08589 -0.7732505 33
-1.333922 -9.529713 -0.7238906 25
-2.129304 -9.102847 -0.7604316 38
0.4742373 -9.439883 -0.3829698 13
-0.6084065 -14.59142 -0.6791863 15
-1.35073 -9.990251 -0.526238 13
-2.665634 -11.65347 -0.6932653 26
0.4384041 -9.412959 -0.1637908 8
-0.9168787 -20.22872 -0.4692062 10
nan nan nan 0
-3.757615 -16.20985 -0.5738861 9
-1.25853 -5.536399 -1.022569 22
-1.806821 -7.68548 -0.883904 17
-10.49462 -44.73302 1.843855 11
0.4161893 -9.394543 0.5448537 17
-10.72008 -44.60816 3.728352 13
1.862447 -46.50312 5.709579 15
-10.02614 -41.69009 7.808374 11
1.701228 -46.0974 12.34955 14
0.4306481 -9.389554 0.05390943 14
-1.473824 -30.86976 0 19
-1.407606 -10.06686 -0.05301414 13
-5.607843 -23.91421 -0.2867816 9
0.4355665 -9.390404 0.2761906 31
-1.41817 -30.59883 0.7102503 24
nan nan nan 0
-6.289494 -27.05099 0.3388385 7
nan nan nan 0
0.01470999 -0.382781 -0.08972443 76
0.3155904 -6.99063 -0.9667624 25
0.3296835 -9.003466 -0.8494815 42
0.3752327 -9.352937 -0.5978515 9
nan nan nan 0
-1.36576 -9.515128 -0.7231373 27
-2.162221 -9.100207 -0.7608387 35
0.4396296 -9.406549 -0.3815469 14
-0.6595612 -14.59419 -0.6794193 15
nan nan nan 0
-2.737997 -11.78022 -0.7013975 16
0.4035816 -9.369483 -0.1630055 9
-0.9843214 -20.16048 -0.4676975 9
-2.48189 -17.51748 -0.5146631 10
-3.813028 -16.19177 -0.5737134 9
-1.277847 -5.531973 -1.022569 23
-1.833637 -7.679127 -0.883904 16
-10.6507 -44.69611 1.843855 12
0.3813295 -9.346065 0.5419494 22
-10.87809 -44.58015 3.729162 11
1.697564 -46.43991 5.701047 16
-10.1681 -41.64051 7.805684 12
1.538042 -46.03548 12.33143 15
0.3970114 -9.37102 0.05379424 16
-1.581059 -30.85445 0 14
nan nan nan 0
-5.679691 -23.84585 -0.2861969 10
0.4021338 -9.376887 0.2757482 30
-1.52174 -30.52879 0.7087416 22
-6.519924 -46.05391 0.7949657 78
-10.14376 -42.9343 0.5385254 9
nan nan nan 0
0.01385819 -0.3924932 -0.09225187 72
0.2911866 -6.991689 -0.9667624 23
0.2984211 -9.009537 -0.8499528 46
0.3425826 -9.35419 -0.5978515 9
nan nan nan 0
-1.395332 -9.485641 -0.7212542 28
-2.197489 -9.107135 -0.7620599 36
0.4063544 -9.398044 -0.3811403 12
-0.7102582 -14.58681 -0.6791863 15
-1.947335 -13.6781 -0.7219745 10
-2.798637 -11.85317 -0.7063349 17
0.3712747 -9.380824 -0.16318 11
-1.051299 -20.09203 -0.4661888 10
-2.539428 -17.48398 -0.5139346 10
-3.869524 -16.17836 -0.5737134 10
-1.296021 -5.52269 -1.021676 22
-1.860431 -7.672679 -0.883904 16
-10.80666 -44.65866 1.843855 12
0.3477583 -9.322398 0.5404972 22
-11.03244 -44.53707 3.728757 12
1.531005 -46.31163 5.684596 16
-10.30747 -41.58089 7.801201 12
1.37531 -45.97298 12.31332 15
0.3627206 -9.33238 0.05356386 24
-1.669095 -30.48927 0 17
nan nan nan 0
-5.749952 -23.77243 -0.2855538 9
0.3686011 -9.358258 0.2751584 32
-1.645584 -30.84775 0.716285 27
-6.672023 -45.9715 0.7939395 77
-10.27723 -42.83057 0.5376702 8
nan nan nan 0
nan nan nan 0
0.2665865 -6.987714 -0.9660743 27
0.2681724 -9.050327 -0.8537241 38
nan nan nan 0
nan nan nan 0
-1.429179 -9.485641 -0.7216308 29
-2.230454 -9.104248 -0.762467 38
0.3739493 -9.409389 -0.3815469 11
-0.761431 -14.58923 -0.6794193 15
-2.005172 -13.74039 -0.725638 10
-2.774693 -11.57153 -0.6900706 16
0.3368785 -9.337099 -0.1623946 11
-1.11642 -19.9984 -0.4640998 10
-2.605596 -17.50961 -0.5149546 12
-3.927155 -16.16961 -0.5738861 9
-1.315291 -5.518132 -1.021676 22
-1.887203 -7.666138 -0.883904 17
-10.96248 -44.62066 1.843855 11
0.315215 -9.323555 0.5404972 18
-11.18419 -44.48379 3.727541 11
1.367719 -46.26213 5.677893 17
-10.44775 -41.52558 7.797616 15
1.21316 -45.91474 12.29649 15
0.3294235 -9.313602 0.05344867 37
-1.782773 -30.60805 0 18
nan nan nan 0
-5.818577 -23.69395 -0.2848522 9
0.3344744 -9.319532 0.2739787 36
-1.748435 -30.75698 0.7143122 25
-6.830246 -45.93309 0.7936829 80
-10.41247 -42.73615 0.5369372 8
nan nan nan 0
0.01153472 -0.4022467 -0.09477933 65
0.2421933 -6.988602 -0.9660743 26
0.2345857 -8.976569 -0.8466529 44
nan nan nan 0
nan nan nan 0
-1.46152 -9.475668 -0.7212542 28
-2.264632 -9.106078 -0.7632812 34
0.3381591 -9.330756 -0.3782944 16
-0.8123523 -14.58649 -0.6794193 15
-2.033173 -13.59998 -0.7185726 13
-2.882502 -11.83819 -0.7066253 15
0.3037867 -9.32323 -0.1621328 20
-1.185629 -19.9844 -0.4638677 8
-2.665947 -17.49547 -0.5148088 11
-3.983573 -16.15581 -0.5738861 10
-1.334545 -5.513507 -1.021676 23
-1.915159 -7.664324 -0.8844631 17
-11.11817 -44.58213 1.843855 12
0.2839012 -9.364513 0.5428207 14
-11.33693 -44.43482 3.72673 11
1.204277 -46.1922 5.668752 18
-10.58777 -41.46979 7.794029 28
1.051323 -45.8511 12.27837 15
0.2973977 -9.329688 0.05353506 11
-1.899456 -30.76134 0 23
nan nan nan 0
-5.886724 -23.61528 -0.2841506 10
0.3030949 -9.355609 0.2750109 22
-1.850372 -30.66087 0.7122232 23
-6.991294 -45.91391 0.7937685 77
-10.55197 -42.66071 0.5364485 9
nan nan nan 0
0.01051378 -0.4119523 -0.09730678 54
0.217797 -6.989405 -0.9660743 27
0.2029036 -8.962404 -0.8452387 44
0.2450084 -9.372229 -0.5988116 6
nan nan nan 0
-1.493809 -9.465584 -0.7208775 32
-2.297626 -9.102948 -0.7636883 34
0.304421 -9.296928 -0.3768715 33
-0.8638526 -14.59353 -0.679885 16
-2.01485 -13.1634 -0.6958065 20
-2.869809 -11.61002 -0.6935558 15
0.2712407 -9.324233 -0.1621328 6
-1.252564 -19.93524 -0.4628232 9
-2.727001 -17.48606 -0.5148088 11
-4.041158 -16.14665 -0.5740589 9
-1.353783 -5.508815 -1.021676 23
-1.943125 -7.662408 -0.8850222 19
-11.26882 -44.52367 1.843053 10
0.2516215 -9.380416 0.5436919 10
-11.49197 -44.39497 3.72673 10
1.041677 -46.13659 5.66144 18
-10.72876 -41.41829 7.791339 9
0.8900388 -45.79172 12.26155 16
nan nan nan 0
-2.016254 -30.89921 0 25
-4.659288 -29.52919 -0.1563197 25
-5.954394 -23.53643 -0.283449 9
0.2711728 -9.381587 0.2757482 18
-1.957069 -30.64924 0.7121071 24
-7.146901 -45.85959 0.7932553 79
-10.67768 -42.53149 0.5352879 9
nan nan nan 0
0.008376775 -0.3926484 -0.09225187 54
0.1932572 -6.985172 -0.9653862 25
0.1711268 -8.938173 -0.8428817 46
0.2776119 -12.18649 -0.7793192 20
nan nan nan 0
-1.529228 -9.475078 -0.7220075 30
-2.330627 -9.0997 -0.7640954 33
0.2739049 -9.362853 -0.3795141 11
-0.9147882 -14.59043 -0.679885 15
-2.058466 -13.14149 -0.6950215 17
-2.96386 -11.81294 -0.7063349 23
nan nan nan 0
-1.318839 -19.88087 -0.4616627 10
-2.786446 -17.46656 -0.5145174 11
-4.098727 -16.13729 -0.5742316 9
-1.373004 -5.504056 -1.021676 24
-1.971102 -7.660388 -0.8855813 18
-11.42292 -44.47923 1.842852 11
nan nan nan 0
-11.62534 -44.27265 3.719839 100
0.8794809 -46.0804 5.654128 18
-10.86952 -41.36632 7.788649 11
0.7291048 -45.72694 12.24343 16
nan nan nan 0
nan nan nan 0
-4.744806 -29.40416 -0.1557437 22
-6.02034 -23.45255 -0.2826889 9
nan nan nan 0
-2.076461 -30.82675 0.7164012 29
-7.304574 -45.81955 0.7929988 79
-10.80879 -42.42613 0.5344327 9
nan nan nan 0
0.006374678 -0.3733349 -0.08719698 58
0.1688733 -6.985804 -0.9653862 26
0.1391986 -8.893923 -0.838639 46
0.2345795 -12.16244 -0.777719 18
nan nan nan 0
-1.553354 -9.415571 -0.7178645 30
-2.363632 -9.096331 -0.7645024 35
nan nan nan 0
-0.9653835 -14.58216 -0.6796522 15
-2.117766 -13.21804 -0.69947 17
-3.047024 -11.96697 -0.7162096 21
0.521445 -23.2202 -0.4047213 31
-1.385793 -19.84124 -0.4608503 9
-2.845789 -17.44687 -0.514226 11
-4.156281 -16.12772 -0.5744044 9
-1.392208 -5.49923 -1.021676 23
-1.999088 -7.658268 -0.8861403 19
-11.56929 -44.40524 1.841447 16
nan nan nan 0
-11.79649 -44.2944 3.725109 12
0.7176896 -46.02365 5.646816 17
-11.01004 -41.31387 7.785959 11
0.5687553 -45.67125 12.22791 16
nan nan nan 0
-2.317984 -32.07628 0 14
-4.812414 -29.17529 -0.154618 22
-6.087035 -23.37334 -0.2819873 9
nan nan nan 0
-2.190762 -30.91405 0.7186062 30
-7.461253 -45.77404 0.7926567 78
-10.93804 -42.31554 0.5335164 9
nan nan nan 0
0.005776374 -0.397533 -0.0935156 48
0.1443809 -6.9814 -0.9646981 26
0.1083425 -8.909286 -0.8400532 39
0.1923662 -12.17815 -0.7786791 16
nan nan nan 0
-1.597827 -9.478919 -0.7231373 28
-2.396643 -9.092843 -0.7649094 36
0.3555279 -15.79253 -0.6411288 25
-1.016279 -14.5787 -0.6796522 15
-2.165508 -13.22042 -0.6999934 17
-3.055012 -11.82578 -0.7083679 21
0.4347259 -22.92698 -0.3995728 30
-1.452853 -19.80637 -0.460154 10
-2.903383 -17.41711 -0.5136431 12
-4.212552 -16.11312 -0.5744044 9
-1.411396 -5.494337 -1.021676 22
-2.027083 -7.656046 -0.8866994 19
-11.71528 -44.33078 1.840043 100
0.8078421 -48.03661 2.793101 35
-11.96663 -44.31069 3.729973 7
0.5562444 -45.96136 5.638895 20
-11.15034 -41.26094 7.783269 11
0.4086719 -45.60052 12.20849 13
nan nan nan 0
nan nan nan 0
-4.909237 -29.12873 -0.1544609 19
-6.15964 -23.31812 -0.281578 9
nan nan nan 0
-2.300881 -30.93613 0.7193025 30
-7.617702 -45.728 0.7923146 78
-11.06538 -42.19972 0.5325391 10
nan nan nan 0
0.004512792 -0.4023868 -0.09477933 66
0.1200104 -6.981861 -0.9646981 28
0.07719654 -8.904633 -0.8395818 42
0.1497917 -12.17376 -0.7783591 15
nan nan nan 0
-1.639374 -9.522417 -0.7269037 27
-2.428369 -9.084422 -0.7649094 34
0.300206 -15.78369 -0.6407222 21
-1.066798 -14.57009 -0.6794193 15
-2.191844 -13.09459 -0.6937131 18
-3.064585 -11.69435 -0.701107 21
0.3523374 -22.7784 -0.396955 41
-1.517772 -19.74636 -0.4588774 11
-2.968361 -17.4315 -0.5143717 11
-4.270053 -16.10314 -0.5745772 9
-1.430566 -5.489377 -1.021676 21
-2.055087 -7.653721 -0.8872585 21
-11.89454 -44.3813 1.843855 9
0.642506 -48.21383 2.803267 18
-12.11465 -44.24462 3.727946 9
0.3951997 -45.89355 5.630363 22
-11.29039 -41.20753 7.78058 12
0.2492782 -45.56303 12.19814 10
nan nan nan 0
-2.481045 -31.29172 0 12
-4.920949 -28.58911 -0.1516859 18
-6.233229 -23.2675 -0.2812272 9
nan nan nan 0
-2.418939 -31.05748 0.7223199 27
-7.773921 -45.68141 0.7919726 79
-11.18434 -42.05454 0.5311952 10
nan nan nan 0
0.003322616 -0.412073 -0.09730678 90
0.09563842 -6.982237 -0.9646981 27
0.04585507 -8.860049 -0.8353391 44
0.1073427 -12.17919 -0.7786791 14
nan nan nan 0
-1.670876 -9.506816 -0.7261504 27
-2.461371 -9.080699 -0.7653165 36
0.2453468 -15.79963 -0.641332 19
-1.117269 -14.56129 -0.6791863 15
-2.249329 -13.15576 -0.6973766 16
-3.034749 -11.41829 -0.6851332 20
0.2731903 -22.80949 -0.3974785 37
-1.57829 -19.6363 -0.4564402 11
-3.02919 -17.42103 -0.5143717 11
-4.327538 -16.09297 -0.5747499 10
-1.449719 -5.484349 -1.021676 21
-2.0831 -7.651295 -0.8878176 20
-12.05332 -44.35397 1.844457 9
nan nan nan 0
-12.27168 -44.21166 3.728757 9
0.2346611 -45.83013 5.622442 21
-11.43285 -41.16313 7.779683 12
0.08997909 -45.44288 12.16579 14
0.5087301 -44.64594 0.2569337 7
-2.926285 -35.34399 0 18
-5.039758 -28.6801 -0.1522618 21
-6.305228 -23.21182 -0.280818 9
nan nan nan 0
-2.543544 -31.24814 0.726962 26
-7.929907 -45.63429 0.7916305 79
-11.33367 -42.0249 0.5313174 10
nan nan nan 0
0.001974531 -0.416919 -0.0985705 160
0.07126529 -6.982529 -0.9646981 26
0.0150178 -8.899977 -0.8391104 41
0.06485742 -12.18449 -0.7789992 14
-0.8865904 -10.40683 -0.7275599 38
-1.707576 -9.520555 -0.727657 27
-2.495701 -9.081661 -0.7661307 33
0.1899467 -15.78041 -0.640519 26
-1.168489 -14.56228 -0.6794193 14
-2.30469 -13.20194 -0.7002551 17
-3.084997 -11.44618 -0.6874567 20
nan nan nan 0
-1.647241 -19.63566 -0.4565563 11
-3.093477 -17.43004 -0.5149546 11
-4.385002 -16.08258 -0.5749226 9
-1.468854 -5.479256 -1.021676 23
-2.11112 -7.648765 -0.8883767 22
-12.21338 -44.33089 1.84526 11
nan nan nan 0
-12.41648 -44.13498 3.725919 10
0.07457006 -45.76616 5.614521 23
-11.5698 -41.0993 7.775201 11
-0.06861299 -45.41877 12.15932 16
0.3527632 -44.63244 0.2568473 7
nan nan nan 0
-5.165442 -28.80505 -0.153021 20
-6.379572 -23.16558 -0.2805256 9
nan nan nan 0
-2.660635 -31.3337 0.729167 29
-8.085659 -45.58664 0.7912884 88
-11.46842 -41.94168 0.5307676 11
nan nan nan 0
0.0005926536 -0.4217604 -0.09983423 139
0.04685412 -6.977783 -0.96401 24
-0.01606726 -8.914908 -0.8405246 37
0.02232524 -12.18464 -0.7789992 13
-0.9119135 -10.27946 -0.7188404 43
-1.735408 -9.485111 -0.7253972 26
-2.530066 -9.082494 -0.7669449 32
0.1349061 -15.78597 -0.6407222 25
-1.219314 -14.55812 -0.6794193 14
nan nan nan 0
-3.168426 -11.59421 -0.697041 23
0.1141017 -22.84083 -0.3980021 30
-1.723599 -19.71942 -0.4586453 9
-3.153409 -17.41421 -0.5148088 10
-4.442447 -16.07199 -0.5750954 10
-1.487971 -5.474095 -1.021676 22
-2.137806 -7.641348 -0.8883767 18
-12.37074 -44.29761 1.845661 14
0.1369047 -47.9883 2.789907 34
-12.57047 -44.09137 3.725919 11
-0.08508016 -45.70658 5.607208 24
-11.71049 -41.0492 7.773407 11
-0.2267996 -45.34581 12.13991 17
0.1960799 -44.43841 0.2557242 8
-3.1819 -35.4223 0 18
-5.268659 -28.8016 -0.1530996 22
-6.436179 -23.05649 -0.2794732 9
nan nan nan 0
-4.130934 -46.72504 1.088122 62
-8.241176 -45.53846 0.7909464 91
-11.60808 -41.87731 0.5304621 10
nan nan nan 0
-0.0008229995 -0.4265972 -0.1010979 120
0.02249682 -6.977904 -0.96401 30
-0.0473502 -8.949642 -0.8438245 37
-0.02020722 -12.18464 -0.7789992 14
nan nan nan 0
-1.764845 -9.459393 -0.7238906 28
-2.563112 -9.078402 -0.767352 33
0.07980198 -15.78634 -0.6407222 25
-1.270124 -14.55377 -0.6794193 16
-2.401268 -13.21009 -0.7015635 16
-3.206208 -11.57346 -0.6964601 18
0.034232 -22.76111 -0.3966059 33
-1.78157 -19.59381 -0.45586 9
-3.210545 -17.38344 -0.514226 11
-4.50122 -16.06601 -0.5754409 9
-1.50707 -5.468868 -1.021676 22
-2.165826 -7.63862 -0.8889357 22
-12.5389 -44.30223 1.847668 29
-0.03065098 -48.07334 2.794844 8
-12.72153 -44.03764 3.725109 12
-0.2441836 -45.62164 5.596849 25
-10.94904 -37.87991 7.179867 8
-0.08588202 -9.630892 2.570073 38
0.02775998 -31.83404 0.183125 17
nan nan nan 0
-5.341649 -28.63558 -0.1523142 24
-6.500276 -22.97616 -0.2787716 9
0.06979479 -48.01364 1.415458 36
-4.292637 -46.6954 1.087774 72
-8.399176 -45.5045 0.7908608 83
-11.72713 -41.74027 0.5292405 10
nan nan nan 0
-0.002312097 -0.4265917 -0.1010979 80
-0.001863339 -6.972988 -0.963322 28
-0.07818166 -8.899647 -0.8391104 38
-0.06273943 -12.1845 -0.7789992 15
nan nan nan 0
-1.798786 -9.458073 -0.7242672 28
-2.592038 -9.059819 -0.7665378 31
0.02469688 -15.78652 -0.6407222 19
-1.321369 -14.55422 -0.6796522 14
-2.471956 -13.33418 -0.7086288 15
-3.216854 -11.45649 -0.6900706 18
-0.04490519 -22.58111 -0.3934645 32
-1.852302 -19.61235 -0.4564402 9
-3.268428 -17.35739 -0.5137888 10
-4.560007 -16.05981 -0.5757864 8
-1.526151 -5.463573 -1.021676 23
-2.192476 -7.631013 -0.8889357 18
-12.71 -44.31581 1.850076 97
nan nan nan 0
-11.12329 -38.00976 3.218024 53
-0.4031283 -45.58578 5.592584 19
-11.07428 -37.81786 7.175384 44
-0.1182959 -9.529119 2.542897 50
-0.08317848 -31.75894 0.1826931 28
-3.410323 -35.20514 0 22
-5.470537 -28.76903 -0.1531258 26
-6.562512 -22.89085 -0.2780115 9
nan nan nan 0
-4.451811 -46.64033 1.086845 73
-8.557964 -45.47491 0.7908608 61
-11.87276 -41.69909 0.5292405 10
nan nan nan 0
-0.003755572 -0.4362563 -0.1036254 63
-0.0261889 -6.967986 -0.9626338 27
-0.1086065 -8.844568 -0.8339249 37
-0.1052709 -12.1842 -0.7789992 14
-0.9968795 -10.04103 -0.7027964 29
-1.83179 -9.451735 -0.7242672 26
-2.616695 -9.026788 -0.7645024 31
-0.03040068 -15.78152 -0.640519 19
-1.373102 -14.55947 -0.680118 14
-2.505496 -13.25678 -0.7049653 15
-3.291033 -11.5652 -0.6973314 23
-0.1215551 -22.16589 -0.3862217 25
-1.913934 -19.53612 -0.4548155 11
-3.326169 -17.33115 -0.5133517 10
-4.617422 -16.0486 -0.5759592 9
-1.545213 -5.458213 -1.021676 21
-2.220492 -7.628083 -0.8894948 20
-12.85207 -44.228 1.84827 20
nan nan nan 0
nan nan nan 0
-0.5616436 -45.53447 5.586491 23
-11.20063 -37.76012 7.171797 35
-0.1525965 -9.596254 2.561014 44
-0.1941561 -31.77846 0.1828083 30
-3.513723 -34.99899 0 17
-5.559508 -28.69085 -0.1528116 32
-6.624232 -22.80539 -0.2772515 10
-0.1781694 -31.89021 0.9397558 16
-4.613605 -46.61456 1.086613 70
-8.713825 -45.43003 0.7906043 76
-12.01547 -41.64777 0.5291183 10
nan nan nan 0
nan nan nan 0
-0.05051155 -6.967852 -0.9626338 28
-0.1403105 -8.898884 -0.8391104 38
-0.147801 -12.18376 -0.7789992 13
-1.029886 -10.01764 -0.7014013 23
-1.863805 -9.440392 -0.7238906 26
-2.65241 -9.03194 -0.7657236 38
-0.08548828 -15.78132 -0.640519 28
-1.424401 -14.55956 -0.6803509 15
-2.525294 -13.11067 -0.6976383 15
-3.345233 -11.6016 -0.7002357 19
-0.2008037 -22.38029 -0.389974 30
-1.97556 -19.46467 -0.4533068 10
-3.384727 -17.30963 -0.5130602 10
-4.676214 -16.04198 -0.5763047 10
-1.564256 -5.452786 -1.021676 22
-2.247106 -7.620286 -0.8894948 18
-11.21106 -38.08687 1.593032 78
-0.3463599 -31.00029 1.801561 30
-13.18342 -43.90678 3.725514 8
-0.7198835 -45.48757 5.581006 27
-11.31112 -37.65012 7.158349 37
-0.186912 -9.639123 2.572661 43
-0.3049881 -31.76759 0.1827507 27
-3.628639 -34.91689 0 21
-5.64219 -28.58298 -0.1523404 31
-6.689673 -22.73417 -0.2766668 8
-0.2897528 -31.91938 0.9406405 30
-4.771707 -46.55342 1.085569 77
nan nan nan 0
-11.15887 -38.17933 0.4855036 9
nan nan nan 0
nan nan nan 0
-0.07478432 -6.962681 -0.9619458 27
-0.1722091 -8.943131 -0.8433531 33
-0.1902536 -12.17818 -0.7786791 14
-1.059582 -9.964384 -0.6979135 30
-1.905601 -9.477819 -0.7272803 26
-2.69104 -9.046506 -0.767759 40
-0.1405748 -15.78092 -0.640519 21
-1.475718 -14.55947 -0.6805838 15
-2.605681 -13.27816 -0.7070587 14
-3.354871 -11.48445 -0.6938462 17
-0.2789853 -22.38445 -0.3900613 32
-2.037755 -19.40297 -0.4520302 8
-3.444152 -17.29281 -0.5129145 11
-4.733599 -16.03035 -0.5764774 9
-1.58328 -5.447292 -1.021676 22
-2.273692 -7.612395 -0.8894948 18
nan nan nan 0
-0.4521829 -30.83419 1.791976 44
-13.34531 -43.88911 3.727946 9
-0.8777076 -45.43516 5.574913 27
-11.43389 -37.58218 7.152969 68
-0.2185078 -9.546671 2.548073 45
-0.415101 -31.70634 0.1824051 32
-3.764915 -35.03823 0 15
-5.753757 -28.62193 -0.1526545 34
-6.753268 -22.65798 -0.2760236 10
-0.4003034 -31.84821 0.9385761 31
-4.930491 -46.50167 1.084756 72
nan nan nan 0
-11.28355 -38.11138 0.4851371 27
nan nan nan 0
nan nan nan 0
-0.09908815 -6.962378 -0.9619458 28
-0.2025428 -8.902664 -0.8395818 36
-0.2327623 -12.17744 -0.7786791 13
-1.091095 -9.930875 -0.6958207 26
-1.94768 -9.515067 -0.73067 23
-2.731244 -9.065682 -0.7702016 36
-0.1956597 -15.78034 -0.640519 20
-1.527051 -14.55919 -0.6808168 13
nan nan nan 0
-3.372242 -11.3961 -0.6891993 20
-0.3568058 -22.36334 -0.3897122 31
-2.096847 -19.31623 -0.4501733 9
-3.504494 -17.28068 -0.5129145 11
-4.789527 -16.01373 -0.5764774 9
-1.602286 -5.441732 -1.021676 23
-2.30025 -7.604412 -0.8894948 18
-13.28272 -43.98578 1.843855 7
-0.5599909 -30.8424 1.792557 41
-13.49109 -43.81844 3.725919 10
-1.035062 -45.37724 5.56821 33
-11.57225 -37.56555 7.157453 79
-0.2527038 -9.579647 2.557132 50
-0.5222471 -31.48973 0.1811668 41
-3.868455 -34.85592 0 16
-5.861654 -28.64086 -0.152864 26
-6.81786 -22.58641 -0.275439 10
nan nan nan 0
-5.090606 -46.46431 1.084292 73
-9.17716 -45.27749 0.7895781 75
-12.41358 -41.39516 0.5275301 10
nan nan nan 0
-0.04595869 -4.339989 -1.123451 6
-0.1233908 -6.961989 -0.9619458 27
-0.2328515 -8.872046 -0.8367534 42
-0.2750469 -12.16658 -0.778039 14
-1.118458 -9.862576 -0.6912866 30
-1.9819 -9.513092 -0.7310467 25
-2.767243 -9.070388 -0.7714228 32
-0.2506645 -15.77456 -0.6403157 25
-1.5784 -14.55874 -0.6810496 16
-2.615621 -12.85355 -0.6853393 15
-3.412001 -11.38426 -0.6891993 22
-0.435826 -22.41195 -0.3905848 32
-2.157028 -19.24421 -0.4486646 9
-3.564793 -17.26834 -0.5129145 11
-4.846846 -16.0017 -0.5766502 9
-1.621271 -5.436107 -1.021676 21
-2.32678 -7.596336 -0.8894948 18
-13.43764 -43.94393 1.844056 9
-0.6672191 -30.8203 1.791395 35
-13.64841 -43.78535 3.727135 11
-1.191893 -45.31382 5.560898 30
-11.71063 -37.5484 7.161935 75
-0.2857167 -9.564223 2.55325 59
-0.6256977 -31.16278 0.1792949 36
-3.969631 -34.66337 0 21
nan nan nan 0
-6.879108 -22.5051 -0.2747374 9
-0.6000759 -30.68037 0.9042182 30
-5.247711 -46.40155 1.083248 77
-9.334142 -45.24029 0.7894926 82
-12.55655 -41.34679 0.527469 10
nan nan nan 0
-0.06116944 -4.34464 -1.124715 7
-0.1476919 -6.961516 -0.9619458 26
-0.2628039 -8.836349 -0.8334535 38
-0.3178985 -12.18051 -0.7789992 14
-1.156349 -9.888338 -0.6933793 25
-2.007851 -9.471975 -0.7284102 28
-2.787099 -9.02259 -0.7681661 33
-0.3057265 -15.77359 -0.6403157 29
-1.630875 -14.56803 -0.6817484 14
-2.713169 -13.09858 -0.6989467 13
-3.453171 -11.37706 -0.6894897 20
-0.5082712 -22.15539 -0.3861345 35
-2.221895 -19.2167 -0.4482004 10
-3.628133 -17.27046 -0.5133517 11
-4.90414 -15.98946 -0.5768229 9
-1.640236 -5.430414 -1.021676 22
-2.351807 -7.583424 -0.8889357 17
-13.58652 -43.88243 1.843454 10
-0.7740505 -30.78784 1.789653 37
-13.79817 -43.72794 3.726325 11
-1.348294 -45.24986 5.553586 27
-11.84311 -37.51198 7.162832 67
-0.3195757 -9.577649 2.557132 49
-0.73494 -31.1804 0.1794101 38
-4.080057 -34.55992 0 20
nan nan nan 0
-6.939872 -22.42364 -0.2740358 9
-0.71128 -30.85796 0.9095268 37
-5.410809 -46.39288 1.08348 76
-9.487894 -45.18786 0.7891505 85
-12.69198 -41.27404 0.5271025 9
nan nan nan 0
-0.0755495 -4.29603 -1.112077 8
-0.1719912 -6.960958 -0.9619458 30
-0.293322 -8.825428 -0.8325107 38
-0.3607053 -12.1893 -0.7796392 15
-1.18371 -9.824815 -0.689194 26
-2.041954 -9.469783 -0.7287869 29
-2.814106 -8.998541 -0.7669449 33
-0.3607848 -15.77243 -0.6403157 19
-1.681145 -14.55729 -0.6815155 14
nan nan nan 0
-3.491395 -11.36016 -0.6891993 21
-0.5882222 -22.25343 -0.3878797 33
nan nan nan 0
-3.680035 -17.2186 -0.5121859 12
-4.959923 -15.97224 -0.5768229 10
-1.659182 -5.424655 -1.021676 22
-2.378264 -7.575168 -0.8889357 18
-13.73961 -43.83474 1.843454 10
-0.8800956 -30.73506 1.786748 37
-13.95376 -43.689 3.727135 10
-1.504262 -45.18536 5.546274 32
-11.97697 -37.47978 7.164625 62
-0.3540577 -9.605434 2.564897 45
-0.8249633 -30.47791 0.1753784 39
nan nan nan 0
nan nan nan 0
-6.99716 -22.33249 -0.2732172 10
-0.8085858 -30.4606 0.8978775 37
-5.569736 -46.3489 1.0829 65
-9.645572 -45.15447 0.7891505 88
-12.82557 -41.19608 0.5266749 11
nan nan nan 0
-0.09035417 -4.286067 -1.10955 10
-0.1962885 -6.960316 -0.9619458 25
-0.3243065 -8.829327 -0.8329821 40
-0.4029261 -12.17799 -0.7789992 14
-1.217384 -9.815674 -0.6888452 22
-2.070721 -9.443118 -0.7272803 28
-2.837965 -8.964912 -0.7649094 30
-0.4158386 -15.77107 -0.6403157 29
-1.733128 -14.56125 -0.6819813 15
-2.752172 -12.83522 -0.6858627 14
-3.51469 -11.29548 -0.6860045 24
-0.6687155 -22.34619 -0.3895377 35
-1.243387 -10.12614 -0.2359377 27
-3.735869 -17.18611 -0.5116031 12
-5.012646 -15.9453 -0.5764774 9
-1.676648 -5.414133 -1.020784 22
-2.404692 -7.56682 -0.8889357 20
-13.88952 -43.77699 1.843053 10
-0.9977366 -31.05608 1.805627 37
-14.09238 -43.59735 3.723488 67
-1.659979 -45.12528 5.539571 33
-12.11379 -37.45647 7.168211 60
-0.3918118 -9.710307 2.593367 88
nan nan nan 0
-1.264129 -10.09106 0 27
nan nan nan 0
-7.061459 -22.26504 -0.272691 9
-0.9189349 -30.59247 0.9018589 35
nan nan nan 0
-9.794638 -45.08144 0.7884664 90
-12.96027 -41.12244 0.5263084 13
nan nan nan 0
-0.1054271 -4.290561 -1.110814 12
-0.2204303 -6.954638 -0.9612576 24
-0.3549275 -8.823165 -0.8325107 39
nan nan nan 0
-1.251009 -9.806417 -0.6884964 20
-2.100413 -9.421233 -0.7261504 25
-2.867718 -8.950205 -0.7645024 36
-0.4707401 -15.76453 -0.6401124 21
nan nan nan 0
-2.778861 -12.7426 -0.6814141 14
-3.567614 -11.32599 -0.6886184 16
-0.7447252 -22.28376 -0.3884906 44
-1.276849 -10.10686 -0.2355895 31
-3.793678 -17.16321 -0.5113117 11
-5.066759 -15.92294 -0.5763047 10
-1.695537 -5.408247 -1.020784 22
-2.429565 -7.553651 -0.8883767 18
-14.04224 -43.72824 1.843053 10
-1.093936 -30.70821 1.785587 36
-14.25842 -43.59052 3.727135 53
-1.815295 -45.06466 5.532868 30
-12.25824 -37.45602 7.17628 63
-0.4206891 -9.593077 2.562309 15
-1.029085 -30.21656 0.1739098 38
-1.299345 -10.08658 0 29
nan nan nan 0
-7.13149 -22.21646 -0.2723987 9
-1.029215 -30.69397 0.9049555 37
-1.284999 -10.08566 0.2351253 31
-9.9541 -45.05674 0.7886375 82
-13.09006 -41.03408 0.5257586 12
nan nan nan 0
-0.1204033 -4.290167 -1.110814 12
-0.2447052 -6.953826 -0.9612576 28
-0.3855094 -8.8169 -0.8320392 39
-0.4871434 -12.15494 -0.777719 15
-1.283937 -9.792098 -0.6877988 24
-2.127773 -9.389533 -0.7242672 27
-2.900483 -8.944881 -0.7649094 39
-0.5257657 -15.76279 -0.6401124 25
-1.264172 -10.01956 -0.4690951 19
nan nan nan 0
-3.602573 -11.2992 -0.6877471 19
-0.8270853 -22.40592 -0.3906721 39
-1.311478 -10.09738 -0.2354735 31
-3.85247 -17.14498 -0.5111659 11
-5.114642 -15.88138 -0.5754409 8
-1.712912 -5.397608 -1.019892 23
-2.455918 -7.545124 -0.8883767 18
-14.16699 -43.59344 1.839441 102
-1.198402 -30.63437 1.781521 41
nan nan nan 0
-1.970208 -45.00352 5.526165 33
-12.37344 -37.36631 7.167314 44
-0.4548501 -9.606024 2.566191 46
-1.132127 -30.14783 0.1735354 34
-1.335857 -10.0919 0 28
nan nan nan 0
-7.196629 -22.15339 -0.2719309 10
-1.131014 -30.54536 0.9006792 36
-1.321493 -10.09103 0.2353574 34
-10.10474 -44.99245 0.7881243 89
-13.23321 -40.98814 0.5257586 14
nan nan nan 0
-0.135232 -4.284885 -1.10955 12
-0.2689771 -6.952929 -0.9612576 26
-0.4155881 -8.800584 -0.830625 37
-0.5276338 -12.1083 -0.7748385 14
-1.317446 -9.782613 -0.68745 21
-2.150456 -9.338323 -0.7208775 30
-2.936358 -8.948905 -0.7661307 35
-0.5806026 -15.75587 -0.6399091 25
-1.300422 -10.02499 -0.4695609 16
-2.817218 -12.49884 -0.6693769 14
-3.577521 -11.08707 -0.6755489 23
-0.9068965 -22.44286 -0.3913702 36
-1.345396 -10.08283 -0.2352414 25
-3.915633 -17.14605 -0.5116031 11
-5.182447 -15.90143 -0.5768229 10
-1.731743 -5.391596 -1.019892 22
-2.48224 -7.536505 -0.8883767 18
-14.35186 -43.64338 1.843655 13
-1.309138 -30.71977 1.786748 37
-14.57822 -43.53717 3.731189 8
-2.124716 -44.94183 5.519462 28
nan nan nan 0
-0.485952 -9.556143 2.55325 45
-1.244909 -30.32854 0.1746009 38
-1.371748 -10.09213 0 23
nan nan nan 0
-7.262979 -22.09489 -0.2715217 10
-1.236221 -30.50627 0.8996469 34
-1.354713 -10.07149 0.2350093 29
nan nan nan 0
-13.3731 -40.93219 0.5256364 14
nan nan nan 0
-0.1501882 -4.284387 -1.10955 14
