# .PCD v0.7 - Point Cloud Data file format
VERSION 0.7
FIELDS x y z intensity
SIZE 4 4 4 4
TYPE F F F F
COUNT 1 1 1 1
WIDTH 1648
HEIGHT 1
VIEWPOINT 0 0 0 1 0 0 0
POINTS 1648
DATA ascii
nan nan nan 0
-33.35513 21.86692 0.2294894 25
-3.068885 2.454848 0 24
-2.560411 2.458852 -0.01837823 25
-2.121365 2.441527 -0.03736054 8
-35.94932 23.54026 1.266672 15
-3.079253 2.4562 0.0905221 23
-2.586386 2.474435 0.06054601 20
-2.145642 2.460158 0.03939983 9
nan nan nan 0
-0.2821091 0.1889319 -0.07835092 11
-8.601319 5.650161 -1.42434 88
-15.38154 10.29161 -1.748932 11
-22.47647 14.92276 -1.727944 12
-2.989877 2.402697 -0.2654234 12
-2.487061 2.40569 -0.2583709 25
-2.080591 2.410327 -0.2568696 12
-29.46316 19.27951 -1.431055 95
-3.056287 2.431825 -0.1802779 23
-2.530694 2.425252 -0.1816058 29
-2.109086 2.418895 -0.1844254 8
nan nan nan 0
-3.049893 2.444901 -0.08982577 26
-2.544309 2.45188 -0.1018543 18
-2.107906 2.43112 -0.109871 11
-2.077956 2.379017 -0.5657142 10
-2.061843 2.394525 -0.3511017 9
-2.121107 2.458448 0.1288231 13
-47.64368 31.57713 3.323433 15
-2.128568 2.494029 0.2634734 13
-80.60787 53.96865 11.90602 20
-2.174217 2.548617 0.6034029 10
nan nan nan 0
-33.28276 21.98598 0.2295182 17
-3.044717 2.453005 0 22
-2.541035 2.457342 -0.01829969 24
-2.10631 2.441335 -0.0372436 9
-35.77515 23.60506 1.263428 12
-3.058966 2.457548 0.09017393 25
-2.566937 2.473037 0.06028946 21
-2.130508 2.460063 0.03927766 9
nan nan nan 0
-0.2814478 0.1899155 -0.07835092 9
-8.577413 5.677419 -1.423652 56
-15.39919 10.3814 -1.755061 11
-22.38691 14.97616 -1.725064 15
-2.969837 2.403711 -0.264377 10
-2.46794 2.403914 -0.257241 25
-2.065692 2.409996 -0.2560554 10
-29.4374 19.40974 -1.433087 90
-3.036083 2.433114 -0.1795791 23
-2.515031 2.427132 -0.1810824 31
-2.094107 2.418684 -0.1838446 8
-29.96473 19.91512 -0.6273267 37
-3.029668 2.446117 -0.08947761 26
-2.524981 2.450299 -0.1014172 18
-2.096153 2.434671 -0.1096983 9
-2.063205 2.378813 -0.5639297 9
-2.047028 2.394143 -0.3499835 10
-2.109268 2.462038 0.1286224 12
-80.73938 53.91417 5.646613 7
-2.113419 2.493829 0.2626627 12
nan nan nan 0
-2.158961 2.548673 0.6016097 11
nan nan nan 0
nan nan nan 0
-3.024484 2.454172 0 25
-2.525281 2.459216 -0.01824733 26
-2.088037 2.437265 -0.0370682 8
-35.75912 23.77406 1.265787 26
-3.038707 2.458783 0.08982577 24
-2.551116 2.475017 0.06011842 22
-2.1154 2.459893 0.03915549 8
nan nan nan 0
-0.2767366 0.1882458 -0.07708719 10
-8.569907 5.715563 -1.425717 82
-15.40816 10.46584 -1.760246 9
-22.3345 15.05421 -1.725064 10
-2.945958 2.401464 -0.2629819 12
-2.448862 2.402034 -0.2561111 25
-2.054044 2.413391 -0.2556483 10
-29.19468 19.39629 -1.42455 76
-3.015907 2.434292 -0.1788803 23
-2.499385 2.428933 -0.180559 30
-2.082404 2.422189 -0.1835541 8
nan nan nan 0
-3.009472 2.447222 -0.08912945 24
-2.509267 2.452108 -0.1011258 18
-2.08116 2.434366 -0.1093528 9
-2.04848 2.378534 -0.5621451 10
-2.03224 2.393687 -0.3488653 9
-2.0942 2.461764 0.1282211 12
nan nan nan 0
-2.098297 2.493553 0.2618521 14
-79.60934 54.10886 11.81401 10
-2.143732 2.548655 0.5998166 12
nan nan nan 0
-33.3818 22.38764 0.2312749 63
-3.000407 2.452065 0 22
-2.505978 2.457508 -0.0181688 26
-2.07305 2.436912 -0.03695127 8
-35.75483 23.95158 1.268589 18
-3.0146 2.456752 0.08936156 23
-2.531738 2.473421 0.05986188 22
-2.10032 2.459647 0.03903332 8
nan nan nan 0
-0.2720405 0.1865454 -0.07582346 9
-8.508784 5.717843 -1.418836 97
-15.40851 10.54485 -1.764489 9
-22.19511 15.07323 -1.718343 12
-2.925988 2.402243 -0.2619355 11
-2.429827 2.400051 -0.2549812 25
-2.042397 2.416735 -0.2552412 11
-29.22644 19.56476 -1.429429 85
-2.991883 2.43221 -0.1779487 22
-2.480191 2.427161 -0.179774 30
-2.070702 2.425641 -0.1832637 8
nan nan nan 0
-2.989305 2.448216 -0.08878128 24
-2.493571 2.453837 -0.1008343 18
-2.066195 2.433986 -0.1090073 8
-2.033783 2.378181 -0.5603605 11
-2.020676 2.396962 -0.3483063 10
-2.07916 2.461415 0.1278198 11
-79.56772 53.93879 5.590849 15
-2.086391 2.497033 0.2614467 14
-79.11286 54.17614 11.76831 13
-2.128529 2.54856 0.5980234 10
nan nan nan 0
nan nan nan 0
-2.980243 2.452997 0 22
-2.490273 2.459211 -0.01811644 26
-2.058091 2.436483 -0.03683433 9
nan nan nan 0
-2.994409 2.457751 0.08901339 24
-2.515965 2.475228 0.05969084 21
-2.085267 2.459326 0.03891115 9
nan nan nan 0
nan nan nan 0
-8.546206 5.78635 -1.428469 78
-15.44539 10.64942 -1.772974 9
-22.05175 15.08864 -1.711302 12
-2.906049 2.402912 -0.2608892 12
-2.414369 2.401482 -0.254228 25
-2.027555 2.416203 -0.254427 9
-29.12897 19.64711 -1.428006 72
-2.971776 2.433152 -0.1772499 21
-2.464594 2.42879 -0.1792506 27
-2.05578 2.425228 -0.1826828 8
-29.80416 20.26153 -0.6283739 30
-2.969168 2.449099 -0.08843312 25
-2.474346 2.451967 -0.1003972 18
-2.054472 2.437357 -0.1088345 9
-2.019113 2.377755 -0.5585759 9
-2.005932 2.39637 -0.3471881 10
-2.064147 2.460991 0.1274184 11
-79.07391 54.0079 5.569357 13
-2.071311 2.496618 0.260636 12
-78.60464 54.23216 11.72078 10
-2.110219 2.544599 0.5953336 11
nan nan nan 0
-32.36908 22.0378 0.2253138 37
-2.96011 2.453818 0 24
-2.471043 2.457306 -0.01803789 25
-2.043161 2.435981 -0.0367174 9
-35.62394 24.22589 1.269916 25
-2.974249 2.45864 0.08866523 27
-2.49666 2.473434 0.05943429 22
-2.073457 2.46276 0.03885006 8
nan nan nan 0
nan nan nan 0
-8.550511 5.832879 -1.432597 78
-15.44901 10.73165 -1.777688 9
-21.93321 15.12023 -1.706181 12
-2.886141 2.403471 -0.2598428 11
-2.39541 2.399304 -0.2530981 26
-2.015926 2.419432 -0.25402 10
-29.02302 19.7234 -1.426176 77
-2.947845 2.430809 -0.1763183 20
-2.445474 2.426821 -0.1784656 29
-2.040886 2.424741 -0.182102 9
-30.14162 20.64506 -0.6370128 27
-2.949061 2.449872 -0.08808496 25
-2.4587 2.453524 -0.1001058 18
-2.039551 2.436839 -0.108489 11
-2.004471 2.377255 -0.5567913 10
-1.994386 2.39953 -0.346629 10
-2.049163 2.460492 0.1270171 13
-78.58472 54.07704 5.548156 9
-2.05626 2.496129 0.2598253 13
nan nan nan 0
-2.095083 2.544345 0.5935404 11
nan nan nan 0
nan nan nan 0
-2.940007 2.454528 0 24
-2.455388 2.458837 -0.01798554 27
-2.02826 2.435403 -0.03660046 9
nan nan nan 0
-2.950276 2.456222 0.08820102 27
-2.480936 2.475069 0.05926326 22
-2.058446 2.462301 0.03872789 9
nan nan nan 0
-0.2700721 0.189384 -0.07582346 9
-8.538265 5.868296 -1.433974 73
-15.46449 10.8226 -1.783817 8
-21.74094 15.09995 -1.695299 12
-2.866264 2.40392 -0.2587965 7
-2.376495 2.397022 -0.2519682 8
-2.001128 2.418763 -0.2532058 9
nan nan nan 0
-2.923966 2.428328 -0.1753866 24
-2.426397 2.424749 -0.1776806 31
-2.022826 2.420343 -0.1812306 9
-30.15579 20.80976 -0.6388453 48
-2.928986 2.450534 -0.0877368 25
-2.43955 2.451458 -0.09966861 18
-2.027845 2.440094 -0.1083163 9
-1.989857 2.376683 -0.5550067 10
-1.979686 2.398802 -0.3455109 10
-2.034207 2.459919 0.1266158 11
-78.47752 54.40789 5.553965 5
-2.044386 2.499429 0.25942 12
nan nan nan 0
-2.076869 2.540202 0.5908507 9
nan nan nan 0
-33.21405 22.95386 0.2323116 26
-2.919935 2.455127 0 25
-2.436233 2.456737 -0.017907 25
-2.013387 2.434751 -0.03648353 9
nan nan nan 0
-2.930188 2.456876 0.08785285 26
-2.461705 2.473079 0.0590067 22
-2.043465 2.461766 0.03860572 8
nan nan nan 0
-0.2854082 0.2012106 -0.08087836 10
-8.562532 5.929053 -1.441542 73
-15.50392 10.93099 -1.792773 6
-21.61859 15.12713 -1.689859 12
-2.84642 2.40426 -0.2577502 7
-2.357626 2.394639 -0.2508382 7
-1.989517 2.421877 -0.2527987 9
nan nan nan 0
-2.903973 2.428912 -0.1746878 21
-2.407365 2.422573 -0.1768955 32
-2.008003 2.419696 -0.1806498 7
nan nan nan 0
-2.908941 2.451086 -0.08738863 25
-2.423956 2.452845 -0.09937719 19
-2.012968 2.439439 -0.1079708 10
-1.97841 2.379826 -0.5541145 9
-1.968159 2.401849 -0.3449518 10
-2.022444 2.463138 0.1264151 11
nan nan nan 0
-2.029379 2.498801 0.2586093 12
nan nan nan 0
-2.061802 2.539787 0.5890575 11
nan nan nan 0
-32.13653 22.37555 0.2253138 11
-2.899896 2.455617 0 25
-2.42063 2.458097 -0.01785464 25
-1.998544 2.434026 -0.0363666 10
-34.4286 23.94427 1.236148 10
-2.910132 2.45742 0.08750469 27
-2.44252 2.470986 0.05875015 22
-2.031686 2.465021 0.03854464 9
nan nan nan 0
-0.2767238 0.1967352 -0.07835092 10
-8.501152 5.930592 -1.434662 86
nan nan nan 0
-21.46368 15.13064 -1.681857 12
-2.826607 2.404491 -0.2567038 6
-2.331836 2.385018 -0.2489551 9
-1.974765 2.421073 -0.2519846 9
-28.64667 19.90937 -1.417842 81
-2.884013 2.429387 -0.1739891 23
-2.391884 2.42385 -0.1763722 33
-1.990042 2.415118 -0.1797785 9
nan nan nan 0
-2.885116 2.448295 -0.08692442 25
-2.404883 2.450585 -0.09894004 19
-2.00128 2.44258 -0.107798 9
-1.96384 2.379118 -0.5523299 9
-1.953505 2.400985 -0.3438337 10
-2.007534 2.462427 0.1260138 11
nan nan nan 0
-2.014402 2.4981 0.2577986 12
-45.16218 32.1016 6.798481 21
-2.046763 2.539298 0.5872643 13
nan nan nan 0
nan nan nan 0
-2.879888 2.455997 0 25
-2.405047 2.459379 -0.01780228 27
-1.986883 2.437107 -0.03630813 9
nan nan nan 0
-2.886298 2.454618 0.08704048 26
-2.423379 2.468789 0.0584936 19
-2.016749 2.46435 0.03842247 9
nan nan nan 0
-0.2919578 0.2086964 -0.08340581 10
-8.593892 6.039906 -1.453928 16
-3.349334 2.401599 -0.3865565 25
-21.32936 15.14771 -1.675456 5
-2.810618 2.407857 -0.2560062 7
-2.333909 2.403881 -0.250085 11
-1.966302 2.427951 -0.2519846 9
-28.42556 19.90325 -1.410321 87
-2.864084 2.429752 -0.1732903 23
-2.376423 2.425048 -0.1758488 33
-1.972137 2.410443 -0.1789072 9
-29.61758 20.89963 -0.6320389 42
-2.865148 2.448614 -0.08657626 26
-2.389342 2.451802 -0.09864862 18
-1.964421 2.414615 -0.1062432 9
-1.949299 2.378338 -0.5505453 12
-1.941996 2.403919 -0.3432746 9
-1.99579 2.465531 0.1258132 11
nan nan nan 0
-1.999454 2.497325 0.2569879 12
-45.09424 32.29083 6.805184 17
-2.028687 2.53489 0.5845746 10
nan nan nan 0
-31.63651 22.35703 0.2228948 26
-2.859914 2.456267 0 23
-2.389485 2.460581 -0.01774992 26
-1.972086 2.436244 -0.0361912 9
-35.17938 24.8324 1.269327 17
-2.866318 2.454929 0.08669231 27
-2.407771 2.47007 0.05832257 22
-2.004988 2.467489 0.03836138 9
nan nan nan 0
-0.2713726 0.1958993 -0.07708719 10
nan nan nan 0
-3.349008 2.419095 -0.3874993 19
nan nan nan 0
-2.79464 2.41114 -0.2553087 7
-2.328962 2.415605 -0.2504616 17
-1.945351 2.419243 -0.2503562 7
nan nan nan 0
-2.844188 2.430007 -0.1725916 22
-2.360982 2.426168 -0.1753254 30
-1.957429 2.409553 -0.1783263 8
-29.5037 20.97392 -0.6311663 51
-2.841422 2.445565 -0.08611204 26
-2.373821 2.45294 -0.09835719 19
-1.94658 2.409779 -0.105725 13
-1.937886 2.381306 -0.549653 11
-1.92739 2.40292 -0.3421564 10
-1.980925 2.464684 0.1254119 14
nan nan nan 0
-1.984536 2.496476 0.2561772 13
-44.97319 32.44223 6.803965 14
-2.013719 2.534243 0.5827814 11
nan nan nan 0
-33.64393 23.95171 0.2376392 7
-2.839973 2.456428 0 25
-2.373944 2.461705 -0.01769756 27
-1.96357 2.443113 -0.0361912 9
nan nan nan 0
-2.846371 2.455131 0.08634415 28
-2.388708 2.467678 0.05806602 22
-1.990097 2.466679 0.03823921 9
nan nan nan 0
nan nan nan 0
-3.332357 2.381087 -0.5635433 10
-3.328458 2.421999 -0.3860851 38
-3.308341 2.389976 -0.2592396 18
-2.77114 2.407802 -0.2539136 6
-2.320516 2.423719 -0.2504616 14
-1.952406 2.445519 -0.2523916 6
nan nan nan 0
-2.828113 2.433409 -0.1721258 24
-2.345563 2.42721 -0.1748021 32
-1.936498 2.400809 -0.1771646 9
-29.3612 21.02731 -0.6296828 25
-2.821532 2.445652 -0.08576388 26
-2.358322 2.454001 -0.09806576 18
-1.935037 2.412656 -0.1055522 10
-1.923391 2.380393 -0.5478684 10
-1.915902 2.405741 -0.3415973 13
-1.9692 2.467673 0.1252112 11
-75.13342 54.05527 5.383189 18
-1.969649 2.495553 0.2553665 12
-44.80748 32.5611 6.796044 15
-1.998781 2.533522 0.5809882 9
nan nan nan 0
-33.51542 24.03695 0.2373224 19
-2.820065 2.456479 0 25
-2.358424 2.462751 -0.0176452 26
-1.939472 2.430386 -0.03589886 10
-35.17987 25.20253 1.275667 17
-2.826457 2.455223 0.08599599 26
-2.373154 2.46879 0.05789498 24
-1.984594 2.477519 0.0383003 9
nan nan nan 0
-0.2818531 0.206161 -0.08087836 10
-3.307932 2.381153 -0.560791 30
-3.287836 2.410101 -0.3823138 14
-3.304016 2.404441 -0.2595597 31
-2.747698 2.404329 -0.2525184 5
-2.312042 2.431805 -0.2504616 15
-1.91606 2.417122 -0.2487279 3
-3.364352 2.414651 -0.1668886 23
-2.808272 2.43346 -0.171427 23
-2.330166 2.428174 -0.1742787 32
-1.918766 2.395849 -0.1762933 8
nan nan nan 0
-2.801676 2.44563 -0.08541571 26
-2.339396 2.451365 -0.09762862 18
nan nan nan 0
-1.908927 2.379406 -0.5460838 12
-1.901343 2.404608 -0.3404791 14
-1.945096 2.454926 0.1242079 12
-74.79474 54.20883 5.372443 11
-1.960926 2.502413 0.2553665 13
-45.47848 33.29179 6.915475 12
-1.983872 2.532728 0.5791951 12
nan nan nan 0
nan nan nan 0
-2.803953 2.459718 0 23
-2.339482 2.460093 -0.01756666 26
-1.918584 2.421444 -0.03566499 7
-34.99036 25.25207 1.271981 16
-2.806578 2.455206 0.08564782 26
-2.357622 2.469822 0.05772395 21
-1.95109 2.453086 0.03781162 10
nan nan nan 0
-0.2653644 0.1959259 -0.07582346 10
-3.283548 2.381078 -0.5580387 11
-3.271387 2.41566 -0.381371 13
-3.271435 2.39829 -0.2576394 36
-2.724313 2.400722 -0.2511233 6
-2.300118 2.436233 -0.250085 17
-1.886086 2.396344 -0.2458783 24
-3.339693 2.414694 -0.1660755 114
-2.788466 2.433402 -0.1707283 21
-2.31479 2.42906 -0.1737554 31
-1.897992 2.386883 -0.1751315 6
-3.316954 2.416698 -0.07094403 23
-2.78561 2.448798 -0.08518361 25
-2.323953 2.452258 -0.09733719 26
nan nan nan 0
-1.894492 2.378349 -0.5442992 21
-1.886816 2.403403 -0.339361 8
-1.930351 2.453836 0.1238066 12
-74.21399 54.1841 5.344271 12
-1.936913 2.489549 0.2533398 14
-44.90263 33.11167 6.845401 14
-1.968994 2.531861 0.5774019 9
nan nan nan 0
-3.335868 2.434107 0.02355658 17
-2.784103 2.459565 0 23
-2.324018 2.460971 -0.0175143 26
-1.907036 2.424191 -0.03560652 5
nan nan nan 0
-2.786733 2.455081 0.08529966 26
-2.342111 2.470778 0.05755292 22
-1.961066 2.483455 0.03817813 8
nan nan nan 0
-0.280407 0.2081237 -0.08087836 10
-3.255201 2.377946 -0.5545982 9
-3.242946 2.412235 -0.3790139 13
-3.25099 2.400818 -0.2566793 29
-2.700988 2.396981 -0.2497282 6
-2.284784 2.436969 -0.2493317 17
nan nan nan 0
-3.331244 2.426337 -0.1660755 122
-2.768695 2.433235 -0.1700295 22
-2.302867 2.433496 -0.1734937 32
-1.908165 2.417032 -0.1768741 12
-3.304463 2.425309 -0.07085676 17
-2.765812 2.448572 -0.08483545 24
-2.30511 2.44943 -0.09690005 20
-1.894274 2.413106 -0.1046884 7
-1.883133 2.381083 -0.5434069 9
-1.87232 2.402125 -0.3382428 8
-1.924842 2.464502 0.1240072 10
-73.77105 54.25652 5.325974 13
-1.928211 2.496295 0.2533398 13
-44.35648 32.94864 6.779591 14
-1.957145 2.53482 0.5765053 8
nan nan nan 0
-3.323319 2.44278 0.02352778 13
-2.764289 2.459303 0 23
-2.308577 2.46177 -0.01746194 27
nan nan nan 0
nan nan nan 0
-2.766924 2.454847 0.08495151 27
-2.330047 2.475296 0.0574674 22
-1.927761 2.458767 0.03768945 6
nan nan nan 0
nan nan nan 0
-3.242888 2.386364 -0.5539101 9
-3.218557 2.411622 -0.3771283 14
-3.218546 2.394315 -0.254759 14
-2.677722 2.393107 -0.248333 7
-2.269473 2.437627 -0.2485785 19
nan nan nan 0
-3.306626 2.426151 -0.1652624 144
-2.748959 2.432961 -0.1693307 21
-2.287524 2.434239 -0.1729703 32
-1.887427 2.407943 -0.1757124 10
-3.279882 2.424963 -0.07050772 33
-2.74605 2.448238 -0.08448729 23
-2.286314 2.446501 -0.09646291 29
-1.86745 2.396023 -0.1036519 31
-1.868747 2.379892 -0.5416223 8
-1.857856 2.400776 -0.3371247 9
nan nan nan 0
-3.329558 2.473262 0.239027 30
-1.931588 2.518851 0.2549612 5
-44.36438 33.19543 6.798481 13
-1.942313 2.533818 0.5747121 13
nan nan nan 0
-3.29466 2.439517 0.02338379 13
-2.744511 2.458934 0 23
-2.293159 2.462492 -0.01740958 28
-1.868668 2.409752 -0.03519725 34
-3.282469 2.427919 0.1192943 24
-2.74715 2.454505 0.08460334 27
-2.314569 2.476106 0.05729637 20
nan nan nan 0
nan nan nan 0
nan nan nan 0
-3.218608 2.385895 -0.5511578 9
-3.194211 2.410868 -0.3752426 13
-3.214165 2.408521 -0.255079 11
-2.654516 2.3891 -0.2469379 7
-2.250803 2.434545 -0.2474485 22
nan nan nan 0
-3.28205 2.425822 -0.1644493 125
-2.732989 2.435899 -0.1688649 21
-2.272203 2.434905 -0.172447 31
-1.891245 2.430295 -0.1768741 10
-3.259357 2.427455 -0.07024594 18
-2.730045 2.451133 -0.08425518 24
-2.270965 2.447136 -0.09617148 18
nan nan nan 0
-1.857411 2.382516 -0.5407301 8
-1.846445 2.403301 -0.3365656 9
nan nan nan 0
-3.300902 2.469943 0.2375748 21
nan nan nan 0
-44.1333 33.26348 6.78081 15
-1.927513 2.532743 0.572919 10
nan nan nan 0
-3.266065 2.436083 0.0232398 14
-2.724769 2.458456 0 25
-2.274372 2.459463 -0.01733104 26
nan nan nan 0
-3.281997 2.445323 0.1195892 13
-2.727412 2.454055 0.08425518 26
-2.299113 2.476839 0.05712533 22
-1.895296 2.45236 0.03738402 5
nan nan nan 0
-0.2665053 0.202471 -0.07708719 10
-3.198343 2.388242 -0.5490935 8
-3.16991 2.409973 -0.373357 13
nan nan nan 0
-2.635068 2.388308 -0.2458916 7
-2.235552 2.435038 -0.2466953 21
-3.954283 5.181502 -0.5292083 6
-3.261528 2.42833 -0.1638395 189
-2.713314 2.435421 -0.1681662 22
-2.256906 2.435493 -0.1719236 32
nan nan nan 0
-3.238854 2.429833 -0.06998415 100
-2.710344 2.450596 -0.08390702 24
-2.252254 2.444017 -0.09573433 24
nan nan nan 0
-1.843074 2.381193 -0.5389455 11
-1.832033 2.40182 -0.3354475 11
nan nan nan 0
-3.28827 2.478451 0.2372844 24
nan nan nan 0
-44.08412 33.46833 6.791169 8
-1.912744 2.531595 0.5711257 12
nan nan nan 0
-3.245537 2.438476 0.02315341 27
-2.708766 2.461231 0 23
-2.259013 2.460018 -0.01727868 27
nan nan nan 0
-3.261438 2.447781 0.1191468 43
-2.711418 2.456851 0.08402307 26
-2.280293 2.473817 0.05686878 23
nan nan nan 0
nan nan nan 0
nan nan nan 0
-3.174139 2.387506 -0.5463412 8
-3.145654 2.408938 -0.3714713 14
nan nan nan 0
-2.615659 2.387409 -0.2448452 8
-2.220325 2.435453 -0.245942 22
-3.94519 5.207198 -0.5304295 6
-3.24103 2.430724 -0.1632297 127
-2.697382 2.438183 -0.1677003 22
-2.241633 2.436004 -0.1714002 33
nan nan nan 0
-3.218375 2.432099 -0.06972236 20
-2.69068 2.449951 -0.08355886 26
-2.236965 2.444486 -0.0954429 22
nan nan nan 0
-1.83176 2.383706 -0.5380532 10
-1.820645 2.404233 -0.3348884 10
-1.721521 2.267964 0.1127703 3
-3.255721 2.471837 0.2355418 35
nan nan nan 0
nan nan nan 0
-1.90095 2.534317 0.5702292 9
nan nan nan 0
-3.221041 2.437742 0.02303822 104
-2.689087 2.460551 0 25
-2.243678 2.460496 -0.01722632 28
nan nan nan 0
-3.228928 2.441099 0.1182621 18
-2.691743 2.456199 0.08367492 25
-2.264897 2.474383 0.05669774 24
nan nan nan 0
nan nan nan 0
nan nan nan 0
-3.149979 2.38663 -0.5435888 9
-3.121445 2.407764 -0.3695857 14
-3.129285 2.396619 -0.2502783 4
-2.599962 2.389778 -0.2441476 9
-2.205122 2.435793 -0.2451887 20
nan nan nan 0
-3.220554 2.433005 -0.1626199 119
-2.677769 2.437504 -0.1670016 22
-2.226383 2.436438 -0.1708769 33
nan nan nan 0
-3.19792 2.434251 -0.06946058 16
-2.674739 2.452576 -0.08332675 25
-2.2217 2.444879 -0.09515147 18
nan nan nan 0
-1.817474 2.382252 -0.5362686 9
-1.809263 2.406597 -0.3343293 10
-1.686603 2.237998 0.1109644 2
-3.247073 2.483186 0.2355418 17
-1.676457 2.249432 0.2249658 3
-3.24446 2.505269 0.4984456 23
-1.886231 2.533036 0.568436 12
nan nan nan 0
-3.19659 2.436868 0.02292303 16
-2.669445 2.459764 0 23
-2.228368 2.460896 -0.01717396 27
nan nan nan 0
-3.216407 2.449333 0.1181146 97
-2.672105 2.455439 0.08332675 26
-2.246164 2.47117 0.0564412 23
nan nan nan 0
nan nan nan 0
nan nan nan 0
-3.125865 2.385615 -0.5408365 8
-3.101217 2.409498 -0.3681715 14
-3.132765 2.416655 -0.2512384 7
-2.587942 2.395453 -0.2437989 8
-2.189945 2.436055 -0.2444355 18
nan nan nan 0
-3.196122 2.432153 -0.1618068 120
-2.658193 2.436717 -0.1663028 22
-2.207805 2.433097 -0.1700919 31
nan nan nan 0
-3.177489 2.436289 -0.06919879 16
-2.655139 2.45173 -0.08297858 26
-2.209807 2.448907 -0.09500576 17
nan nan nan 0
-1.806183 2.384655 -0.5353763 10
-1.797887 2.408911 -0.3337702 10
nan nan nan 0
-3.230469 2.488424 0.2349609 48
-1.677463 2.267308 0.2261818 4
-3.231774 2.513537 0.4978363 25
-1.871544 2.531683 0.5666428 9
nan nan nan 0
-3.176155 2.438893 0.02283663 12
-2.649842 2.458869 0 23
-2.213082 2.461221 -0.0171216 26
nan nan nan 0
-3.199898 2.454473 0.1178197 24
-2.652506 2.454572 0.08297858 25
-2.230829 2.47157 0.05627016 23
nan nan nan 0
nan nan nan 0
-0.2597904 0.2032589 -0.07582346 9
-3.101796 2.384461 -0.5380841 9
-3.081015 2.411121 -0.3667572 15
-3.100645 2.409238 -0.2493181 7
-2.572264 2.397673 -0.2431013 8
-2.174792 2.436242 -0.2436822 18
nan nan nan 0
-3.175705 2.434194 -0.1611969 119
-2.638656 2.435823 -0.1656041 21
-2.192618 2.433366 -0.1695685 32
nan nan nan 0
-3.157083 2.438215 -0.068937 16
-2.639241 2.454179 -0.08274648 26
-2.194578 2.449157 -0.09471433 18
nan nan nan 0
-1.791949 2.383071 -0.5335917 10
-1.786517 2.411174 -0.3332111 9
-1.662025 2.237668 0.1103624 2
-3.213866 2.493576 0.23438 42
-1.67248 2.277172 0.2265871 3
-3.211248 2.515637 0.4960082 35
-1.859792 2.53423 0.5657462 15
nan nan nan 0
-3.151785 2.437751 0.02272144 11
-2.630278 2.457869 0 23
-2.197821 2.461468 -0.01706924 30
nan nan nan 0
-3.179433 2.456478 0.1173773 9
-2.632946 2.453599 0.08263043 24
-2.215519 2.471893 0.05609913 25
nan nan nan 0
nan nan nan 0
-0.2744865 0.215872 -0.08087836 10
-3.081694 2.386194 -0.5360199 10
-3.06084 2.412632 -0.365343 13
-3.072548 2.404697 -0.2477179 8
-2.56024 2.403226 -0.2427525 8
-2.159664 2.436353 -0.242929 18
nan nan nan 0
-3.155312 2.436121 -0.1605871 118
-2.619157 2.434823 -0.1649053 21
-2.174128 2.429836 -0.1687835 30
nan nan nan 0
-3.132752 2.436964 -0.06858795 17
-2.619707 2.453132 -0.08239832 24
-2.182696 2.453067 -0.09456862 20
nan nan nan 0
-1.777747 2.381416 -0.5318071 10
-1.775153 2.413387 -0.332652 9
nan nan nan 0
-3.193331 2.495574 0.2335087 17
-1.658665 2.27493 0.2257764 3
-3.186847 2.514555 0.4935708 14
-1.845156 2.532744 0.5639531 16
nan nan nan 0
-3.127462 2.436469 0.02260625 11
-2.614396 2.460186 0 23
-2.182585 2.461639 -0.01701688 26
nan nan nan 0
-3.162942 2.461433 0.1170824 11
-2.617071 2.455937 0.08239832 25
-2.200233 2.472139 0.05592809 24
nan nan nan 0
nan nan nan 0
-0.2660482 0.2109482 -0.07835092 9
-3.057708 2.384776 -0.5332675 10
-3.040692 2.414033 -0.3639288 15
-3.036675 2.393822 -0.2454775 8
-2.548209 2.408724 -0.2424037 15
-2.144563 2.436388 -0.2421757 19
nan nan nan 0
-3.130997 2.434876 -0.159774 120
-2.599698 2.433717 -0.1642066 24
-2.159004 2.429942 -0.1682601 32
nan nan nan 0
-3.112408 2.438651 -0.06832617 15
-2.603851 2.455406 -0.08216621 25
-2.167506 2.453176 -0.09427719 24
nan nan nan 0
-1.763579 2.379691 -0.5300226 10
-1.760872 2.411533 -0.3315339 9
nan nan nan 0
-3.168895 2.494378 0.232347 16
-1.647801 2.276663 0.2253711 3
-3.170272 2.519499 0.4923521 12
-1.833429 2.535178 0.5630565 11
nan nan nan 0
-3.107125 2.438128 0.02251986 11
-2.5949 2.458985 0 22
-2.167376 2.461733 -0.01696452 28
nan nan nan 0
-3.138579 2.460148 0.1164926 10
-2.597578 2.454763 0.08205015 26
-2.184973 2.472309 0.05575706 23
nan nan nan 0
nan nan nan 0
nan nan nan 0
-3.03377 2.38322 -0.5305152 10
-3.020571 2.415322 -0.3625146 15
-3.004828 2.385823 -0.2435572 6
-2.532557 2.410729 -0.2417062 18
-2.129488 2.436347 -0.2414224 18
nan nan nan 0
-3.110667 2.436565 -0.1591642 117
-2.583915 2.435928 -0.1637407 23
-2.143906 2.429971 -0.1677367 31
nan nan nan 0
-3.09209 2.440226 -0.06806438 16
-2.584384 2.45416 -0.08181804 27
-2.155635 2.456969 -0.09413148 23
nan nan nan 0
-1.749445 2.377897 -0.5282379 11
-1.749536 2.413636 -0.3309748 9
nan nan nan 0
-3.148422 2.496137 0.2314757 16
-1.634044 2.274295 0.2245604 4
-3.149823 2.521261 0.4905241 12
-1.821707 2.537561 0.5621599 13
nan nan nan 0
-3.086814 2.439675 0.02243347 12
-2.579062 2.461128 0 25
-2.15548 2.465518 -0.01693834 28
nan nan nan 0
-3.118192 2.461815 0.1160502 11
-2.578125 2.453484 0.08170199 25
-2.169739 2.472402 0.05558603 24
nan nan nan 0
nan nan nan 0
nan nan nan 0
-3.005991 2.378458 -0.5270747 10
-3.000479 2.4165 -0.3611003 15
-2.976976 2.380743 -0.241957 8
-2.516922 2.412655 -0.2410086 21
-2.114439 2.43623 -0.2406691 21
nan nan nan 0
-3.090363 2.438142 -0.1585544 117
-2.564524 2.434623 -0.163042 23
-2.128834 2.429925 -0.1672134 32
nan nan nan 0
-3.067882 2.438583 -0.06771533 16
-2.568573 2.45626 -0.08158594 27
-2.140484 2.456938 -0.09384005 18
nan nan nan 0
-1.73824 2.380011 -0.5273457 10
-1.735311 2.411652 -0.3298567 9
-1.604388 2.224137 0.1085565 3
-3.12407 2.494674 0.230314 15
-1.628981 2.284048 0.2249658 4
-3.1294 2.522911 0.488696 9
-1.809991 2.539894 0.5612633 12
nan nan nan 0
-3.066531 2.44111 0.02234707 10
-2.563241 2.46319 0 24
-2.14031 2.465472 -0.01688598 26
nan nan nan 0
-3.093914 2.460264 0.1154604 10
-2.562323 2.455555 0.08146989 25
-2.157813 2.476191 0.05550051 23
-1.656479 2.287657 0.03402435 8
nan nan nan 0
-0.2752563 0.2226637 -0.08214208 9
-2.982161 2.376613 -0.5243224 11
-2.980415 2.417567 -0.3596861 14
-2.956976 2.381746 -0.2409969 8
-2.501304 2.414502 -0.240311 26
-2.099417 2.436039 -0.2399159 21
nan nan nan 0
-3.070086 2.439607 -0.1579445 120
-2.548785 2.436661 -0.1625762 23
-2.113789 2.429804 -0.16669 31
nan nan nan 0
-3.04763 2.439921 -0.06745355 16
-2.549176 2.454815 -0.08123778 25
-2.125359 2.456832 -0.09354862 25
-2.906476 4.045888 -0.1708529 18
-1.727041 2.382076 -0.5264534 10
-1.724002 2.413646 -0.3292976 8
-1.593714 2.225656 0.1083558 2
-3.099767 2.493073 0.2291522 16
-1.598028 2.257134 0.221723 4
-3.10129 2.518204 0.4856493 11
-1.792614 2.534133 0.5585735 12
nan nan nan 0
-3.046275 2.442433 0.02226068 11
-2.543843 2.461697 0 22
-2.121903 2.461561 -0.01680744 26
-2.880679 4.030686 -0.05747325 16
-3.073591 2.461693 0.115018 10
-2.546538 2.457546 0.08123778 25
-2.142617 2.476143 0.05532947 23
nan nan nan 0
nan nan nan 0
nan nan nan 0
-2.950647 2.368441 -0.5201939 11
-2.956522 2.41538 -0.3578004 14
-2.933127 2.379501 -0.2397167 7
-2.485704 2.416269 -0.2396135 26
-2.084422 2.435772 -0.2391626 19
nan nan nan 0
-3.049837 2.44096 -0.1573347 118
-2.529464 2.435157 -0.1618774 20
-2.098771 2.429606 -0.1661666 30
-2.955649 4.120703 -0.2927572 19
-3.02351 2.438014 -0.0671045 16
-2.529821 2.453265 -0.08088961 26
-2.110261 2.456649 -0.09325718 18
-2.880749 4.039722 -0.1701619 19
-1.718715 2.38809 -0.5264534 10
-1.709833 2.411532 -0.3281794 8
nan nan nan 0
-3.079397 2.494468 0.2282809 16
-1.598711 2.274949 0.2229391 3
-3.077098 2.516468 0.4832119 12
-1.780938 2.536345 0.557677 9
nan nan nan 0
-3.026047 2.443644 0.02217429 11
-2.528069 2.463586 0 23
-2.1068 2.461352 -0.01675508 28
-2.863703 4.036636 -0.05741479 18
-3.053297 2.46301 0.1145756 10
-2.527184 2.455975 0.08088961 25
-2.127449 2.47602 0.05515844 23
-2.880037 4.043408 0.06016873 12
nan nan nan 0
nan nan nan 0
-2.942362 2.378727 -0.5201939 10
-2.936528 2.416212 -0.3563862 13
-2.913198 2.38027 -0.2387565 8
-2.466556 2.414469 -0.2385671 28
-2.072681 2.439232 -0.238786 20
nan nan nan 0
-3.029616 2.442202 -0.1567249 117
-2.513773 2.437023 -0.1614116 21
-2.083779 2.429334 -0.1656433 30
-2.975937 4.179827 -0.2962424 19
-3.003326 2.439115 -0.06684271 16
-2.510508 2.451609 -0.08054145 26
-2.091949 2.452587 -0.09282004 23
-2.881042 4.070162 -0.1710257 20
-1.707516 2.390067 -0.525561 10
-1.698553 2.413417 -0.3276203 9
-2.772888 3.937316 0.19183 22
-3.059055 2.495752 0.2274096 15
-1.585074 2.272329 0.2221284 3
-3.04912 2.511444 0.4801652 12
-1.763658 2.530424 0.5549872 11
nan nan nan 0
-3.005848 2.444744 0.02208789 10
-2.512314 2.465395 0 24
-2.091723 2.461068 -0.01670272 28
-2.843847 4.038426 -0.05729786 19
-3.03303 2.464215 0.1141332 9
-2.511447 2.457793 0.0806575 26
-2.112307 2.475822 0.0549874 22
-2.874551 4.065693 0.06035199 19
nan nan nan 0
-0.2540137 0.2104334 -0.07582346 10
-2.930195 2.385861 -0.5195057 11
-2.916565 2.416935 -0.354972 15
-2.893299 2.380929 -0.2377964 7
-2.451005 2.416065 -0.2378696 30
-2.057728 2.438827 -0.2380327 20
nan nan nan 0
-3.00554 2.440189 -0.1559118 122
-2.494523 2.435321 -0.1607128 24
-2.072051 2.43279 -0.1653816 32
-2.932563 4.149396 -0.2933381 19
-2.983171 2.440104 -0.06658092 17
-2.491237 2.449848 -0.08019329 26
-2.07692 2.452244 -0.09252862 21
-2.843871 4.04746 -0.1696436 20
-1.696324 2.391994 -0.5246688 11
-1.684443 2.411174 -0.3265022 10
-2.767701 3.959266 0.1924319 23
-3.034881 2.49376 0.2262479 15
nan nan nan 0
-3.02504 2.509418 0.4777278 12
-1.749232 2.528464 0.553194 12
nan nan nan 0
-2.985679 2.445734 0.0220015 11
-2.493017 2.463612 0 25
-2.076674 2.460709 -0.01665036 28
-2.824013 4.040126 -0.05718092 18
-3.012793 2.465309 0.1136908 10
-2.495728 2.459531 0.0804254 28
-2.097193 2.475548 0.05481637 22
-2.851738 4.063416 0.06016873 18
nan nan nan 0
-0.2645834 0.2204186 -0.07961464 9
-2.918015 2.39294 -0.5188177 10
-2.892806 2.414364 -0.3530863 14
-2.869585 2.3783 -0.2365162 8
-2.435473 2.417581 -0.237172 30
-2.042803 2.438347 -0.2372794 20
nan nan nan 0
-2.981516 2.438038 -0.1550987 114
-2.47888 2.437015 -0.160247 20
-2.057102 2.432379 -0.1648583 34
-2.938097 4.188233 -0.2953711 19
-2.963047 2.440983 -0.06631914 16
-2.475563 2.451498 -0.07996118 27
-2.065132 2.455651 -0.0923829 20
-2.824018 4.049159 -0.1692981 19
-1.682315 2.389845 -0.5228841 11
-1.673192 2.412951 -0.3259431 6
-2.76808 3.989442 0.1934352 24
-3.014607 2.494807 0.2253766 15
-2.683556 3.912076 0.3826445 23
-3.008636 2.513609 0.4765091 12
-1.740396 2.534554 0.553194 14
nan nan nan 0
-2.96554 2.446612 0.02191511 11
-2.477311 2.465249 0 25
-2.061654 2.460275 -0.016598 29
-2.812739 4.05407 -0.05723939 19
-2.988723 2.463118 0.113101 9
-2.476478 2.45767 0.08007723 26
-2.085323 2.479025 0.05473085 24
-2.81471 4.040502 0.05968005 17
nan nan nan 0
nan nan nan 0
-2.901999 2.396816 -0.5174415 11
-2.872917 2.414855 -0.3516721 14
-2.84976 2.378726 -0.235556 8
-2.419961 2.419019 -0.2364744 30
-2.027907 2.437793 -0.2365262 22
nan nan nan 0
-2.961404 2.43892 -0.1544889 117
-2.459704 2.435117 -0.1595482 21
-2.042181 2.431894 -0.1643349 33
-2.929155 4.206662 -0.295952 19
-2.942952 2.441751 -0.06605735 16
-2.456366 2.449541 -0.07961302 26
-2.050145 2.455169 -0.09209147 27
-2.801347 4.046656 -0.1687799 19
-1.671152 2.391665 -0.5219919 11
-1.664759 2.418777 -0.3259431 7
-2.765454 4.015551 0.1942379 23
-2.994364 2.495744 0.2245053 15
-2.672684 3.925542 0.3830498 26
-2.988439 2.514526 0.4746811 11
-1.728775 2.536544 0.5522974 10
nan nan nan 0
-2.94158 2.44419 0.02179991 11
-2.461623 2.466807 0 23
-2.046662 2.459765 -0.01654565 29
-2.790077 4.051501 -0.05706399 19
-2.968555 2.463977 0.1126586 11
-2.460808 2.459237 0.07984512 26
-2.070251 2.478612 0.05455982 23
-2.792072 4.037957 0.05949679 18
nan nan nan 0
-0.2630382 0.2222604 -0.07961464 9
-2.882178 2.397446 -0.5153772 11
-2.853059 2.415235 -0.3502579 14
-2.833791 2.382249 -0.2349159 9
-2.404468 2.420377 -0.2357769 31
-2.016213 2.441011 -0.2361495 19
-2.801503 4.096917 -0.4021983 6
-2.937473 2.436507 -0.1536758 116
-2.444111 2.43664 -0.1590824 24
-2.030484 2.435171 -0.1640732 35
-2.897451 4.192205 -0.2942094 19
-2.922888 2.442409 -0.06579557 16
-2.440743 2.45102 -0.07938091 27
-2.038375 2.458461 -0.09194576 24
-2.778728 4.044045 -0.1682616 19
-1.6572 2.389388 -0.5202073 10
-1.656306 2.424573 -0.3259431 8
-2.737347 4.004542 0.1932346 24
-2.974151 2.496569 0.223634 16
-2.645038 3.914185 0.3810231 27
-2.968272 2.515332 0.472853 11
-1.717162 2.538484 0.5514009 12
nan nan nan 0
-2.921513 2.444833 0.02171352 10
-2.442433 2.464736 0 25
-2.034881 2.463038 -0.01651947 28
-2.770284 4.052955 -0.05694705 19
-2.948419 2.464725 0.1122162 10
-2.441633 2.45718 0.07949696 25
-2.055208 2.478124 0.05438878 21
-2.769486 4.035303 0.05931354 18
nan nan nan 0
nan nan nan 0
-2.858588 2.394793 -0.5126249 11
-2.829441 2.412283 -0.3483723 13
-2.817833 2.385689 -0.2342758 8
-2.388995 2.421658 -0.2350793 31
-2.001361 2.44032 -0.2353963 20
-2.798361 4.123178 -0.4038266 7
-2.917434 2.437154 -0.1530659 117
-2.428537 2.438083 -0.1586166 24
-2.015608 2.434548 -0.1635499 33
-2.868703 4.181698 -0.2927572 19
-2.902856 2.442957 -0.06553378 17
-2.425139 2.452421 -0.07914881 26
-2.023433 2.45784 -0.09165433 24
-2.756163 4.041326 -0.1677434 19
-1.646067 2.391101 -0.519315 11
-1.645052 2.426222 -0.325384 7
-2.717751 4.005798 0.1928333 24
-2.953969 2.497284 0.2227627 15
-2.647985 3.948247 0.3834552 8
-2.948136 2.516029 0.471025 11
-1.705556 2.540373 0.5505043 13
nan nan nan 0
-2.89765 2.44215 0.02159833 10
-2.426797 2.466122 0 25
-2.019933 2.462392 -0.01646711 29
-2.747713 4.050179 -0.05677165 19
-2.924486 2.462149 0.1116264 9
-2.422502 2.45502 0.07914881 25
-2.040194 2.477561 0.05421775 23
-2.752573 4.04081 0.05925245 19
nan nan nan 0
-0.2577543 0.2210057 -0.07835092 9
-2.835052 2.392005 -0.5098726 10
-2.80966 2.412432 -0.346958 15
-2.798084 2.385814 -0.2333157 12
-2.373543 2.42286 -0.2343817 30
-1.989685 2.443423 -0.2350196 21
-2.806187 4.166011 -0.4070833 7
-2.897426 2.437691 -0.1524561 119
-2.409468 2.435899 -0.1579178 22
-2.00076 2.433851 -0.1630265 32
-2.842869 4.175171 -0.2915955 18
-2.879037 2.440167 -0.06518473 16
-2.409555 2.453742 -0.0789167 26
-2.01168 2.461017 -0.09150861 25
-2.73365 4.038498 -0.1672251 20
-1.634942 2.392765 -0.5184227 11
-1.642105 2.440204 -0.3265022 7
-2.700966 4.011112 0.1926326 24
-2.933818 2.497889 0.2218914 15
-2.639699 3.96577 0.3842658 8
-2.924263 2.513386 0.4685876 12
-1.693958 2.542213 0.5496076 9
nan nan nan 0
-2.877657 2.44256 0.02151194 11
-2.407684 2.463856 0 25
-2.005015 2.46167 -0.01641475 30
-2.725195 4.047294 -0.05659624 19
-2.904423 2.462662 0.111184 10
-2.406917 2.456324 0.0789167 29
-2.025208 2.476924 0.05404672 25
-2.73286 4.042104 0.05913028 18
nan nan nan 0
nan nan nan 0
-2.815348 2.392283 -0.5078083 11
-2.789912 2.412474 -0.3455438 16
-2.785948 2.392322 -0.2329956 26
-2.358112 2.423984 -0.2336842 30
-1.971747 2.438716 -0.2338897 20
-2.750152 4.113591 -0.400977 7
-2.873634 2.434894 -0.151643 116
-2.393947 2.437172 -0.157452 22
-1.985942 2.433081 -0.1625031 33
-2.845021 4.209901 -0.2933381 18
-2.85908 2.440482 -0.06492295 17
-2.393992 2.454984 -0.07868459 27
-1.996783 2.46026 -0.09121718 23
-2.708408 4.031411 -0.1665341 19
-1.623826 2.394381 -0.5175304 12
-1.628074 2.437647 -0.325384 5
-2.681406 4.012202 0.1922313 24
-2.909905 2.49514 0.2207296 16
-2.631324 3.983283 0.3850766 8
-2.900445 2.510607 0.4661502 12
-1.682368 2.544002 0.5487111 13
nan nan nan 0
-2.857697 2.442861 0.02142555 11
-2.392102 2.465072 0 26
-1.990126 2.460875 -0.01636239 29
-2.705504 4.048462 -0.05647931 19
-2.880587 2.459826 0.1105942 10
-2.391352 2.45755 0.07868459 27
-2.010252 2.476212 0.05387568 24
-2.71039 4.039155 0.05894703 18
nan nan nan 0
nan nan nan 0
-2.79191 2.389238 -0.5050559 10
-2.773957 2.41567 -0.3446009 14
-2.770023 2.395515 -0.2323555 13
-2.342701 2.425029 -0.2329866 29
-1.956985 2.437804 -0.2331365 21
-2.741277 4.131477 -0.4017912 7
-2.853701 2.435198 -0.1510332 121
-2.378446 2.438367 -0.1569861 22
-1.971153 2.432236 -0.1619798 32
-2.783115 4.149283 -0.2884007 19
-2.839157 2.440687 -0.06466116 16
-2.37497 2.452558 -0.07833643 27
-1.981915 2.459428 -0.09092575 28
-2.688784 4.03252 -0.1661886 20
-1.612719 2.395948 -0.5166381 11
-1.608606 2.426729 -0.3231477 3
-2.661871 4.013205 0.19183 24
-2.88983 2.495511 0.2198583 15
-2.620131 3.996615 0.3854819 7
-2.880427 2.510949 0.4643222 11
-1.668095 2.541625 0.5469179 10
nan nan nan 0
-2.837771 2.443051 0.02133915 12
-2.373068 2.462612 0 26
-1.978396 2.463907 -0.01633621 29
-2.685838 4.049542 -0.05636238 19
-2.860601 2.460107 0.1101518 9
-2.375808 2.458697 0.07845248 29
-1.998461 2.479321 0.05379017 25
-2.690741 4.040263 0.05882486 19
nan nan nan 0
-0.2517324 0.2205683 -0.07708719 9
-2.772285 2.389287 -0.5029917 10
-2.754267 2.415508 -0.3431867 15
-2.757876 2.401898 -0.2320355 16
-2.323858 2.422399 -0.2319403 30
-1.939148 2.432918 -0.2320066 14
nan nan nan 0
-2.833802 2.435393 -0.1504234 118
-2.362966 2.439484 -0.1565203 22
-1.956395 2.431319 -0.1614564 36
-2.779661 4.175605 -0.2895624 18
-2.819267 2.440783 -0.06439938 16
-2.359462 2.453631 -0.07810432 25
-1.963958 2.454618 -0.09048862 27
-2.666433 4.02937 -0.1656703 19
-1.60162 2.397467 -0.5157458 11
nan nan nan 0
-2.642362 4.01412 0.1914286 25
-2.866017 2.492502 0.2186966 15
-2.587175 3.976473 0.3826445 7
-2.856709 2.507913 0.4618848 11
-1.659213 2.547432 0.5469179 15
nan nan nan 0
-2.814095 2.439863 0.02122396 11
-2.35754 2.463659 0 25
-1.963554 2.462975 -0.01628385 31
-2.663454 4.046355 -0.05618697 19
-2.836865 2.457012 0.109562 11
-2.360285 2.459765 0.07822037 26
-1.983551 2.478472 0.05361914 25
-2.668364 4.037109 0.0586416 19
nan nan nan 0
nan nan nan 0
-2.752693 2.389228 -0.5009274 11
-2.738348 2.418528 -0.3422439 14
-2.741963 2.404941 -0.2313954 17
-2.308503 2.423277 -0.2312427 27
-1.899729 2.400555 -0.2282402 4
nan nan nan 0
-2.813937 2.435479 -0.1498135 125
-2.347507 2.440522 -0.1560545 23
-1.941667 2.430327 -0.1609331 34
nan nan nan 0
-2.799411 2.44077 -0.06413759 17
-2.343974 2.454626 -0.07787222 25
-1.952271 2.457543 -0.0903429 23
-2.646875 4.030293 -0.1653248 19
-1.587819 2.394832 -0.5139612 11
nan nan nan 0
-2.622878 4.014947 0.1910273 25
-2.84602 2.492642 0.2178253 16
-2.554391 3.95615 0.3798071 8
-2.836769 2.508024 0.4600568 11
-1.644986 2.544936 0.5451248 13
nan nan nan 0
-2.798019 2.443106 0.02116636 11
-2.342033 2.464628 0 25
-1.951844 2.465892 -0.01625767 29
-2.643854 4.047251 -0.05607004 19
-2.813186 2.453781 0.1089722 11
-2.348234 2.464372 0.07810432 28
-1.971779 2.481465 0.05353362 25
-2.654256 4.046399 0.0586416 19
nan nan nan 0
nan nan nan 0
-2.733135 2.389061 -0.4988632 12
-2.718717 2.418163 -0.3408297 14
-2.726063 2.407902 -0.2307553 22
-2.293171 2.424077 -0.2305451 28
-1.922116 2.446396 -0.2320066 34
-2.651846 4.088826 -0.3948708 7
-2.794105 2.435456 -0.1492037 117
-2.335522 2.445092 -0.1558216 21
-1.926971 2.429263 -0.1604097 29
nan nan nan 0
-2.78335 2.443941 -0.06396306 17
-2.328509 2.455542 -0.07764011 29
-1.937495 2.456491 -0.09005147 17
-2.627343 4.031129 -0.1649793 19
-1.576754 2.396246 -0.513069 11
nan nan nan 0
-2.603422 4.015688 0.190626 26
-2.826056 2.492672 0.216954 16
-2.540566 3.965043 0.3798071 8
-2.820575 2.511321 0.458838 11
-1.633444 2.546517 0.5442281 11
nan nan nan 0
-2.778195 2.44297 0.02107997 10
-2.326548 2.465519 0 25
-1.940137 2.468757 -0.01623149 25
-2.62428 4.048058 -0.05595311 19
-2.793324 2.453708 0.1085298 10
-2.332743 2.465297 0.07787222 27
-1.960011 2.484406 0.0534481 24
-2.63467 4.047253 0.05851943 19
nan nan nan 0
nan nan nan 0
-2.713612 2.388787 -0.4967989 11
-2.702834 2.421007 -0.3398868 14
-2.710175 2.410781 -0.2301152 25
-2.277862 2.4248 -0.2298476 28
nan nan nan 0
-2.632173 4.08967 -0.3940566 7
-2.774308 2.435324 -0.1485939 118
-2.320094 2.445986 -0.1553557 23
-1.906131 2.420276 -0.159363 15
nan nan nan 0
-2.763553 2.443723 -0.06370128 17
-2.313066 2.456381 -0.077408 27
nan nan nan 0
-2.610546 4.036077 -0.1648066 19
-1.563015 2.393487 -0.5112844 13
nan nan nan 0
-2.583992 4.016342 0.1902247 25
-2.806128 2.492593 0.2160827 16
-2.532048 3.982304 0.3806177 7
-2.800693 2.511227 0.45701 11
-1.621912 2.548049 0.5433316 10
nan nan nan 0
-2.758406 2.442725 0.02099358 10
-2.311086 2.466332 0 24
-1.925361 2.467626 -0.01617913 4
-2.604733 4.048778 -0.05583617 19
-2.766 2.446915 0.1077925 11
-2.317273 2.466142 0.07764011 27
-1.939005 2.475483 0.05310604 23
-2.617818 4.052222 0.05845835 19
nan nan nan 0
nan nan nan 0
-2.697835 2.391685 -0.4954227 12
-2.683264 2.42044 -0.3384726 16
-2.690578 2.410255 -0.229155 20
-2.259171 2.4218 -0.2288012 28
nan nan nan 0
-2.545587 3.985354 -0.3830654 8
-2.754546 2.435084 -0.1479841 121
-2.304688 2.446802 -0.1548899 23
-1.913038 2.446591 -0.1606714 48
-2.70487 4.188831 -0.2878198 19
-2.743791 2.443398 -0.0634395 16
-2.294229 2.453492 -0.07705984 30
-1.908037 2.454167 -0.08946861 35
-2.591053 4.036748 -0.164461 19
-1.551982 2.394794 -0.5103921 11
nan nan nan 0
-2.56459 4.01691 0.1898234 25
-2.78996 2.495728 0.2155018 16
-2.52344 3.999554 0.3814285 8
-2.784534 2.514347 0.4557913 11
-1.60777 2.545367 0.5415384 15
nan nan nan 0
-2.738652 2.442373 0.02090718 10
-2.295647 2.467067 0 25
-1.919795 2.478287 -0.01620531 19
-2.587899 4.053629 -0.05577771 18
-2.742495 2.44328 0.1072026 11
-2.298414 2.463258 0.07729194 28
-1.939552 2.49408 0.05336258 7
-2.59827 4.052912 0.05833618 19
nan nan nan 0
nan nan nan 0
-2.678372 2.39121 -0.4933585 12
-2.66742 2.423108 -0.3375298 14
-2.674729 2.412959 -0.228515 20
-2.243921 2.422356 -0.2281037 29
nan nan nan 0
-2.582255 4.074248 -0.3907999 7
-2.738556 2.438052 -0.1475775 126
-2.289305 2.447541 -0.154424 22
-1.898366 2.445362 -0.160148 27
-2.668723 4.164603 -0.2854964 19
-2.724064 2.442964 -0.0631777 16
-2.278844 2.454163 -0.07682773 26
nan nan nan 0
-2.571587 4.037333 -0.1641155 20
-1.54096 2.396055 -0.5094998 10
nan nan nan 0
-2.542546 4.013167 0.1892214 25
-2.770091 2.495445 0.2146305 15
-2.512103 4.012566 0.3818338 7
-2.764711 2.514051 0.4539633 12
-1.59627 2.546791 0.5406418 13
nan nan nan 0
-2.718935 2.441912 0.02082079 11
-2.280231 2.467724 0 25
-1.895903 2.465147 -0.01607441 9
-2.568392 4.054185 -0.05566077 19
-2.707873 2.429515 0.1061704 13
-2.283002 2.463936 0.07705984 27
-1.936941 2.508753 0.05353362 5
-2.576069 4.049293 0.05815292 18
nan nan nan 0
-0.2434309 0.2225907 -0.07582346 10
-2.658945 2.390629 -0.4912942 12
-2.647913 2.42234 -0.3361156 15
-2.655195 2.412231 -0.2275548 22
-2.228694 2.422836 -0.2274061 27
nan nan nan 0
-2.552129 4.057908 -0.3883575 9
-2.718855 2.437609 -0.1469677 121
-2.270545 2.444544 -0.1537253 24
nan nan nan 0
-2.683582 4.220258 -0.2886911 18
-2.704375 2.442422 -0.06291592 17
-2.263482 2.454757 -0.07659562 28
nan nan nan 0
-2.554813 4.042058 -0.1639428 19
-1.527309 2.393115 -0.5077152 13
nan nan nan 0
-2.523213 4.013552 0.1888201 26
-2.75396 2.498403 0.2140497 16
-2.487582 4.004364 0.3802124 7
-2.748589 2.516994 0.4527446 12
-1.582191 2.543983 0.5388486 12
nan nan nan 0
-2.702968 2.444691 0.0207632 11
-2.264838 2.468304 0 25
nan nan nan 0
-2.548913 4.054654 -0.05554384 19
-2.706803 2.445642 0.1064653 10
-2.267614 2.464537 0.07682773 26
nan nan nan 0
-2.553926 4.045568 0.05796967 19
nan nan nan 0
nan nan nan 0
-2.643232 2.393259 -0.489918 10
-2.628444 2.421467 -0.3347013 16
-2.639386 2.414759 -0.2269147 21
-2.213492 2.423239 -0.2267085 28
nan nan nan 0
-2.532681 4.05833 -0.3875433 12
-2.702903 2.4404 -0.1465611 116
-2.255221 2.445116 -0.1532595 21
nan nan nan 0
-2.655539 4.208478 -0.287239 19
-2.684722 2.441773 -0.06265414 17
-2.248144 2.455274 -0.07636351 30
nan nan nan 0
-2.535388 4.042478 -0.1635973 20
-1.516321 2.39427 -0.5068229 10
nan nan nan 0
-2.506548 4.018094 0.1886194 26
-2.734151 2.497917 0.2131784 15
-2.46837 4.004532 0.3794017 7
-2.728827 2.516495 0.4509165 12
-1.565575 2.536918 0.5361589 11
nan nan nan 0
-2.683313 2.444028 0.0206768 10
-2.2461 2.465113 0 26
nan nan nan 0
-2.532102 4.059281 -0.05548537 19
-2.69825 2.455076 0.1064653 10
-2.25225 2.465061 0.07659562 26
nan nan nan 0
-2.53449 4.045979 0.0578475 19
nan nan nan 0
nan nan nan 0
-2.620203 2.389146 -0.4871657 11
-2.612667 2.423867 -0.3337585 15
-2.623591 2.417207 -0.2262746 17
-2.201666 2.427258 -0.2263597 29
-1.705738 2.266882 -0.2112917 8
-2.510644 4.054427 -0.3863221 14
-2.683263 2.439754 -0.1459513 118
-2.239921 2.445611 -0.1527936 24
nan nan nan 0
nan nan nan 0
-2.665107 2.441017 -0.06239235 16
-2.232831 2.455713 -0.0761314 30
nan nan nan 0
-2.515991 4.042813 -0.1632518 19
-1.502735 2.391208 -0.5050383 14
nan nan nan 0
-2.489883 4.022567 0.1884187 26
-2.71438 2.497323 0.2123071 16
-2.446592 4.00036 0.3781857 8
-2.705461 2.512517 0.4484791 11
-1.554149 2.538167 0.5352623 13
nan nan nan 0
-2.667386 2.446632 0.02061921 12
-2.230768 2.465527 0 24
nan nan nan 0
-2.512664 4.059587 -0.05536843 19
-2.697043 2.471221 0.1067603 10
-2.236909 2.465508 0.07636351 27
nan nan nan 0
-2.515083 4.046303 0.05772533 18
nan nan nan 0
-0.2518668 0.2348444 -0.07961464 11
-2.600888 2.388246 -0.4851014 12
-2.593263 2.422793 -0.3323443 15
-2.604149 2.416185 -0.2253145 19
-2.1865 2.42752 -0.2256622 27
-1.703777 2.280815 -0.212045 9
-2.491268 4.054667 -0.3855079 13
-2.663661 2.439002 -0.1453415 120
-2.221282 2.442336 -0.1520949 25
nan nan nan 0
-2.576131 4.146302 -0.2817207 18
-2.64553 2.440153 -0.06213056 17
-2.217541 2.456075 -0.0758993 25
nan nan nan 0
-2.499243 4.047316 -0.163079 20
-1.491783 2.39226 -0.504146 11
nan nan nan 0
-2.470607 4.022714 0.1880174 7
-2.694647 2.496622 0.2114358 15
-2.430032 4.004612 0.3777803 7
-2.685786 2.511792 0.4466511 12
-1.540188 2.53516 0.5334691 13
nan nan nan 0
-2.647795 2.445767 0.02053281 11
-2.215461 2.465863 0 23
nan nan nan 0
-2.495867 4.064069 -0.05530997 19
-2.684723 2.477237 0.1066128 8
-2.221594 2.465878 0.0761314 26
nan nan nan 0
-2.493084 4.042283 0.05754207 18
nan nan nan 0
nan nan nan 0
-2.585253 2.390597 -0.4837252 11
-2.573899 2.421614 -0.3309301 16
-2.584746 2.415057 -0.2243543 23
-2.171359 2.427706 -0.2249646 28
-1.686904 2.274728 -0.2109151 23
-2.471921 4.054822 -0.3846937 15
-2.644097 2.438142 -0.1447317 121
-2.206044 2.442666 -0.151629 21
nan nan nan 0
-2.551184 4.138262 -0.280559 19
-2.625992 2.439183 -0.06186878 17
-2.202276 2.456361 -0.07566719 27
-1.695197 2.277004 -0.08160004 11
-2.479888 4.047487 -0.1627335 20
-1.478262 2.389075 -0.5023614 12
nan nan nan 0
-2.45655 4.031313 0.1880174 25
-2.674951 2.495813 0.2105645 16
-2.413474 4.008797 0.377375 8
-2.662531 2.507563 0.4442137 12
-1.528798 2.536303 0.5325726 9
nan nan nan 0
-2.628243 2.444795 0.02044642 11
-2.200178 2.466124 0 25
-1.816878 2.449648 -0.01576025 11
-2.479069 4.068484 -0.0552515 19
-2.650394 2.462818 0.1055806 9
-2.202967 2.462447 0.07578324 27
nan nan nan 0
-2.476354 4.046693 0.05748099 19
nan nan nan 0
nan nan nan 0
-2.566003 2.389499 -0.481661 12
-2.558194 2.423747 -0.3299872 15
-2.561743 2.41041 -0.2230741 21
-2.156243 2.427815 -0.2242671 27
-1.673047 2.272569 -0.2101618 22
-2.45003 4.050626 -0.3834725 16
-2.624572 2.437175 -0.1441218 120
-2.19083 2.442919 -0.1511632 23
nan nan nan 0
-2.544522 4.159925 -0.2814303 18
-2.606493 2.438106 -0.06160699 17
-2.187037 2.45657 -0.07543508 29
-1.746597 2.363331 -0.08451432 10
-2.460563 4.047573 -0.162388 20
-1.467347 2.390023 -0.5014691 10
nan nan nan 0
-2.434724 4.027029 0.1874155 25
-2.655294 2.494898 0.2096932 16
-2.399466 4.017198 0.377375 7
-2.642944 2.506613 0.4423857 10
-1.517419 2.537397 0.5316759 10
nan nan nan 0
-2.60873 2.443717 0.02036003 11
-2.184921 2.466307 0 24
-1.784618 2.423751 -0.01555081 8
-2.457107 4.064269 -0.0550761 19
-2.630817 2.461828 0.1051382 9
-2.187715 2.462651 0.07555113 26
-1.777075 2.403982 0.05045501 10
-2.459623 4.051036 0.0574199 18
nan nan nan 0
nan nan nan 0
-2.550411 2.391678 -0.4802848 11
-2.538898 2.422369 -0.328573 16
-2.542432 2.409058 -0.222114 22
-2.141153 2.427849 -0.2235695 28
-1.662165 2.274367 -0.2097851 22
-2.42564 4.042049 -0.3818441 12
-2.605085 2.436102 -0.143512 119
-2.175642 2.443095 -0.1506974 22
-1.784733 2.418663 -0.1554378 20
-2.542911 4.190132 -0.2828825 19
-2.590679 2.440346 -0.06143247 17
-2.171823 2.456703 -0.07520297 28
-1.779691 2.425855 -0.08655433 11
-2.441268 4.047575 -0.1620425 20
-1.456444 2.390924 -0.5005768 12
nan nan nan 0
-2.415522 4.026928 0.1870141 25
-2.635676 2.493876 0.2088219 15
-2.385428 4.025549 0.377375 8
-2.630585 2.5124 0.4417764 11
-1.508553 2.542679 0.5316759 12
nan nan nan 0
-2.589257 2.442533 0.02027363 12
-2.169689 2.466414 0 24
-1.743719 2.385544 -0.01526283 9
-2.435205 4.059949 -0.05490069 19
-2.607637 2.457308 0.1045484 10
-2.172487 2.46278 0.07531902 27
-1.677055 2.285174 0.04780398 12
-2.442892 4.055311 0.05735882 18
nan nan nan 0
nan nan nan 0
-2.531229 2.390382 -0.4782205 13
-2.519643 2.420887 -0.3271588 14
-2.526777 2.41104 -0.2214739 21
-2.126089 2.427807 -0.2228719 27
-1.645441 2.268042 -0.2086553 23
-2.403882 4.037635 -0.3806229 13
-2.589281 2.438343 -0.1431055 123
-2.160479 2.443196 -0.1502315 24
-1.785124 2.436968 -0.1562228 20
-2.515419 4.177588 -0.2814303 18
-2.571247 2.439069 -0.06117068 17
-2.156634 2.45676 -0.07497086 27
-1.747694 2.399718 -0.08538861 10
-2.424563 4.05178 -0.1618697 19
-1.443016 2.387563 -0.4987922 12
nan nan nan 0
-2.393801 4.022447 0.1864122 26
-2.616098 2.492747 0.2079506 16
-2.368842 4.029552 0.3769697 8
-2.614635 2.514698 0.4405577 11
-1.499668 2.547929 0.5316759 15
nan nan nan 0
-2.569824 2.441242 0.02018724 11
-2.157775 2.470209 0 24
-1.688438 2.326838 -0.01484396 9
-2.415914 4.059826 -0.05478376 19
-2.591782 2.459527 0.1042535 10
-2.157285 2.462832 0.07508691 27
-1.713188 2.35165 0.04908673 10
-2.423602 4.055225 0.05723665 19
nan nan nan 0
-0.2477298 0.2392043 -0.07961464 10
-2.515681 2.392388 -0.4768444 11
-2.504012 2.422755 -0.326216 15
-2.511139 2.412942 -0.2208338 22
-2.111052 2.427689 -0.2221744 27
-1.649158 2.289964 -0.2101618 23
