# .PCD v0.7 - Point Cloud Data file format
VERSION 0.7
FIELDS x y z intensity
SIZE 4 4 4 4
TYPE F F F F
COUNT 1 1 1 1
WIDTH 1618
HEIGHT 1
VIEWPOINT 0 0 0 1 0 0 0
POINTS 1618
DATA ascii
-6.878471 -4.478673 -0.919126 35
-41.35135 -26.95289 1.980905 30
-30.21351 -34.58948 2.669957 36
-15.81787 -10.19289 1.527335 44
nan nan nan 0
-15.67707 -10.09834 3.391788 72
-9.4889 -10.68729 3.818875 73
-19.71759 -22.64204 0.1727002 13
nan nan nan 0
nan nan nan 0
-18.45667 -12.03365 -0.2571972 15
-30.15594 -34.66964 1.354558 44
-34.59306 -32.99748 1.109012 11
-24.80893 -19.6937 0.5411513 6
-36.45186 -23.85979 0.5318061 8
nan nan nan 0
nan nan nan 0
nan nan nan 0
-5.7706 -6.498642 -0.8193111 30
-7.057825 -8.005936 -0.6820243 62
-7.519712 -7.118617 -0.7212819 18
-8.035847 -6.307958 -0.7687101 20
-8.427802 -5.458856 -0.8170162 13
-8.75009 -10.06082 -0.5409143 95
nan nan nan 0
-9.665579 -7.660349 -0.6442556 13
-10.18506 -6.668796 -0.7060444 9
-11.7992 -13.46978 -0.3118745 31
-12.51936 -11.88205 -0.3998059 12
-12.31074 -9.700384 -0.4557945 29
-12.60269 -8.200163 -0.5184324 33
-5.095541 -3.345815 -1.098414 33
-6.74376 -4.35766 -0.8989992 95
-41.71786 -26.98472 1.993948 25
-30.36043 -34.51378 2.672281 36
-15.83656 -10.12688 1.525714 47
-9.239479 -10.39868 1.703124 28
-15.2894 -9.773458 3.300336 48
-9.503624 -10.62889 3.809816 28
nan nan nan 0
-22.11819 -20.89167 0 11
-18.91659 -14.85079 -0.1257155 16
-18.38101 -11.89313 -0.2555601 13
-30.31629 -34.60929 1.356327 37
nan nan nan 0
nan nan nan 0
-36.56427 -23.75147 0.5322337 9
nan nan nan 0
nan nan nan 0
nan nan nan 0
-5.796566 -6.482172 -0.8197826 30
-7.102283 -7.999916 -0.6836246 57
-7.551781 -7.099158 -0.7219794 18
-8.065684 -6.285996 -0.7694634 17
-8.455194 -5.434789 -0.8178303 13
-8.781866 -10.02646 -0.540711 97
nan nan nan 0
-9.707958 -7.638911 -0.6453023 13
-10.21665 -6.638639 -0.7066253 12
-11.96186 -13.55976 -0.3149287 31
nan nan nan 0
-12.32484 -9.641957 -0.4550659 42
-12.67742 -8.18592 -0.5203326 38
-5.123685 -3.338737 -1.101983 35
nan nan nan 0
-42.00102 -26.96036 2.002978 21
-30.53367 -34.46738 2.676928 35
-16.29689 -10.34109 1.566653 43
-9.288954 -10.38117 1.705561 29
-15.34004 -9.730562 3.303922 39
-9.566509 -10.62438 3.820169 10
-19.71965 -22.32767 0.1713468 9
-22.20192 -20.8246 0 13
-18.91704 -14.74472 -0.1253752 16
-16.65516 -10.69478 -0.2310039 11
-30.47327 -34.54448 1.357949 40
-24.91941 -23.4392 0.7933449 8
-24.98519 -19.55083 0.5420065 5
-36.67217 -23.63994 0.5326001 8
nan nan nan 0
-0.2272372 -0.2522777 -0.07835092 8
-4.467694 -5.046813 -0.9309819 32
-5.822486 -6.4656 -0.820254 30
-7.136812 -7.982518 -0.6842647 50
-7.583807 -7.079563 -0.722677 19
-8.091519 -6.260854 -0.7698399 19
-8.482517 -5.410596 -0.8186445 13
-8.820114 -9.99949 -0.5409143 97
nan nan nan 0
-9.750303 -7.617271 -0.646349 13
-10.24396 -6.605639 -0.7069157 10
-12.13524 -13.65998 -0.3182446 30
-12.50712 -11.70554 -0.3967885 15
-12.41369 -9.641791 -0.4571059 29
-12.748 -8.168563 -0.5220602 34
-5.143576 -3.326168 -1.103767 36
-7.155651 -4.552946 -0.9498754 34
-16.61264 -10.58587 0.789593 30
-30.67042 -34.37922 2.67838 35
-16.38772 -10.31865 1.571923 45
-9.381586 -10.41138 1.71592 16
-15.36142 -9.669099 3.301233 43
-9.645696 -10.63745 3.836992 36
-19.66458 -22.10924 0.1701948 15
-22.23423 -20.70948 0 12
nan nan nan 0
-16.65865 -10.61509 -0.2305362 25
-30.63018 -34.47901 1.359571 38
-25.07779 -23.42373 0.7957821 7
nan nan nan 0
-16.63821 -10.6469 0.2408582 27
nan nan nan 0
nan nan nan 0
-4.495162 -5.042285 -0.9330461 31
-5.848361 -6.448925 -0.8207254 31
-7.161296 -7.953847 -0.6839446 49
-7.615787 -7.05983 -0.7233746 20
-8.121234 -6.238645 -0.7705932 21
-8.513989 -5.388943 -0.8198657 14
-8.838385 -9.949959 -0.5398979 98
nan nan nan 0
-9.784726 -7.589309 -0.6468724 13
-10.27957 -6.577906 -0.707787 10
-12.1462 -13.57654 -0.3172847 32
-12.62845 -11.73669 -0.3993417 14
-12.46706 -9.613659 -0.4578345 33
-12.81018 -8.145452 -0.5234422 39
-5.155155 -3.308193 -1.103767 33
-7.163094 -4.52264 -0.9487572 36
-16.66638 -10.53849 0.7903956 28
-30.8436 -34.33136 2.683027 28
-16.52509 -10.32473 1.581651 45
-9.431205 -10.39327 1.718358 29
-15.41594 -9.628441 3.305715 41
-9.78694 -10.71787 3.878403 17
-18.40088 -20.54301 0.1586181 21
-11.14828 -10.31008 0 11
-18.8054 -14.44782 -0.1239614 17
-16.6956 -10.55688 -0.2305362 25
-30.79033 -34.41658 1.361341 29
-22.50616 -20.87482 0.711759 35
nan nan nan 0
-16.68372 -10.59412 0.2409804 35
nan nan nan 0
nan nan nan 0
nan nan nan 0
-5.874192 -6.432149 -0.8211968 30
-7.165568 -7.902915 -0.6817043 34
-7.647723 -7.03996 -0.7240722 19
-8.150892 -6.216304 -0.7713465 20
-8.545413 -5.367136 -0.821087 15
nan nan nan 0
nan nan nan 0
-9.823029 -7.564246 -0.6476575 13
-10.28561 -6.531288 -0.7066253 10
-12.237 -13.58236 -0.3184191 28
-11.16342 -10.30242 -0.3517596 17
-12.52039 -9.58527 -0.4585631 31
-12.85122 -8.108683 -0.5239605 37
-5.170823 -3.292817 -1.10466 31
-5.624509 -3.525225 -0.742457 17
nan nan nan 0
nan nan nan 0
-16.40005 -10.16724 1.566248 43
nan nan nan 0
nan nan nan 0
-9.73933 -10.59118 3.844757 7
nan nan nan 0
-11.1437 -10.2339 0 33
-19.11414 -14.57917 -0.1256631 13
-16.80436 -10.54369 -0.2315301 12
-30.95042 -34.35345 1.36311 34
-11.14485 -10.26356 0.3508312 35
nan nan nan 0
-16.72483 -10.53848 0.2410414 11
nan nan nan 0
nan nan nan 0
nan nan nan 0
-5.903344 -6.418937 -0.8221397 28
-7.172935 -7.855735 -0.679784 23
-7.679612 -7.019953 -0.7247697 18
-8.180492 -6.193832 -0.7720998 21
-8.581019 -5.347806 -0.8227153 13
nan nan nan 0
nan nan nan 0
-9.865241 -7.542039 -0.6487041 13
-10.34637 -6.519277 -0.7092392 11
-12.41866 -13.6877 -0.3219096 35
-11.16247 -10.22961 -0.350599 27
-12.59754 -9.574769 -0.4601659 33
-12.97264 -8.122078 -0.527761 38
-5.182285 -3.274748 -1.10466 33
-6.709027 -4.171169 -0.8844631 108
-42.92904 -26.71705 2.029264 17
nan nan nan 0
-16.43969 -10.11254 1.566653 44
-9.211287 -10.00936 1.665344 40
-15.73843 -9.677676 3.360407 37
-9.756559 -10.53586 3.836992 12
-18.45982 -20.32151 0.1578982 36
-11.17936 -10.19493 0 33
nan nan nan 0
-18.75982 -11.67882 -0.2579573 17
-31.10708 -34.28593 1.364732 31
-11.16216 -10.20772 0.3502509 37
-36.31602 -27.60748 0.7796581 18
nan nan nan 0
nan nan nan 0
nan nan nan 0
nan nan nan 0
-5.929093 -6.401945 -0.822611 29
-7.190186 -7.819624 -0.6788238 19
-7.715147 -7.003162 -0.7258161 18
-8.210035 -6.171228 -0.7728531 20
-8.612354 -5.325677 -0.8239366 14
-9.079656 -10.00862 -0.5482322 95
nan nan nan 0
-9.911396 -7.522648 -0.6500126 13
-10.39446 -6.498989 -0.7109818 9
-12.48996 -13.67011 -0.3225205 34
-11.22768 -10.2175 -0.3515275 21
-12.58301 -9.494618 -0.4584174 29
-13.09432 -8.134726 -0.5315616 28
-5.214537 -3.269688 -1.109121 33
nan nan nan 0
-42.94551 -26.5198 2.025652 19
-31.2689 -34.08006 2.688835 9
-15.98986 -9.75927 1.520444 43
-9.219195 -9.948014 1.66047 36
-15.77632 -9.625238 3.361304 38
-9.941442 -10.66073 3.895226 19
-18.55764 -20.28647 0.1581286 15
-11.24082 -10.17935 0 13
nan nan nan 0
nan nan nan 0
-31.28388 -34.23987 1.367239 27
-11.21253 -10.18214 0.3507151 17
-25.80145 -19.47318 0.5522686 13
nan nan nan 0
nan nan nan 0
-0.2380833 -0.2554602 -0.08087836 9
nan nan nan 0
-5.954797 -6.384852 -0.8230824 29
-7.224215 -7.801805 -0.6794639 22
-7.746955 -6.982869 -0.7265136 18
-8.239519 -6.148494 -0.7736063 22
-8.63939 -5.30079 -0.8247508 14
nan nan nan 0
nan nan nan 0
-9.981465 -7.521051 -0.652891 12
-10.44254 -6.478442 -0.7127244 12
-12.54776 -13.63747 -0.3227822 37
-12.82076 -11.58604 -0.4002701 14
-12.68008 -9.498572 -0.4607488 31
-13.13114 -8.09421 -0.5319071 22
-5.192482 -3.230703 -1.101983 34
nan nan nan 0
-43.19119 -26.46368 2.032876 23
-31.44526 -34.03304 2.693773 9
-16.03662 -9.711136 1.52166 38
-9.385862 -10.05732 1.684234 42
-15.88137 -9.613392 3.376546 87
-9.938937 -10.5837 3.879697 32
-18.62156 -20.21421 0.158071 12
-22.77443 -20.48213 0 30
nan nan nan 0
-19.00716 -11.64942 -0.2602375 26
-31.44042 -34.17091 1.368861 29
nan nan nan 0
-36.69592 -27.49416 0.7836775 14
nan nan nan 0
nan nan nan 0
nan nan nan 0
nan nan nan 0
-5.983859 -6.371288 -0.8240253 29
-7.254805 -7.780191 -0.679784 29
-7.778715 -6.96244 -0.7272112 18
-8.264938 -6.122662 -0.7739829 18
-8.662099 -5.27319 -0.8251579 11
-9.149307 -9.944992 -0.5482322 95
nan nan nan 0
-9.971669 -7.45925 -0.6505359 13
-10.4821 -6.452411 -0.7138861 11
-12.67681 -13.68162 -0.3248765 33
-12.80904 -11.49447 -0.3986454 17
-12.66102 -9.415488 -0.4588545 36
-13.19769 -8.071775 -0.5334619 17
-5.124147 -3.163523 -1.085029 35
-7.147464 -4.340264 -0.9364575 36
-43.73158 -26.5852 2.053945 15
-31.60806 -33.97058 2.697549 10
-15.98924 -9.606359 1.513959 30
-9.38694 -9.988322 1.678141 95
-15.90218 -9.550303 3.373856 39
-9.859719 -10.42609 3.834404 42
nan nan nan 0
nan nan nan 0
nan nan nan 0
-19.09898 -11.61416 -0.2609391 18
-31.61725 -34.12329 1.371368 31
nan nan nan 0
-25.78433 -19.1792 0.5490189 6
nan nan nan 0
nan nan nan 0
nan nan nan 0
nan nan nan 0
-6.009481 -6.35398 -0.8244967 29
-7.305815 -7.780294 -0.6820243 30
-7.810425 -6.941873 -0.7279087 19
-8.294295 -6.099681 -0.7747362 21
-8.676186 -5.240346 -0.8247508 14
-9.204329 -9.934991 -0.5494518 104
-9.396214 -8.434049 -0.5869511 15
-9.993637 -7.421422 -0.6502743 13
-10.5216 -6.426182 -0.7150478 11
-12.69039 -13.60072 -0.3240039 32
-12.75953 -11.36987 -0.3958601 17
-12.7863 -9.439498 -0.4622059 29
-13.23433 -8.03084 -0.5338074 12
-5.189725 -3.178977 -1.096629 37
-7.192374 -4.333217 -0.940371 47
-43.98669 -26.53042 2.06157 16
-20.49929 -21.87503 1.742022 9
-16.09974 -9.596392 1.521255 27
nan nan nan 0
-16.22282 -9.665858 3.434824 15
-9.9127 -10.4091 3.840874 48
-18.38345 -19.67809 0.1548744 13
nan nan nan 0
nan nan nan 0
-19.15225 -11.55517 -0.2611145 20
nan nan nan 0
nan nan nan 0
-25.83101 -19.07423 0.5485913 8
-38.22456 -23.15585 0.5455502 7
nan nan nan 0
-0.2341927 -0.2458345 -0.07835092 8
-4.332928 -4.627055 -0.8752468 49
-6.035055 -6.336571 -0.8249681 29
-7.350061 -7.77288 -0.6836246 31
-7.842088 -6.921169 -0.7286063 18
-8.323591 -6.076571 -0.7754895 20
-8.720081 -5.225385 -0.8271933 14
-9.252578 -9.917419 -0.550265 99
nan nan nan 0
-10.01144 -7.380568 -0.6497509 13
-10.55678 -6.397171 -0.7159192 10
-12.72068 -13.53812 -0.3235676 33
-12.75422 -11.2855 -0.3944674 26
-12.8232 -9.397761 -0.4623516 36
-13.27513 -7.992321 -0.5343257 10
-5.150314 -3.130224 -1.085922 38
-7.318386 -4.37429 -0.9549071 42
-44.21623 -26.4588 2.067991 12
-20.77419 -22.01393 1.758867 16
-16.39915 -9.697326 1.546386 43
-9.685742 -10.16334 1.718967 40
-16.26917 -9.616676 3.437514 35
-10.01246 -10.44069 3.865462 24
-23.1891 -24.65123 0.1947018 13
nan nan nan 0
nan nan nan 0
-19.12811 -11.44974 -0.2602375 22
-31.94367 -33.99644 1.375202 24
nan nan nan 0
-37.2802 -27.32708 0.7900057 13
-38.33516 -23.0403 0.5459778 9
nan nan nan 0
nan nan nan 0
-4.545938 -4.821051 -0.9151558 39
-6.064024 -6.322656 -0.8259109 29
-7.394345 -7.765253 -0.6852248 32
-7.873701 -6.900329 -0.7293039 18
-8.352827 -6.053328 -0.7762427 20
-8.742553 -5.197458 -0.8276004 13
-9.307656 -9.906916 -0.5514846 99
-9.477304 -8.388111 -0.5883487 17
-10.07744 -7.375059 -0.6523677 12
-10.5876 -6.365422 -0.7165 10
-12.80908 -13.53722 -0.3246148 34
-12.83109 -11.27391 -0.395628 21
-12.91251 -9.3941 -0.4643916 30
-13.33299 -7.963861 -0.5355349 11
-5.152779 -3.107154 -1.084137 41
-7.179695 -4.257585 -0.9347802 65
-30.53026 -18.12674 1.424478 7
-20.67901 -21.76033 1.744345 28
-16.63066 -9.75596 1.565032 40
-9.72116 -10.12946 1.718967 48
-16.40449 -9.619514 3.459032 38
nan nan nan 0
-23.25782 -24.55198 0.1945578 19
nan nan nan 0
-19.46464 -14.10781 -0.1256631 15
-19.14217 -11.36759 -0.2598867 28
-32.10679 -33.93193 1.377119 26
nan nan nan 0
-37.44812 -27.24972 0.791545 11
-38.5356 -22.97803 0.5476881 9
nan nan nan 0
-0.2326021 -0.2406572 -0.07708719 9
-4.678583 -4.927355 -0.9385508 27
-6.089513 -6.305031 -0.8263823 27
-7.42831 -7.746601 -0.6858649 33
-7.909025 -6.882627 -0.7303502 18
-8.382001 -6.029956 -0.776996 18
nan nan nan 0
-9.359341 -9.892517 -0.552501 97
-9.600305 -8.437423 -0.5941716 14
-10.13141 -7.360376 -0.6541994 13
-10.61833 -6.333535 -0.7170809 10
-12.8528 -13.48881 -0.3245275 27
-12.83647 -11.19947 -0.3945835 18
-12.89255 -9.310936 -0.4624974 32
-13.3951 -7.937639 -0.536917 11
-5.239627 -3.134545 -1.100198 39
-7.263061 -4.272761 -0.9437255 48
-30.56322 -18.00231 1.423073 33
-20.69618 -21.6267 1.739408 44
-16.53968 -9.625194 1.553277 55
nan nan nan 0
-15.74479 -9.159241 3.312888 11
-9.566771 -9.837143 3.666172 16
-23.38134 -24.51044 0.1948745 16
-24.61588 -21.3732 0 6
-19.52594 -14.04854 -0.1257417 16
-19.13003 -11.27026 -0.2591851 25
-32.2802 -33.87754 1.379478 26
nan nan nan 0
-37.64027 -27.18909 0.7935974 9
-38.71024 -22.89936 0.549032 10
nan nan nan 0
-0.2500079 -0.2574676 -0.08340581 9
nan nan nan 0
-6.114952 -6.287307 -0.8268537 27
-7.455305 -7.720624 -0.6858649 34
-7.940549 -6.8615 -0.7310478 18
-8.411115 -6.006454 -0.7777493 18
-8.67106 -5.073441 -0.8174232 13
-9.414482 -9.881498 -0.5537206 95
-9.528108 -8.315173 -0.5878828 16
-10.16109 -7.327887 -0.6544611 13
-10.65327 -6.304052 -0.7179522 10
-12.95517 -13.50159 -0.3259237 29
-12.87548 -11.1546 -0.3945835 26
-12.87216 -9.228026 -0.4606031 35
-13.45289 -7.908549 -0.5381262 12
-5.326728 -3.161368 -1.116259 31
-7.166314 -4.182341 -0.9291894 97
-30.64744 -17.90812 1.424077 7
-20.80618 -21.59027 1.742312 38
-16.46095 -9.502653 1.542738 53
-9.784719 -10.05424 1.717748 47
-15.64883 -9.030507 3.28599 38
-9.621318 -9.8244 3.673936 41
nan nan nan 0
-24.65247 -21.25449 0 11
-19.54637 -13.95996 -0.1255584 17
-19.1045 -11.16559 -0.2583081 22
nan nan nan 0
-24.10196 -20.83845 0.7387996 5
-37.82434 -27.12162 0.7954788 8
nan nan nan 0
nan nan nan 0
nan nan nan 0
-4.208341 -4.369742 -0.837402 107
-6.140343 -6.269482 -0.8273251 30
-7.485685 -7.698132 -0.6861849 35
-7.972022 -6.840239 -0.7317454 18
-8.444236 -5.985705 -0.7788792 18
nan nan nan 0
-9.469662 -9.870214 -0.5549402 68
-9.538204 -8.265506 -0.5867182 17
-10.20691 -7.306903 -0.6557695 12
-10.68812 -6.274403 -0.7188235 10
-13.03695 -13.49225 -0.3267963 27
-12.90297 -11.09981 -0.3942353 18
-12.8595 -9.151168 -0.4590002 37
-13.51063 -7.879152 -0.5393355 12
-5.337731 -3.142755 -1.116259 32
-7.387351 -4.276657 -0.9560252 45
-45.26001 -26.23211 2.099495 11
-20.91965 -21.55693 1.745507 36
-16.92656 -9.692654 1.583273 46
-9.46906 -9.6619 1.656204 88
-15.59059 -8.924538 3.267162 38
-9.672502 -9.807955 3.680407 46
nan nan nan 0
nan nan nan 0
nan nan nan 0
-19.13471 -11.09383 -0.2581911 22
nan nan nan 0
-24.00769 -20.61091 0.7336932 5
-38.01653 -27.05899 0.7975311 8
-30.68942 -17.86783 0.4333981 5
nan nan nan 0
nan nan nan 0
-4.413021 -4.55073 -0.8752468 77
-6.165684 -6.251556 -0.8277965 26
-7.516001 -7.675521 -0.686505 34
-8.003442 -6.818841 -0.7324429 17
-8.473233 -5.961929 -0.7796324 20
-8.205136 -4.724619 -0.7702016 17
-9.531816 -9.865853 -0.5565665 79
-9.578355 -8.241937 -0.5874169 16
-10.22421 -7.265445 -0.6552461 12
-10.72291 -6.244586 -0.7196948 11
-13.08745 -13.45024 -0.3268836 31
-12.93404 -11.0482 -0.3940032 24
-12.96077 -9.155235 -0.4614774 32
-13.57267 -7.851949 -0.5407175 12
-5.35717 -3.129059 -1.118044 30
-7.441027 -4.273088 -0.961057 40
-45.52022 -26.17106 2.10732 6
-21.0157 -21.5052 1.747249 21
-17.242 -9.793414 1.60962 23
-9.436521 -9.561651 1.644627 19
-15.74144 -8.93803 3.292266 43
-10.21697 -10.28835 3.874521 40
-23.85998 -24.49351 0.1967176 16
nan nan nan 0
-19.67198 -13.8433 -0.1257417 15
-19.10829 -10.98959 -0.2573141 20
-32.76562 -33.67379 1.385082 17
-24.04525 -20.49779 0.7326487 6
-38.20467 -26.99248 0.7994981 10
-39.23801 -22.66023 0.5531247 13
nan nan nan 0
-0.2359395 -0.2373861 -0.07708719 9
-4.605186 -4.716156 -0.9103392 39
-6.190973 -6.23353 -0.8282679 28
-7.549751 -7.656349 -0.6871451 36
-8.034811 -6.797307 -0.7331405 20
-8.498081 -5.935169 -0.780009 19
-8.507275 -4.858908 -0.7970691 15
-9.594054 -9.861177 -0.5581927 72
nan nan nan 0
-10.2291 -7.215325 -0.6539378 14
-10.75761 -6.214603 -0.7205661 10
-13.19728 -13.46877 -0.3284543 32
-12.96871 -10.99975 -0.3938872 20
-12.98855 -9.10707 -0.4613317 30
-13.626 -7.819438 -0.541754 11
-5.397871 -3.12758 -1.12429 31
-7.486129 -4.264284 -0.9649705 47
-48.46274 -27.63778 2.239153 14
nan nan nan 0
-18.30527 -10.31262 1.705686 34
-9.725114 -9.785715 1.689109 98
-15.84113 -8.921629 3.306612 34
-10.1265 -10.12623 3.826639 36
-19.52738 -19.90491 0.1603748 10
-24.08281 -20.32754 0 6
-19.48653 -13.61137 -0.1242494 16
-19.16391 -10.93273 -0.257548 24
-32.92143 -33.59849 1.386704 17
-24.00983 -20.3233 0.7293992 5
-38.39689 -26.92784 0.8015504 10
-39.42533 -22.58524 0.5546518 12
nan nan nan 0
-0.2334043 -0.2330829 -0.07582346 8
-4.739579 -4.820212 -0.9337342 34
-6.219731 -6.218925 -0.8292108 30
-7.583458 -7.637033 -0.6877852 35
-8.066125 -6.775635 -0.733838 18
-8.53104 -5.913989 -0.781139 19
nan nan nan 0
-9.610945 -9.809778 -0.5571763 88
-9.688972 -8.220112 -0.5906778 16
-10.29923 -7.211071 -0.6568162 13
-10.78357 -6.179494 -0.7208565 12
-13.2372 -13.4155 -0.3282797 30
-12.98027 -10.93188 -0.3930748 23
-13.01616 -9.058822 -0.4611859 39
-13.67927 -7.786651 -0.5427906 11
-5.395954 -3.101375 -1.121613 33
-7.301904 -4.125822 -0.9392529 96
nan nan nan 0
nan nan nan 0
-18.40207 -10.28267 1.711361 41
-9.934672 -9.927168 1.719576 99
-15.80346 -8.827917 3.292266 40
-9.891154 -9.821876 3.724406 20
-23.91797 -24.2125 0.1957961 17
-23.6823 -19.84828 0 19
-19.82978 -13.74836 -0.1261344 15
nan nan nan 0
-33.06308 -33.50827 1.387736 12
-24.11124 -20.2651 0.7303276 7
-38.58503 -26.85933 0.8035174 11
-39.63 -22.5191 0.5564233 11
nan nan nan 0
nan nan nan 0
-4.655407 -4.701501 -0.9137797 43
-6.244931 -6.200685 -0.8296822 27
-7.620651 -7.621106 -0.6887454 33
-8.097387 -6.753829 -0.7345356 18
-8.551632 -5.884174 -0.781139 22
-7.989063 -4.489671 -0.7453695 11
-9.631099 -9.761939 -0.5563632 98
-9.790175 -8.247391 -0.5951033 16
-10.29563 -7.155132 -0.6549845 15
-10.84414 -6.163998 -0.7234704 13
-13.33679 -13.42242 -0.3295887 29
-13.02218 -10.88971 -0.3931909 25
-13.10116 -9.050253 -0.4630802 29
-13.73248 -7.753585 -0.5438271 11
nan nan nan 0
-7.511382 -4.209491 -0.9644114 61
nan nan nan 0
-23.09402 -23.14276 1.900017 34
-18.47709 -10.24011 1.715009 35
-10.06082 -9.983348 1.735419 74
-15.88582 -8.80129 3.303026 25
-9.664119 -9.529471 3.626055 32
-19.8633 -19.96664 0.1619875 15
-23.8552 -19.85185 0 15
-20.18246 -13.88878 -0.1280717 17
nan nan nan 0
-33.26438 -33.47775 1.391275 13
-24.07054 -20.08792 0.726962 5
-38.78137 -26.79552 0.8056553 12
-39.76934 -22.41499 0.5572785 10
nan nan nan 0
-0.2384124 -0.2349024 -0.07708719 10
-4.654321 -4.667673 -0.9103392 47
-6.273623 -6.185843 -0.830625 30
-7.654283 -7.601493 -0.6893854 32
-8.128595 -6.731886 -0.7352332 18
-8.592709 -5.868343 -0.7830221 21
-8.953936 -4.990103 -0.8341137 14
-9.693272 -9.756625 -0.5579894 86
nan nan nan 0
-10.37809 -7.158836 -0.658648 12
-10.90038 -6.145704 -0.7257939 9
-13.3376 -13.32983 -0.3284543 26
-12.99859 -10.79309 -0.3913339 22
-13.16565 -9.027073 -0.4642459 32
-13.78127 -7.717803 -0.5446908 10
nan nan nan 0
-7.678084 -4.267634 -0.9839792 37
-74.38964 -41.39403 3.417623 5
-20.93892 -20.83639 1.716463 16
-17.20671 -9.458151 1.593812 31
nan nan nan 0
-17.3307 -9.522314 3.597106 31
-9.869797 -9.664695 3.690759 33
-24.10057 -24.05906 0.1959113 16
-23.96675 -19.8035 0 15
-20.23908 -13.82388 -0.128124 23
nan nan nan 0
-33.41638 -33.39676 1.39275 16
-24.15976 -20.01973 0.7275423 6
-38.9695 -26.72501 0.8076221 12
-39.96518 -22.34189 0.5589278 10
nan nan nan 0
-0.2392309 -0.2340687 -0.07708719 10
nan nan nan 0
-6.298731 -6.16739 -0.8310964 30
-7.691424 -7.585246 -0.6903456 36
-8.15975 -6.709809 -0.7359308 17
-8.609014 -5.835515 -0.7826455 18
-8.281979 -4.578292 -0.7697945 17
-9.699014 -9.694465 -0.5563632 105
-9.755313 -8.102242 -0.5895132 17
-10.43186 -7.142307 -0.6604797 12
-10.94355 -6.119789 -0.727246 9
-13.36631 -13.26558 -0.328018 34
-13.01305 -10.72857 -0.3906377 27
-13.23014 -9.003551 -0.4654116 28
-13.83434 -7.6842 -0.5457274 11
nan nan nan 0
-7.701638 -4.245599 -0.9850973 35
nan nan nan 0
nan nan nan 0
-17.29213 -9.426639 1.598676 27
-9.814701 -9.603838 1.681188 46
-17.71375 -9.652306 3.66973 29
-9.771947 -9.502191 3.641584 34
-24.12405 -23.91494 0.1954217 20
-24.10144 -19.77364 0 15
-20.36171 -13.80365 -0.1285953 20
nan nan nan 0
-33.58596 -33.33273 1.394962 16
nan nan nan 0
-39.17827 -26.66759 0.8100167 12
-40.16974 -22.27254 0.5606993 10
nan nan nan 0
nan nan nan 0
-4.788826 -4.736141 -0.9302937 39
-6.323788 -6.148838 -0.8315678 29
-7.724982 -7.565338 -0.6909857 29
-8.19471 -6.69075 -0.7369771 17
-8.645879 -5.816558 -0.784152 19
-8.582037 -4.704909 -0.7962549 18
-9.789504 -9.716884 -0.5596156 99
-9.810505 -8.090387 -0.5911437 16
-10.47738 -7.119878 -0.6617881 12
nan nan nan 0
-13.42322 -13.22937 -0.3282797 35
-13.10843 -10.73058 -0.3923784 23
-13.26563 -8.960114 -0.4655574 29
-13.88735 -7.650321 -0.5467639 10
nan nan nan 0
-7.720773 -4.22107 -0.9856564 21
-50.09472 -27.42096 2.292127 6
-20.69205 -20.30506 1.684516 53
-17.35563 -9.382803 1.601513 6
-9.52796 -9.258134 1.626346 102
-17.37944 -9.391742 3.59352 34
-9.871041 -9.531789 3.666172 40
-24.13257 -23.75691 0.1948169 24
-24.15093 -19.6736 0 15
-20.20234 -13.59295 -0.1272863 18
nan nan nan 0
-33.74482 -33.25739 1.396731 16
nan nan nan 0
-39.34569 -26.58104 0.811556 11
-40.34362 -22.18517 0.5620431 10
nan nan nan 0
-0.2442817 -0.2358119 -0.07835092 10
-4.840634 -4.754127 -0.9371747 38
-6.348792 -6.130187 -0.8320392 31
-7.762068 -7.548768 -0.6919459 32
-8.225763 -6.668388 -0.7376747 17
nan nan nan 0
-9.036357 -4.912711 -0.8369632 13
-9.869598 -9.728262 -0.5622582 104
-9.939147 -8.138379 -0.5971995 15
-10.52287 -7.097219 -0.6630965 13
-10.99476 -6.048049 -0.727827 13
-13.49075 -13.20343 -0.3288033 29
-13.18847 -10.71944 -0.393655 22
-13.30513 -8.919317 -0.4658488 31
-13.94028 -7.616164 -0.5478004 10
nan nan nan 0
nan nan nan 0
-50.19891 -27.2507 2.292529 3
-20.78068 -20.25013 1.685968 30
-18.38105 -9.854041 1.693121 5
-9.699445 -9.359267 1.650111 103
-17.43814 -9.344954 3.598899 20
nan nan nan 0
-24.2368 -23.6935 0.1949897 18
-24.33608 -19.68351 0 13
-20.12908 -13.44183 -0.1265271 17
nan nan nan 0
-33.90713 -33.18485 1.398648 17
nan nan nan 0
-39.52128 -26.49921 0.8132663 11
-40.61835 -22.15191 0.564792 9
nan nan nan 0
-0.2416689 -0.2315507 -0.07708719 10
-4.853656 -4.73374 -0.9364865 36
-6.373742 -6.111434 -0.8325107 28
-7.799133 -7.532031 -0.692906 31
-8.25676 -6.64589 -0.7383723 17
-8.698747 -5.764318 -0.785282 20
-8.746305 -4.715757 -0.8084674 17
-9.903496 -9.693752 -0.5622582 100
-9.990745 -8.122542 -0.598597 16
-10.53928 -7.054891 -0.6625732 14
-11.00266 -6.002466 -0.7269557 11
-13.56542 -13.18414 -0.3295014 37
-13.13246 -10.59799 -0.3908698 32
-13.31538 -8.85898 -0.4651202 30
-13.99315 -7.58173 -0.5488369 11
-5.433814 -2.973542 -1.116259 45
-7.877006 -4.235223 -1.00187 37
-49.8714 -26.848 2.273265 32
-20.67909 -20.01082 1.672027 43
nan nan nan 0
-9.520724 -9.122694 1.614159 35
-17.2404 -9.161753 3.55138 26
nan nan nan 0
nan nan nan 0
-24.42803 -19.61723 0 13
-20.55099 -13.62005 -0.1288833 18
-18.7165 -10.07976 -0.2481348 17
-34.06576 -33.1081 1.400418 16
nan nan nan 0
-39.77169 -26.46633 0.8165159 9
-40.7526 -22.0409 0.565586 10
nan nan nan 0
-0.2390293 -0.2273107 -0.07582346 10
-4.92347 -4.768493 -0.9468078 33
-6.39864 -6.092584 -0.8329821 28
-7.832577 -7.511672 -0.6935461 31
-8.2877 -6.623257 -0.7390698 18
-8.72298 -5.736657 -0.7856585 20
-8.78909 -4.699282 -0.8109099 19
-9.926531 -9.648673 -0.5616483 104
-10.02292 -8.090756 -0.5988299 16
-10.57216 -7.023583 -0.6630965 13
-11.03672 -5.971144 -0.727827 10
-13.60777 -13.13323 -0.3294142 36
-13.13817 -10.52707 -0.3899413 28
-13.28365 -8.771145 -0.4629345 29
-14.04154 -7.544657 -0.5497007 10
-5.431182 -2.947527 -1.113583 42
-7.812797 -4.165673 -0.9918063 48
-50.21163 -26.80549 2.284502 9
-20.75601 -19.94543 1.672608 22
-49.78969 -26.23536 4.574304 9
-9.581261 -9.116783 1.619034 32
-16.83268 -8.870038 3.460825 63
nan nan nan 0
-19.76243 -19.04996 0.1578694 28
-24.55109 -19.57548 0 14
-20.32687 -13.36966 -0.1271816 16
nan nan nan 0
-34.26382 -33.06882 1.403809 15
nan nan nan 0
-26.33082 -17.3904 0.5390989 11
-41.02316 -22.00247 0.5682738 9
nan nan nan 0
nan nan nan 0
-4.922253 -4.734099 -0.9433674 36
-6.423483 -6.073633 -0.8334535 30
-7.869585 -7.494614 -0.6945062 31
-8.318583 -6.600489 -0.7397673 19
-8.759654 -5.71707 -0.7871651 21
-8.75259 -4.640591 -0.8060249 25
-9.967337 -9.620906 -0.5620549 102
-10.08228 -8.080714 -0.6006932 16
-10.62162 -7.003125 -0.6646666 13
-11.13228 -5.972668 -0.7327643 10
-13.65714 -13.08911 -0.3295014 32
-13.17484 -10.48115 -0.3899413 21
-13.20131 -8.650775 -0.4590002 36
-14.09426 -7.509687 -0.5507372 10
-5.541124 -2.982092 -1.134105 33
-7.792138 -4.119819 -0.9873337 49
-49.81475 -26.37064 2.262229 15
nan nan nan 0
-18.49207 -9.665635 1.693931 41
-9.616632 -9.086693 1.619644 31
-16.71092 -8.731545 3.429444 29
-9.883501 -9.280589 3.622173 38
nan nan nan 0
-24.70159 -19.55484 0 17
-20.49902 -13.3806 -0.127967 16
-18.5257 -9.810863 -0.2446852 31
-34.41874 -32.98706 1.405431 18
nan nan nan 0
-40.14365 -26.31135 0.8203642 9
-41.19683 -21.91078 0.5696177 10
nan nan nan 0
-0.2544902 -0.2391198 -0.08087836 9
nan nan nan 0
-6.451898 -6.057992 -0.8343962 27
-7.902946 -7.473959 -0.6951463 32
-8.34549 -6.574499 -0.7401161 17
-8.787928 -5.691878 -0.7879184 21
-8.918752 -4.688772 -0.8198657 16
-10.00807 -9.592972 -0.5624614 98
-10.13778 -8.067245 -0.6023237 16
-10.6669 -6.979671 -0.665975 13
-11.15306 -5.933773 -0.7327643 10
-13.6593 -12.99999 -0.3284543 26
-13.13289 -10.37312 -0.3876202 26
-13.35714 -8.686368 -0.4633716 38
-14.1469 -7.474441 -0.5517737 11
-4.526727 -2.416932 -0.9235241 16
-7.907717 -4.145591 -1.000192 42
-18.46208 -9.69491 0.8359452 41
-21.49247 -20.36666 1.720529 17
-18.54782 -9.612486 1.695958 36
-9.622969 -9.029289 1.615378 19
-16.68451 -8.643762 3.417789 28
-9.919368 -9.249329 3.623466 29
nan nan nan 0
-24.62425 -19.35417 0 17
-20.60855 -13.34974 -0.1283597 17
-18.5067 -9.718258 -0.2439836 41
-34.62779 -32.95631 1.409265 14
nan nan nan 0
-40.3065 -26.2174 0.821818 9
-18.50565 -9.762946 0.2551521 32
nan nan nan 0
-0.2762134 -0.2583823 -0.08846071 8
-4.965954 -4.709852 -0.9454317 33
-6.476643 -6.03883 -0.8348677 28
-7.939894 -7.456581 -0.6961065 30
-8.376245 -6.551476 -0.7408137 18
-8.824521 -5.671947 -0.7894249 19
-8.970428 -4.676019 -0.8231224 12
-10.04511 -9.561424 -0.5626647 101
-10.20506 -8.062778 -0.6046528 15
-10.70795 -6.95327 -0.6670218 12
-11.17371 -5.894805 -0.7327643 11
-13.66827 -12.91788 -0.3275817 37
-13.16509 -10.32413 -0.3875042 26
-13.35798 -8.620722 -0.4623516 39
-14.19947 -7.438918 -0.5528103 11
-5.58791 -2.95712 -1.139459 35
-7.992701 -4.154585 -1.009138 36
-18.54456 -9.655775 0.8381525 46
-21.63976 -20.36337 1.726629 10
nan nan nan 0
-9.643539 -8.98549 1.61355 30
-16.64456 -8.54953 3.403443 27
-9.930338 -9.194951 3.615702 24
nan nan nan 0
-24.88481 -19.41883 0 16
-16.61719 -10.68249 -0.103227 13
-18.53608 -9.65129 -0.2439251 38
-24.99099 -23.6168 1.013338 37
nan nan nan 0
-40.46077 -26.11721 0.8231007 9
-18.53076 -9.693657 0.2550299 46
nan nan nan 0
nan nan nan 0
-4.975159 -4.685693 -0.9440555 38
-6.504985 -6.022954 -0.8358105 28
-7.973168 -7.435629 -0.6967466 31
-8.403002 -6.525256 -0.7411625 19
-8.856878 -5.64915 -0.7905548 18
-8.858274 -4.578395 -0.811317 36
-10.08568 -9.533169 -0.5630713 97
-10.24493 -8.036356 -0.6053516 16
-10.74894 -6.926666 -0.6680684 13
-11.18979 -5.853454 -0.7324739 10
-13.71692 -12.87351 -0.3276689 35
-13.19711 -10.27504 -0.3873882 30
-13.3922 -8.576736 -0.4624974 28
-14.24752 -7.400816 -0.553674 11
-4.573998 -2.401248 -0.9297702 14
-8.029245 -4.138028 -1.011933 37
-18.65363 -9.629923 0.8415636 5
-21.69612 -20.27407 1.725467 25
nan nan nan 0
nan nan nan 0
-16.58663 -8.44676 3.385511 22
-10.04056 -9.232178 3.644172 72
nan nan nan 0
-25.06311 -19.4176 0 18
-16.65016 -10.62173 -0.1032008 23
-18.62742 -9.616328 -0.2446852 26
nan nan nan 0
-39.64121 -30.80188 1.164602 12
-16.64023 -10.66027 0.3373644 10
-18.60443 -9.649621 0.2555797 20
nan nan nan 0
nan nan nan 0
-4.962571 -4.641212 -0.9385508 37
-6.529631 -6.003582 -0.836282 27
-8.006393 -7.414536 -0.6973867 32
-8.433628 -6.501978 -0.7418601 18
-8.889184 -5.626196 -0.7916847 18
-9.233541 -4.731329 -0.8442907 18
-10.12618 -9.504745 -0.5634778 95
-10.2611 -7.991337 -0.6046528 17
-10.79409 -6.902551 -0.6693769 14
-11.20573 -5.812062 -0.7321835 10
-13.74349 -12.80851 -0.3272326 28
-13.24871 -10.24114 -0.3878523 27
-13.41784 -8.527257 -0.4623516 32
-14.29993 -7.364757 -0.5547106 11
-5.634615 -2.93164 -1.144813 37
nan nan nan 0
-21.37365 -10.93892 0.9627617 39
-21.81066 -20.23897 1.728952 46
-20.93871 -10.57412 1.90471 17
nan nan nan 0
-16.65114 -8.406536 3.392684 28
-10.02638 -9.154721 3.627349 39
-22.45931 -20.90673 0.1765016 40
-25.22981 -19.40621 0 18
-16.69981 -10.57156 -0.1032794 20
-18.63416 -9.537589 -0.2443344 22
-22.50116 -20.96764 0.9062826 5
-39.72474 -30.645 1.163905 19
-16.63093 -10.57262 0.3364237 28
-21.42166 -11.01523 0.2938189 35
nan nan nan 0
-0.2648373 -0.2421874 -0.08340581 10
-4.906219 -4.556398 -0.9247891 39
-6.554223 -5.984111 -0.8367534 30
-8.039568 -7.393302 -0.6980268 31
-8.468153 -6.481595 -0.7429064 18
-8.917215 -5.600435 -0.792438 19
-9.098898 -4.622411 -0.8304499 32
-10.18122 -9.489788 -0.5646974 87
-10.34819 -8.001306 -0.6081466 16
-10.82234 -6.867505 -0.6696386 13
-11.27923 -5.800282 -0.7356687 12
-11.16177 -10.32842 -0.264753 12
-13.17732 -10.11265 -0.3847189 29
-13.45598 -8.4857 -0.4626431 35
-14.34335 -7.323879 -0.5554015 11
-4.590651 -2.369257 -0.9297702 12
nan nan nan 0
-21.43843 -10.8778 0.9639656 15
-11.13133 -10.25346 0.8782716 18
-20.96658 -10.4965 1.903899 20
-10.41508 -9.503092 1.726279 48
-16.74198 -8.379163 3.405236 23
-10.06185 -9.122911 3.628643 13
-11.09345 -10.25067 0.0867677 14
-25.4166 -19.40907 0 14
-16.80013 -10.55309 -0.1036721 10
-18.72085 -9.499619 -0.245036 10
-11.13116 -10.29629 0.4462107 38
-40.18465 -30.77667 1.174234 12
-16.70156 -10.53584 0.3371079 17
-21.44662 -10.93358 0.2936356 20
nan nan nan 0
-0.2621529 -0.2379517 -0.08214208 9
-4.892992 -4.512362 -0.9192843 41
-6.582442 -5.967887 -0.8376962 31
-8.072693 -7.371928 -0.6986669 31
-8.498669 -6.458033 -0.7436039 18
-8.957869 -5.582455 -0.7943212 18
-9.377648 -4.722731 -0.8544678 25
-10.19229 -9.433821 -0.5634778 92
-10.32852 -7.928633 -0.6053516 15
-10.88005 -6.850965 -0.671732 12
-11.2994 -5.760875 -0.7356687 10
-11.15359 -10.24879 -0.2637058 35
-13.137 -10.00903 -0.3825139 28
-13.48551 -8.438677 -0.4626431 32
-14.39559 -7.2873 -0.556438 11
nan nan nan 0
nan nan nan 0
nan nan nan 0
-11.14864 -10.19769 0.8768194 42
-21.11024 -10.4764 1.913628 10
-10.06217 -9.116653 1.662298 95
-16.78876 -8.329412 3.408823 24
-11.7764 -10.60397 4.235574 25
-11.14021 -10.22203 0.08685409 40
-25.35272 -19.22054 0 16
nan nan nan 0
-20.36646 -10.2449 -0.2661427 11
-11.13759 -10.23032 0.445031 44
-40.36346 -30.69067 1.176323 10
nan nan nan 0
nan nan nan 0
nan nan nan 0
-0.2629819 -0.2370352 -0.08214208 9
-4.941559 -4.525383 -0.9254771 42
-6.606931 -5.948206 -0.8381675 27
-8.105765 -7.35041 -0.699307 29
-8.529121 -6.434337 -0.7443016 18
-8.964578 -5.543288 -0.7931913 21
nan nan nan 0
-10.21045 -9.384658 -0.5626647 93
-10.376 -7.90767 -0.6065162 14
-10.94625 -6.839398 -0.6743488 12
-11.39519 -5.759644 -0.7406061 9
-11.1893 -10.2098 -0.2637058 42
-13.22368 -10.00232 -0.3840226 33
-13.51489 -8.391553 -0.4626431 29
-14.47007 -7.261643 -0.5583383 10
-5.722072 -2.901351 -1.156413 34
-8.00615 -3.985711 -1.00187 46
nan nan nan 0
-11.19895 -10.17214 0.8779812 24
-18.74059 -9.219742 1.695553 16
nan nan nan 0
-16.8398 -8.281605 3.413306 12
-10.81275 -9.667534 3.875815 37
-11.19429 -10.19993 0.08699808 33
-25.53551 -19.21913 0 16
-20.83683 -12.88629 -0.1280717 18
-20.52291 -10.23395 -0.2677213 16
-11.17324 -10.19138 0.445031 44
-25.94466 -19.58381 0.7537705 11
nan nan nan 0
nan nan nan 0
nan nan nan 0
nan nan nan 0
-4.975632 -4.524782 -0.9289176 44
-6.635072 -5.931747 -0.8391104 28
-8.138787 -7.328753 -0.6999471 32
-8.563505 -6.413497 -0.7453479 18
-8.992373 -5.517175 -0.7939445 19
-9.343375 -4.624028 -0.8483616 19
-10.23577 -9.342219 -0.5622582 89
-10.4115 -7.877432 -0.606982 15
-10.96157 -6.795886 -0.6738254 12
-11.37059 -5.69749 -0.7377017 11
-11.22487 -10.17068 -0.2637058 19
-13.32646 -10.00713 -0.3859955 30
-13.53984 -8.341704 -0.4624974 34
-14.53561 -7.231106 -0.5598931 10
-5.727767 -2.879154 -1.15552 35
-7.663453 -3.782058 -0.9571434 100
-52.5876 -25.98512 2.354331 25
-35.36003 -31.90924 2.768995 63
-18.78162 -9.158635 1.696363 30
-11.02457 -9.849985 1.810369 47
-16.86861 -8.222773 3.413306 18
nan nan nan 0
-11.22612 -10.15743 0.08696928 12
nan nan nan 0
-20.89447 -12.82132 -0.1281502 14
-20.6392 -10.20211 -0.2687737 17
-11.20504 -10.14896 0.4448836 7
-39.42874 -29.54776 1.143016 17
-41.84584 -25.78602 0.8401186 8
nan nan nan 0
nan nan nan 0
-0.2575049 -0.2286482 -0.07961464 11
-5.024451 -4.537286 -0.9351104 40
-6.659459 -5.911858 -0.8395818 29
-8.171755 -7.306954 -0.7005872 29
-8.593845 -6.389519 -0.7460454 19
nan nan nan 0
-9.399737 -4.611116 -0.8520253 39
-10.23502 -9.276224 -0.5604287 89
-10.47487 -7.868043 -0.6090783 15
-11.05753 -6.802047 -0.678274 12
nan nan nan 0
-13.91293 -12.51987 -0.3260109 31
-13.39737 -9.987444 -0.38704 29
-13.57741 -8.299603 -0.4627888 27
-14.6011 -7.200201 -0.5614479 10
-5.737782 -2.859143 -1.15552 36
-7.980204 -3.903555 -0.9951608 48
-52.62862 -25.77723 2.352124 4
-22.58429 -20.23503 1.762061 17
-18.93464 -9.15154 1.707308 31
-10.1608 -9.014079 1.662907 9
nan nan nan 0
-10.14478 -8.943195 3.613114 41
nan nan nan 0
nan nan nan 0
nan nan nan 0
-20.78246 -10.18278 -0.2701769 20
nan nan nan 0
nan nan nan 0
-41.96545 -25.65804 0.8407173 9
nan nan nan 0
nan nan nan 0
-0.2547274 -0.2244878 -0.07835092 10
-5.069734 -4.546194 -0.9406151 41
-6.683786 -5.89187 -0.8400532 29
-8.204671 -7.285015 -0.7012273 30
-8.628135 -6.368371 -0.7470918 17
-9.111769 -5.503222 -0.8011006 13
-9.456121 -4.597868 -0.8556891 38
-10.28589 -9.257159 -0.5614451 96
-10.5303 -7.852335 -0.6107087 15
-11.05136 -6.745202 -0.6764422 13
-11.42801 -5.626781 -0.7388634 10
-13.95655 -12.47122 -0.3260109 33
-13.48438 -9.97928 -0.3885487 27
-13.5892 -8.241794 -0.4622059 30
-14.66656 -7.168926 -0.5630027 10
-5.769792 -2.849973 -1.159982 35
-7.989309 -3.87351 -0.9946017 43
nan nan nan 0
-22.63615 -20.13948 1.760609 16
-19.14178 -9.169308 1.723116 18
-9.998624 -8.807898 1.631221 16
nan nan nan 0
-10.20137 -8.930007 3.622173 49
nan nan nan 0
-25.96887 -19.12264 0 16
-20.83795 -12.58725 -0.1272601 15
-20.85385 -10.12763 -0.2706446 23
nan nan nan 0
-25.91511 -19.1388 0.7470393 6
-42.14879 -25.56844 0.8425986 10
-43.17665 -21.06459 0.5864771 8
nan nan nan 0
-0.2555094 -0.2235972 -0.07835092 9
-5.11514 -4.554841 -0.9461198 44
-6.711799 -5.875064 -0.840996 29
-8.237533 -7.262934 -0.7018674 30
-8.658357 -6.34411 -0.7477893 19
-9.092427 -5.448325 -0.7977109 19
-9.606826 -4.629665 -0.8679016 34
-10.34793 -9.247843 -0.5630713 99
-10.59377 -7.842279 -0.6128049 15
-11.04494 -6.688483 -0.6746104 13
-11.47001 -5.597794 -0.7403156 13
-14.07476 -12.48881 -0.3277562 35
-13.47886 -9.902552 -0.3873882 24
-13.60076 -8.184002 -0.4616231 26
-14.72747 -7.135104 -0.5643847 10
-5.775284 -2.827655 -1.15909 32
-7.926625 -3.809061 -0.9850973 73
nan nan nan 0
-22.70257 -20.05704 1.760319 15
-19.16916 -9.100298 1.722711 15
-11.44824 -10.01512 1.862773 35
-17.10046 -8.115227 3.442893 26
nan nan nan 0
nan nan nan 0
-26.13638 -19.10565 0 18
-20.88177 -12.51444 -0.1272601 14
-20.88007 -10.05045 -0.2705277 26
nan nan nan 0
-39.3611 -28.85837 1.132223 30
-42.34916 -25.48818 0.8448221 9
-43.33544 -20.95509 0.5876377 9
nan nan nan 0
-0.2526916 -0.2194688 -0.07708719 9
-5.160667 -4.563226 -0.9516245 41
-6.736021 -5.854867 -0.8414675 27
-8.270339 -7.240713 -0.7025074 31
-8.688516 -6.319718 -0.7484869 18
-9.119961 -5.421647 -0.7984641 19
-9.6814 -4.623992 -0.8731936 27
-10.40256 -9.231571 -0.5642909 96
-10.63718 -7.817086 -0.6137366 16
-11.06822 -6.649889 -0.6746104 14
nan nan nan 0
-14.12202 -12.44291 -0.3278434 28
-13.52545 -9.864277 -0.3877363 27
-13.67216 -8.16209 -0.4630802 30
-14.78833 -7.100944 -0.5657668 11
-5.789547 -2.809623 -1.159982 34
-7.926413 -3.774969 -0.9834201 47
-53.38271 -25.45691 2.373796 29
nan nan nan 0
nan nan nan 0
-11.37077 -9.877425 1.844492 37
-17.20882 -8.093143 3.459032 10
-10.35849 -8.940655 3.655819 19
nan nan nan 0
-26.24742 -19.0466 0 15
nan nan nan 0
-21.0459 -10.0399 -0.2722233 24
nan nan nan 0
nan nan nan 0
-42.65249 -25.46834 0.8490979 10
-43.55261 -20.87282 0.5895925 8
nan nan nan 0
-0.2498481 -0.2153628 -0.07582346 10
-5.184002 -4.551725 -0.9530006 41
-6.760183 -5.834573 -0.8419388 28
-8.306856 -7.221626 -0.7034676 30
-8.718609 -6.295192 -0.7491845 18
-7.893275 -4.655505 -0.6892403 13
-9.67045 -4.577392 -0.8707511 28
-10.45346 -9.211725 -0.5653073 98
-10.68054 -7.791685 -0.6146683 15
-11.13855 -6.639328 -0.6774889 13
-11.58534 -5.554234 -0.745253 11
nan nan nan 0
-13.5679 -9.822868 -0.3879684 23
-13.80808 -8.177977 -0.4667231 25
-14.84913 -7.066446 -0.5671487 11
-5.803755 -2.791525 -1.160874 39
-7.953025 -3.753631 -0.9850973 47
-35.39816 -16.73116 1.570959 17
-22.81569 -19.8751 1.758286 8
-25.59719 -11.93158 2.29384 17
-11.40518 -9.837674 1.844492 27
-17.16116 -7.997724 3.44379 17
-10.58393 -9.071089 3.724406 80
nan nan nan 0
-26.47196 -19.06885 0 11
-20.93848 -12.35057 -0.1270768 17
-21.04013 -9.947148 -0.271697 25
-24.31834 -21.27413 0.9521424 17
-39.38739 -28.45699 1.127232 14
-42.87447 -25.39828 0.8517489 9
-43.69295 -20.75284 0.5905088 9
nan nan nan 0
nan nan nan 0
-5.21478 -4.546632 -0.955753 39
-6.784286 -5.814182 -0.8424102 30
-8.339565 -7.199111 -0.7041077 33
-8.752691 -6.273439 -0.7502308 17
-8.029985 -4.6984 -0.6997861 11
-9.668319 -4.535152 -0.8691229 33
-10.49307 -9.181763 -0.5657138 97
-10.7198 -7.763146 -0.6153671 15
-11.17455 -6.608031 -0.678274 13
-11.58662 -5.505198 -0.7440912 11
-14.20477 -12.34074 -0.3277562 31
-13.63864 -9.801707 -0.3890129 20
-13.9098 -8.172761 -0.4692003 21
-14.90535 -7.02948 -0.568358 10
-5.804578 -2.767023 -1.15909 38
-7.758986 -3.629146 -0.9593797 37
-35.57399 -16.66258 1.576176 7
-22.86229 -19.77574 1.756543 11
-25.46221 -11.76069 2.278032 29
-11.46959 -9.823639 1.849367 34
-17.33189 -8.003721 3.472481 16
-10.24784 -8.720942 3.594996 56
-24.31177 -21.09674 0.1851697 5
-26.49363 -18.94434 0 17
-20.93399 -12.24964 -0.1267889 17
-21.03851 -9.856683 -0.2712293 21
nan nan nan 0
-39.64083 -28.43004 1.131642 19
-43.03613 -25.29153 0.8532027 8
-35.49562 -16.70886 0.4788454 7
nan nan nan 0
nan nan nan 0
-5.238102 -4.53489 -0.9571292 39
-6.812119 -5.796921 -0.8433531 28
-8.372217 -7.176455 -0.7047479 33
-8.782664 -6.248632 -0.7509283 19
-8.188652 -4.752904 -0.7122149 7
-9.751893 -4.532849 -0.8752291 34
-10.52505 -9.14508 -0.5657138 87
-10.76306 -7.737343 -0.6162987 16
-11.23201 -6.589191 -0.6803674 13
-11.65546 -5.48809 -0.747286 9
-14.24398 -12.28781 -0.3276689 26
-13.62801 -9.722101 -0.3877363 29
-14.03324 -8.179514 -0.4724059 25
-14.96602 -6.994321 -0.5697401 10
-5.814201 -2.746744 -1.15909 36
-7.902377 -3.662547 -0.975593 100
nan nan nan 0
-22.93875 -19.70233 1.757124 6
-25.59375 -11.7132 2.286139 22
-12.58469 -10.70345 2.02364 34
-17.45367 -7.986124 3.491309 19
-10.22659 -8.641457 3.576879 43
-24.1997 -20.85179 0.1837586 8
nan nan nan 0
nan nan nan 0
-21.12267 -9.806332 -0.2718725 22
nan nan nan 0
-39.35299 -28.01607 1.120617 16
-30.66388 -17.87745 0.6064863 9
-44.18114 -20.60788 0.5951512 9
nan nan nan 0
-0.266656 -0.2254731 -0.08087836 9
-5.272665 -4.532736 -0.9605696 44
-6.839912 -5.779537 -0.8442959 30
-8.408611 -7.156894 -0.705708 30
-8.81257 -6.223693 -0.751626 18
-9.229341 -5.313679 -0.8014772 23
-9.826512 -4.525852 -0.8805211 33
-10.51154 -9.069103 -0.5632745 98
-10.8022 -7.708431 -0.6169975 15
-11.25494 -6.549943 -0.6803674 12
-11.71074 -5.464242 -0.7496095 8
-14.1805 -12.14692 -0.3252256 26
-13.74344 -9.732256 -0.3900574 23
-14.12662 -8.167997 -0.4745917 24
-15.02209 -6.956726 -0.5709493 11
-5.797009 -2.713938 -1.153736 34
-8.077712 -3.709487 -0.9957199 48
nan nan nan 0
-37.23969 -31.76479 2.84567 7
-25.86598 -11.7287 2.306811 26
-12.64093 -10.67547 2.026687 39
-17.45456 -7.912972 3.485929 34
-10.28998 -8.633658 3.588526 33
-24.22675 -20.72818 0.183413 10
nan nan nan 0
-21.07533 -12.13562 -0.1271292 16
-21.23854 -9.770131 -0.2729249 19
nan nan nan 0
-39.50769 -27.91892 1.122242 11
-43.46699 -25.13812 0.8582482 10
-44.42981 -20.53532 0.5975335 10
nan nan nan 0
nan nan nan 0
-5.277162 -4.504648 -0.9585053 43
-6.867669 -5.762029 -0.8452387 28
-8.441161 -7.133945 -0.7063481 29
-8.846492 -6.201485 -0.7526723 19
-8.321222 -4.752472 -0.7208775 12
-9.824112 -4.483257 -0.8788928 31
-10.36108 -8.876268 -0.5535173 115
-10.84534 -7.682227 -0.6179291 16
-11.28206 -6.513113 -0.6806291 13
nan nan nan 0
-14.3751 -12.22695 -0.328716 25
-13.80187 -9.701472 -0.3907537 25
-14.20707 -8.14847 -0.4763402 20
-15.07353 -6.916742 -0.5719858 10
-5.833236 -2.706087 -1.15909 35
-8.022754 -3.650444 -0.9873337 42
-54.69635 -24.92108 2.412523 36
-37.41128 -31.68623 2.850317 9
-29.64837 -13.31832 2.640409 10
nan nan nan 0
-17.47758 -7.849983 3.485033 23
-10.30893 -8.588408 3.584644 50
-24.18085 -20.54311 0.1825203 9
nan nan nan 0
-21.07848 -12.03967 -0.1268936 14
-21.41811 -9.762258 -0.2747958 22
nan nan nan 0
nan nan nan 0
-43.73661 -25.09072 0.86184 9
-44.63759 -20.44254 0.5993661 10
nan nan nan 0
nan nan nan 0
-5.368362 -4.550303 -0.9722671 41
-6.895385 -5.744398 -0.8461815 28
-8.473654 -7.110855 -0.7069882 31
-8.876273 -6.176266 -0.7533699 17
-9.27489 -5.25403 -0.8022305 25
-9.80791 -4.434582 -0.8760433 40
-10.56699 -8.98902 -0.5628679 101
-10.89252 -7.65869 -0.6190937 15
-11.30906 -6.476172 -0.6808907 14
nan nan nan 0
-14.37187 -12.13798 -0.3276689 32
-13.87254 -9.678982 -0.3917982 25
-14.2919 -8.130951 -0.4782345 23
-15.12943 -6.87855 -0.5731952 9
-5.856061 -2.691861 -1.161767 39
-7.990138 -3.602025 -0.9817429 104
-55.12453 -24.88413 2.427572 9
-37.59042 -31.61329 2.855545 9
-25.74233 -11.4567 2.288571 14
-11.79246 -9.8182 1.879225 47
-17.54533 -7.806911 3.493102 34
-10.73319 -8.878834 3.721818 31
-24.16453 -20.38441 0.1818579 4
nan nan nan 0
-21.13778 -11.97587 -0.1269983 15
-21.40648 -9.666867 -0.2742111 14
nan nan nan 0
-39.93546 -27.80524 1.128857 14
-43.96731 -25.01949 0.864662 11
-44.88625 -20.36715 0.6017483 10
nan nan nan 0
-0.261653 -0.2163758 -0.07835092 10
-5.372853 -4.52196 -0.9702028 43
-6.919229 -5.723469 -0.8466529 27
-8.506087 -7.087625 -0.7076283 29
-8.910089 -6.15375 -0.7544162 17
-8.010777 -4.501388 -0.6911235 16
-9.918859 -4.443051 -0.884592 35
-10.64408 -8.990784 -0.5653073 99
-10.93556 -7.632058 -0.6200253 15
-11.36633 -6.45638 -0.6829842 13
-11.82641 -5.368105 -0.7533851 13
-14.33756 -12.02347 -0.3259237 35
-13.98021 -9.681733 -0.3938872 24
-14.38985 -8.120305 -0.4805659 25
-15.18069 -6.838001 -0.5742316 9
-5.883337 -2.679546 -1.165336 38
-8.007201 -3.576136 -0.982302 102
-55.36613 -24.76089 2.434395 8
-37.76183 -31.53307 2.860191 10
-25.846 -11.3949 2.294245 15
-11.79225 -9.748507 1.873741 100
-17.64901 -7.779325 3.508344 31
-10.7865 -8.859715 3.729582 35
nan nan nan 0
-25.81974 -17.78967 0 17
nan nan nan 0
-21.57703 -9.653308 -0.2759652 17
nan nan nan 0
nan nan nan 0
-44.15015 -24.91991 0.8665434 9
-45.09388 -20.27183 0.603581 9
nan nan nan 0
-0.2550353 -0.2091942 -0.07582346 9
-5.369617 -4.487285 -0.9667624 40
-6.946855 -5.705605 -0.8475958 30
-8.538462 -7.064255 -0.7082683 34
-8.943856 -6.131073 -0.7554626 18
nan nan nan 0
-9.984424 -4.43061 -0.8890699 36
-10.69071 -8.966423 -0.5661203 93
-10.97856 -7.605218 -0.6209571 15
-11.42361 -6.436269 -0.6850777 12
-11.84052 -5.324746 -0.7530947 10
-14.54844 -12.11415 -0.3297632 33
-13.99744 -9.621546 -0.3934229 24
-14.49225 -8.111514 -0.4830431 22
-15.23185 -6.797178 -0.5752681 11
-5.910599 -2.667072 -1.168905 34
nan nan nan 0
-25.96617 -11.50722 1.139141 40
-37.94468 -31.46161 2.86571 10
nan nan nan 0
-11.94892 -9.808084 1.89324 96
-17.79328 -7.768811 3.531655 12
-10.83233 -8.834222 3.734759 40
-24.13713 -20.07451 0.1805908 7
-25.94772 -17.74459 0 13
-21.1903 -11.81098 -0.1268151 16
-21.76601 -9.646773 -0.277953 18
nan nan nan 0
-40.77988 -27.97254 1.147193 8
-44.40701 -24.86089 0.8698785 9
-25.99048 -11.57754 0.3471461 40
nan nan nan 0
nan nan nan 0
nan nan nan 0
-6.970584 -5.684468 -0.8480672 27
-8.574631 -7.043915 -0.7092285 35
-8.977572 -6.108235 -0.7565089 18
-9.368676 -5.178317 -0.8056202 19
-10.05002 -4.417764 -0.8935478 37
-10.62984 -8.852283 -0.5612417 99
-11.0215 -7.578172 -0.6218887 15
-11.47652 -6.413401 -0.6869094 13
-11.86816 -5.287441 -0.7536755 9
-14.47893 -11.97088 -0.3272326 37
-14.04333 -9.58108 -0.3937711 26
-14.56417 -8.085131 -0.4845002 17
-15.28291 -6.756082 -0.5763047 11
-5.906394 -2.640412 -1.166228 34
-8.437101 -3.697398 -1.03206 35
-26.0565 -11.43859 1.141348 40
-38.11977 -31.38291 2.870647 12
-25.76482 -11.14497 2.280058 35
-11.9677 -9.753768 1.890803 41
nan nan nan 0
-10.96816 -8.881496 3.770993 37
-24.20705 -19.99014 0.1805908 9
-26.23289 -17.80556 0 17
-21.26203 -11.75387 -0.1269983 14
-22.02847 -9.671177 -0.2808764 21
nan nan nan 0
-40.38972 -27.49805 1.133499 14
-44.56345 -24.74455 0.8712468 10
-26.10392 -11.51902 0.3481234 43
nan nan nan 0
nan nan nan 0
-5.072313 -4.178605 -0.9075869 103
-6.994251 -5.663237 -0.8485386 28
-8.606897 -7.020252 -0.7098686 31
-9.007107 -6.082445 -0.7572064 17
-9.39544 -5.150374 -0.8063735 20
-10.13393 -4.412464 -0.8996541 27
-10.77614 -8.910681 -0.56734 98
-11.06439 -7.550918 -0.6228204 15
-11.50757 -6.37814 -0.6874327 13
-11.89111 -5.247994 -0.753966 13
-14.47041 -11.87902 -0.3260982 38
-14.02702 -9.498363 -0.3923784 22
-14.62733 -8.053523 -0.4856659 13
-15.33387 -6.71471 -0.5773412 11
-5.911075 -2.61779 -1.165336 34
-8.422605 -3.656071 -1.028705 43
nan nan nan 0
-38.30637 -31.31284 2.876456 9
-25.82648 -11.06477 2.282085 17
-11.54657 -9.343402 1.8189 39
-17.67524 -7.570857 3.497585 10
-11.09317 -8.918845 3.803346 31
-24.28055 -19.90869 0.1806196 11
nan nan nan 0
-21.3687 -11.71563 -0.127391 13
-22.16297 -9.638066 -0.2821627 26
nan nan nan 0
-40.53102 -27.38768 1.134776 16
-44.85099 -24.69978 0.8751805 9
nan nan nan 0
nan nan nan 0
nan nan nan 0
-5.09836 -4.17029 -0.9096511 104
-7.017855 -5.641909 -0.8490101 28
-8.642978 -6.999592 -0.7108287 30
-9.040711 -6.059299 -0.7582528 17
-9.422123 -5.122309 -0.8071268 20
-10.1447 -4.375091 -0.899247 35
-10.82261 -8.885696 -0.5681531 95
-11.10721 -7.523455 -0.6237521 15
-11.53414 -6.340338 -0.6876944 13
-11.95053 -5.224432 -0.7565799 10
-14.4343 -11.76524 -0.3243529 38
-14.03105 -9.42982 -0.3915661 27
-14.69484 -8.023968 -0.4869774 13
-15.38473 -6.673066 -0.5783777 11
-5.924684 -2.599113 -1.166228 34
-8.499236 -3.654085 -1.036533 41
nan nan nan 0
-38.49683 -31.24501 2.882555 10
-25.78236 -10.93953 2.274789 42
-11.57138 -9.296821 1.817681 24
-17.70155 -7.509113 3.497585 18
-11.01858 -8.795665 3.767111 40
-24.35765 -19.83012 0.1806772 6
-26.23186 -17.53861 0 15
-21.33479 -11.60037 -0.1269459 15
-22.25618 -9.586343 -0.2829228 25
nan nan nan 0
nan nan nan 0
-44.94572 -24.54786 0.8753517 10
nan nan nan 0
nan nan nan 0
-0.2653894 -0.2117764 -0.07835092 10
-4.989953 -4.052456 -0.8876324 103
-7.045282 -5.623592 -0.8499528 27
-8.67902 -6.978766 -0.7117889 28
-9.070112 -6.033231 -0.7589504 18
-9.28194 -5.00424 -0.7935679 29
-10.21033 -4.36116 -0.9037248 38
-10.83808 -8.835233 -0.56734 102
-11.15413 -7.498574 -0.6249167 15
-11.54305 -6.29287 -0.6869094 13
-12.00534 -5.198538 -0.7589033 9
-14.47528 -11.71478 -0.3243529 33
-13.98488 -9.328077 -0.3893611 26
-14.7711 -7.998798 -0.4885802 14
-15.44007 -6.633119 -0.579587 11
-5.965316 -2.592115 -1.172474 37
-8.543947 -3.638001 -1.040446 39
-56.77791 -24.2121 2.477536 6
-38.68726 -31.17622 2.888654 10
-25.78822 -10.83596 2.271952 42
-12.1739 -9.711507 1.907255 46
-17.72766 -7.447277 3.497585 19
-11.15895 -8.844185 3.80464 18
-24.60168 -19.88645 0.1819731 20
-26.2846 -17.4414 0 20
-21.19911 -11.43092 -0.1258987 15
-22.42748 -9.567418 -0.2846768 28
nan nan nan 0
-41.1415 -27.38382 1.146497 9
-45.26411 -24.517 0.879884 9
nan nan nan 0
nan nan nan 0
-0.2623872 -0.20778 -0.07708719 10
-5.069561 -4.087916 -0.8993298 97
