# .PCD v0.7 - Point Cloud Data file format
VERSION 0.7
FIELDS x y z intensity
SIZE 4 4 4 4
TYPE F F F F
COUNT 1 1 1 1
WIDTH 1615
HEIGHT 1
VIEWPOINT 0 0 0 1 0 0 0
POINTS 1615
DATA ascii
-2.864105 -10.17546 -0.4285033 70
-4.372328 -11.39676 -0.5673861 15
nan nan nan 0
-5.807713 -9.483888 -0.6447629 17
-2.916916 -10.21986 -0.184821 15
-5.792553 -14.93675 -0.3710245 37
-6.770533 -13.60154 -0.4418059 42
nan nan nan 0
-2.791785 -4.573029 -0.9645696 35
-4.043127 -6.513651 -0.8581864 18
-24.60949 -39.68602 1.873954 55
nan nan nan 0
-25.07726 -39.95633 3.833741 35
-11.79992 -40.33367 5.155073 109
-6.009722 -9.57989 2.05408 43
-2.908448 -9.813038 2.731835 43
nan nan nan 0
-9.126081 -23.36596 0 11
-10.35076 -20.70108 -0.1209769 10
-10.50491 -16.9464 -0.2326994 18
-12.43977 -43.62073 1.337158 137
-16.57341 -42.61314 1.060617 116
-18.00587 -36.18124 0.690635 9
-18.39591 -29.79566 0.4273507 12
nan nan nan 0
-0.1146262 -0.3907848 -0.09604306 52
-1.812075 -6.311926 -0.9068988 27
-2.360289 -7.965294 -0.7830125 35
-2.845653 -9.73133 -0.6477791 55
-3.54538 -9.014221 -0.674545 22
-4.219288 -8.364415 -0.7046822 26
-4.806636 -7.702789 -0.7384491 15
-3.720302 -13.04838 -0.5504682 37
-4.477047 -11.54909 -0.5757711 14
-5.084334 -10.19709 -0.5950598 12
-5.832912 -9.450819 -0.6438916 17
-5.234524 -18.11562 -0.3284543 8
-5.82278 -14.86059 -0.3696319 33
-6.806753 -13.5555 -0.4410774 36
-6.828612 -10.99375 -0.4460488 26
-2.792237 -4.53813 -0.9592159 36
-4.068477 -6.503709 -0.8587455 18
-24.97562 -39.9642 1.891211 49
-12.66858 -43.50085 2.633944 16
-25.2459 -39.91488 3.8382 26
-11.93359 -40.26844 5.152026 113
-6.029973 -9.538071 2.049597 43
nan nan nan 0
-8.857536 -30.58738 0.1831826 40
-9.191074 -23.2921 0 11
-10.43421 -20.68715 -0.1211078 8
-10.70445 -17.13432 -0.2357982 21
-12.59612 -43.59145 1.3376 150
-16.72571 -42.56433 1.060849 110
-18.12533 -36.10476 0.6903784 10
-18.48395 -29.70579 0.4269842 11
nan nan nan 0
-0.1159896 -0.3903823 -0.09604306 53
-1.834097 -6.305562 -0.9068988 30
-2.389507 -7.961776 -0.7834839 35
-2.890921 -9.759617 -0.6503395 63
-3.58971 -9.034241 -0.6769865 22
-4.243936 -8.340751 -0.7039291 25
-4.83615 -7.690181 -0.7388561 15
-2.933688 -10.15042 -0.4283001 28
nan nan nan 0
nan nan nan 0
-5.855312 -9.413451 -0.6427299 21
nan nan nan 0
-5.883814 -14.86342 -0.3702122 30
-6.788522 -13.40236 -0.4368517 45
-7.368398 -11.77016 -0.4786991 34
-2.878176 -4.641176 -0.9833078 29
-4.093807 -6.493669 -0.8593045 18
nan nan nan 0
-12.82882 -43.4851 2.635686 17
-25.39846 -39.84752 3.840226 21
-12.07266 -40.22179 5.151417 119
-6.116132 -9.599909 2.067529 59
nan nan nan 0
-8.954406 -30.52269 0.182981 45
-9.279727 -23.27846 0 8
-10.50183 -20.64169 -0.1210555 9
-10.79351 -17.14338 -0.2364413 14
-12.7468 -43.54242 1.337453 154
-16.87972 -42.51962 1.061197 112
-18.24899 -36.03682 0.690293 9
-18.57425 -29.61991 0.4266787 11
nan nan nan 0
-0.1173515 -0.3899751 -0.09604306 50
-1.857492 -6.303874 -0.9075869 29
-2.418729 -7.95815 -0.7839553 32
-2.897775 -9.658645 -0.6442586 65
-3.606367 -8.984621 -0.6741963 23
-4.277579 -8.334755 -0.7046822 30
-4.865635 -7.67746 -0.7392632 15
-2.970503 -10.14491 -0.4285033 40
-4.541032 -11.47576 -0.5736749 14
-5.062745 -9.978799 -0.5843309 13
-5.853643 -9.337991 -0.6389542 20
-5.370806 -18.11219 -0.3290651 7
-5.885562 -14.71746 -0.3670787 24
-6.837538 -13.38304 -0.4369974 42
-7.398767 -11.72747 -0.4780081 26
-2.915251 -4.664456 -0.9904461 30
-4.11645 -6.479339 -0.8593045 20
nan nan nan 0
-12.96339 -43.38266 2.632201 13
-6.996157 -10.89982 1.050246 14
-12.20865 -40.16515 5.149589 114
-6.080456 -9.470915 2.044218 49
nan nan nan 0
-9.072282 -30.52959 0.1832114 44
-9.360928 -23.24592 0 9
-10.59893 -20.65383 -0.1213435 9
-10.7863 -17.00007 -0.2349797 20
-12.89588 -43.48807 1.337158 152
-17.03548 -42.479 1.061662 112
-18.36785 -35.95954 0.6900364 10
-18.63745 -29.4915 0.4257625 10
nan nan nan 0
-0.1187121 -0.3895631 -0.09604306 49
-1.879486 -6.297351 -0.9075869 31
-2.449415 -7.959176 -0.7848982 35
-2.9112 -9.581622 -0.6397779 67
nan nan nan 0
-4.295183 -8.297638 -0.7027991 30
-4.892405 -7.660429 -0.7392632 14
-3.812778 -12.86021 -0.5441667 89
nan nan nan 0
-5.108923 -9.983288 -0.5856393 13
-5.896875 -9.334376 -0.640116 23
-5.438305 -18.1077 -0.3293269 7
-5.993052 -14.83588 -0.3705603 29
-6.932301 -13.45238 -0.4400573 35
-7.396737 -11.63412 -0.4752441 40
nan nan nan 0
-4.141724 -6.469113 -0.8598636 18
nan nan nan 0
-13.11474 -43.33714 2.632201 11
-7.028746 -10.86696 1.049435 39
-12.3517 -40.13179 5.150807 112
-6.09476 -9.420732 2.037942 48
-2.970577 -9.531669 2.664542 8
-9.193195 -30.54561 0.1834994 49
-9.430713 -23.18532 0 10
-10.68935 -20.65223 -0.1215529 9
-10.84827 -16.96653 -0.2350381 22
-13.0476 -43.44279 1.337158 147
-17.18741 -42.42855 1.061894 108
-18.50471 -35.91742 0.690464 9
-18.73223 -29.41362 0.4255792 10
nan nan nan 0
-0.1200712 -0.3891463 -0.09604306 45
-1.901456 -6.290752 -0.9075869 26
-2.478661 -7.955331 -0.7853696 33
-2.940234 -9.557092 -0.6388177 80
nan nan nan 0
-4.312578 -8.260497 -0.7009159 39
-4.921814 -7.647493 -0.7396703 15
-3.049864 -10.15264 -0.429723 18
nan nan nan 0
-5.258284 -10.18722 -0.5987233 12
-6.009904 -9.440017 -0.648829 20
-5.497121 -18.07426 -0.3290651 8
-6.084447 -14.91207 -0.3729975 30
-7.011492 -13.49018 -0.4420974 34
nan nan nan 0
-2.960946 -4.664746 -0.9949076 21
-4.166976 -6.458789 -0.8604227 18
-6.987591 -10.84861 0.5166968 35
-13.26302 -43.28156 2.63162 11
-7.036682 -10.79645 1.044976 42
-12.48581 -40.06947 5.14837 107
nan nan nan 0
-2.999478 -9.507421 2.66066 44
-9.304134 -30.52769 0.1835858 51
-9.49259 -23.106 0 11
-10.79377 -20.67684 -0.1219194 10
-6.987373 -10.84816 -0.1504361 7
-13.19916 -43.39698 1.337158 153
-17.34865 -42.40067 1.062706 105
-18.60692 -35.80825 0.6896088 9
-18.81318 -29.31439 0.4250905 9
nan nan nan 0
-0.1214288 -0.3887248 -0.09604306 50
-1.924849 -6.288814 -0.908275 28
-2.506415 -7.94663 -0.7853696 35
-2.969133 -9.532475 -0.6378576 99
-3.709782 -8.96941 -0.6759402 21
-4.329768 -8.223338 -0.6990328 30
-4.951194 -7.634447 -0.7400774 15
-3.118668 -10.25188 -0.4343983 16
nan nan nan 0
-5.293813 -10.16881 -0.5987233 14
-6.050911 -9.431581 -0.6497003 23
-5.551358 -18.02629 -0.3285415 9
-6.138367 -14.89536 -0.3731135 36
-7.130487 -13.60284 -0.4466145 30
-6.976047 -10.80575 -0.4432847 41
-2.979866 -4.658524 -0.9957999 21
-4.192207 -6.448368 -0.8609818 18
-7.017251 -10.81159 0.5160949 39
-13.41254 -43.23023 2.63133 11
-7.090752 -10.79681 1.047408 40
-12.62112 -40.01144 5.146542 71
-6.446874 -9.813601 2.13298 99
-3.037047 -9.510697 2.664542 43
-9.459267 -30.6527 0.1845361 47
-9.590429 -23.11429 0 9
-10.85889 -20.62577 -0.1218409 9
-7.033368 -10.83628 -0.1506115 35
-13.35057 -43.35065 1.337158 152
-17.47174 -42.2798 1.061197 100
-18.72019 -35.72094 0.6891811 9
-6.98002 -10.79928 0.1566219 35
nan nan nan 0
-0.122785 -0.3882986 -0.09604306 43
-1.946789 -6.282056 -0.908275 26
-2.53565 -7.942575 -0.785841 41
-2.990406 -9.483978 -0.6352972 88
-3.744911 -8.965613 -0.6766378 21
-4.332716 -8.15974 -0.6948898 33
-4.980541 -7.621287 -0.7404845 14
nan nan nan 0
nan nan nan 0
-5.210864 -9.924821 -0.5853776 14
-6.026844 -9.3224 -0.6436012 20
-5.621681 -18.03067 -0.3289779 10
nan nan nan 0
-7.217644 -13.65297 -0.4490916 37
-7.027356 -10.80227 -0.4441485 40
-2.782558 -4.317488 -0.9244164 50
-4.217417 -6.43785 -0.8615409 17
-7.060421 -10.79539 0.5164962 43
-13.56186 -43.17838 2.631039 11
-7.136652 -10.78445 1.048624 8
-3.321447 -10.39001 1.334469 43
-6.451203 -9.745934 2.123117 95
-3.068744 -9.495442 2.663248 35
-9.594519 -30.71017 0.1850833 34
-9.684579 -23.11296 0 9
-10.98945 -20.69814 -0.1224954 8
-7.062936 -10.79912 -0.1504361 39
-13.50181 -43.30378 1.337158 151
nan nan nan 0
-18.81907 -35.60676 0.6882405 9
-7.044978 -10.81673 0.1572328 43
nan nan nan 0
-0.1255484 -0.3924956 -0.09730678 53
-1.968706 -6.275222 -0.908275 29
-2.564886 -7.938414 -0.7863125 38
-3.08559 -9.668408 -0.6484192 71
-3.743244 -8.874352 -0.6707085 22
-4.372944 -8.166541 -0.696773 32
-5.009857 -7.608016 -0.7408916 14
nan nan nan 0
nan nan nan 0
-5.168349 -9.760962 -0.5767422 14
-6.059348 -9.301306 -0.6436012 18
-5.686089 -18.0157 -0.3290651 10
nan nan nan 0
-7.154725 -13.42043 -0.442243 35
-7.078727 -10.79856 -0.4450123 37
-2.953272 -4.546896 -0.9761694 32
-4.242603 -6.427234 -0.8620999 18
-7.109064 -10.78736 0.5172988 35
-13.71099 -43.12602 2.630749 11
-25.73495 -38.56905 3.768075 16
nan nan nan 0
-6.51796 -9.772445 2.133877 75
-3.101871 -9.484673 2.663248 38
nan nan nan 0
-9.75546 -23.05599 0 9
-11.03331 -20.60676 -0.1221812 10
-7.114354 -10.79526 -0.1507284 17
-13.65439 -43.26115 1.337305 150
-17.80724 -42.25354 1.063635 68
-18.92678 -35.50997 0.6876419 9
-7.090926 -10.80461 0.157416 42
nan nan nan 0
-0.1283426 -0.3966781 -0.0985705 41
-1.990598 -6.268312 -0.908275 24
-2.595669 -7.938876 -0.7872552 36
-3.117789 -9.652829 -0.6480992 93
-3.805458 -8.934661 -0.676289 26
-4.401425 -8.151227 -0.696773 31
-5.0419 -7.598783 -0.7417057 14
-4.111711 -13.02995 -0.5543304 79
nan nan nan 0
-5.296493 -9.91903 -0.5872094 12
-6.072591 -9.250897 -0.6415681 25
-5.751981 -18.00527 -0.3292396 10
nan nan nan 0
-7.104475 -13.2149 -0.4362688 29
-7.149448 -10.82381 -0.4470853 36
-2.818028 -4.306185 -0.926201 46
-4.267767 -6.41652 -0.862659 17
-26.94733 -40.55358 1.954017 15
-13.85991 -43.07315 2.630458 11
-26.55077 -39.49216 3.867384 20
-3.3754 -10.30997 1.327157 37
-6.672841 -9.929214 2.173326 45
nan nan nan 0
nan nan nan 0
-9.855521 -23.06778 0 9
nan nan nan 0
-11.40287 -17.16602 -0.2405341 28
-13.80684 -43.21798 1.337453 149
-17.95854 -42.20031 1.063867 103
-19.03169 -35.40847 0.6869578 9
-7.139636 -10.79647 0.1576604 8
nan nan nan 0
-0.1311675 -0.4008457 -0.09983423 46
-2.010955 -6.256609 -0.9075869 26
-2.624925 -7.934494 -0.7877266 34
-3.168489 -9.694067 -0.6516197 95
-3.834652 -8.916739 -0.6759402 31
-4.472783 -8.214623 -0.7035524 29
-5.071166 -7.585279 -0.7421128 15
nan nan nan 0
nan nan nan 0
-5.226895 -9.70706 -0.5756955 13
-6.118624 -9.250454 -0.6430203 24
-5.816332 -17.98984 -0.3293269 10
-6.259132 -14.60603 -0.3680071 36
-7.112441 -13.11972 -0.4339373 33
-7.145631 -10.73641 -0.444494 29
-3.031056 -4.595942 -0.9913384 22
-4.292908 -6.405709 -0.8632181 18
nan nan nan 0
-14.00864 -43.01976 2.630168 11
-26.71921 -39.44462 3.871843 19
-3.391111 -10.23687 1.319236 39
-6.602584 -9.751134 2.139256 93
nan nan nan 0
nan nan nan 0
-9.935983 -23.03324 0 9
-11.23907 -20.6434 -0.1228619 9
-11.2179 -16.76055 -0.2353889 22
-13.95761 -43.16953 1.337453 148
-18.11758 -42.16493 1.064563 98
-19.12182 -35.28028 0.6857605 9
nan nan nan 0
nan nan nan 0
-0.1325659 -0.4003854 -0.09983423 44
-2.032782 -6.249552 -0.9075869 27
-2.654183 -7.930004 -0.7881981 34
-3.228901 -9.763496 -0.6570605 74
-3.883626 -8.94448 -0.6790792 23
-4.513432 -8.220808 -0.7054355 31
-5.103186 -7.575793 -0.742927 14
-4.13812 -12.80125 -0.5457929 99
nan nan nan 0
-5.356079 -9.864262 -0.5861627 12
-6.170269 -9.258105 -0.6450533 20
-5.879093 -17.96942 -0.3293269 10
-6.304125 -14.57033 -0.3676589 36
nan nan nan 0
nan nan nan 0
-3.041627 -4.577144 -0.9895539 26
-4.315242 -6.390685 -0.8632181 18
nan nan nan 0
-14.15872 -42.9706 2.630168 12
-26.91013 -39.42931 3.879545 19
-3.428398 -10.22968 1.319845 33
-6.486782 -9.508675 2.09084 49
nan nan nan 0
nan nan nan 0
-10.03429 -23.03967 0 10
-11.3255 -20.63033 -0.123019 10
-11.42455 -16.94094 -0.2384877 21
-14.11287 -43.13479 1.337895 146
-18.2726 -42.11977 1.065027 100
-19.22567 -35.17823 0.6850764 11
nan nan nan 0
nan nan nan 0
-0.1354359 -0.4045281 -0.1010979 41
-2.054585 -6.242418 -0.9075869 25
-2.681847 -7.920691 -0.7881981 33
-3.27719 -9.794762 -0.659941 72
-3.912822 -8.9263 -0.6787304 20
nan nan nan 0
-5.1324 -7.562055 -0.7433341 14
-4.142446 -12.66325 -0.5405077 110
nan nan nan 0
-5.457639 -9.968126 -0.5934898 12
-6.235964 -9.286222 -0.6485385 18
-5.943352 -17.95354 -0.3294142 9
-6.284933 -14.38791 -0.3635971 37
-7.232818 -13.12227 -0.4356859 29
-7.771883 -11.5017 -0.4785264 43
-3.054844 -4.562414 -0.9886615 30
-4.337524 -6.375584 -0.8632181 19
-32.87592 -48.36707 2.347308 6
-14.31178 -42.93038 2.630749 11
-27.07584 -39.3762 3.883598 18
-3.446583 -10.16594 1.313142 37
-6.533874 -9.506235 2.095323 67
-3.454351 -10.08478 2.845715 31
-10.04879 -30.296 0.1836146 8
-10.13678 -23.05485 0 9
-11.37807 -20.55568 -0.1228095 10
-11.31496 -16.65288 -0.2349797 24
-14.26022 -43.07578 1.3376 144
-18.42554 -42.06946 1.065375 98
-19.36524 -35.14155 0.685675 11
nan nan nan 0
nan nan nan 0
-0.1368472 -0.4040529 -0.1010979 44
-2.077924 -6.239908 -0.908275 27
-2.706259 -7.901861 -0.7872552 35
-3.298582 -9.745446 -0.6573805 80
-3.929834 -8.880657 -0.676289 25
nan nan nan 0
-5.161581 -7.548206 -0.7437412 14
-4.277558 -12.92384 -0.5522977 97
nan nan nan 0
-5.405502 -9.791661 -0.5840693 13
-6.257145 -9.247866 -0.6473768 21
-6.005986 -17.93268 -0.3294142 12
-6.379478 -14.46651 -0.3661503 32
-7.215442 -12.98337 -0.4318973 35
-7.820426 -11.48689 -0.4790446 40
-3.056975 -4.531344 -0.9842001 32
-4.359752 -6.360404 -0.8632181 18
-26.63006 -38.8874 1.891411 14
-14.46155 -42.88016 2.630749 12
-27.25002 -39.33469 3.888868 23
-3.483655 -10.15854 1.313751 11
-6.595041 -9.523796 2.104289 70
-3.499005 -10.10005 2.85348 6
-10.1354 -30.20385 0.183269 9
-10.23748 -23.06503 0 9
-11.49362 -20.59443 -0.1232808 9
-11.42953 -16.69578 -0.236149 17
-14.41684 -43.04469 1.33819 142
-18.58238 -42.02776 1.065956 94
-19.43922 -34.98634 0.6839646 10
nan nan nan 0
nan nan nan 0
-0.1382567 -0.4035727 -0.1010979 39
-2.099692 -6.232616 -0.908275 26
-2.730573 -7.882958 -0.7863125 36
-3.303531 -9.648884 -0.6516197 97
-3.950642 -8.844112 -0.674545 20
-4.569919 -8.120959 -0.7009159 33
-5.190727 -7.534245 -0.7441482 15
nan nan nan 0
nan nan nan 0
-5.51495 -9.907969 -0.5921813 12
-6.286574 -9.221845 -0.6470863 30
-6.070148 -17.91635 -0.3295014 11
-6.401484 -14.38021 -0.3645255 35
nan nan nan 0
-7.883101 -11.49248 -0.4804266 40
-3.09216 -4.549109 -0.9904461 31
-4.384754 -6.349234 -0.8637772 18
-26.92739 -39.02858 1.902849 33
-13.78788 -40.41525 2.482337 21
-27.33581 -39.16579 3.881571 23
-13.72202 -39.61062 5.142277 80
-6.740904 -9.662029 2.140152 44
-3.548591 -10.1288 2.865127 41
-10.21507 -30.09253 0.1828083 9
-10.33837 -23.07478 0 9
-11.58751 -20.5934 -0.1235164 8
-11.61268 -16.83683 -0.2387215 24
-14.56701 -42.99411 1.33819 135
-18.73712 -41.98089 1.06642 96
-19.59299 -34.97497 0.6850764 11
-19.86627 -28.91501 0.4281448 8
nan nan nan 0
-0.1396646 -0.4030876 -0.1010979 39
-2.121435 -6.225249 -0.908275 27
-2.754788 -7.863981 -0.7853696 33
-3.44805 -9.957974 -0.673383 68
-3.987638 -8.843911 -0.6755914 24
-4.590856 -8.09195 -0.6997861 36
-5.222683 -7.524264 -0.7449624 14
nan nan nan 0
-5.037903 -11.32117 -0.576004 14
-5.554391 -9.897366 -0.5927047 12
-6.307415 -9.183392 -0.6459246 25
-6.13589 -17.90451 -0.3296759 11
-6.422965 -14.29394 -0.3629007 27
nan nan nan 0
-7.985704 -11.55531 -0.4842272 44
-3.094102 -4.518005 -0.9859847 36
-4.40689 -6.333889 -0.8637772 19
-27.32869 -39.31582 1.92151 45
-13.91748 -40.33384 2.480304 34
nan nan nan 0
-13.85692 -39.55311 5.141058 91
-6.780251 -9.646486 2.141946 43
-3.54044 -9.993414 2.830186 43
-10.27623 -29.929 0.1820307 10
-10.43945 -23.08412 0 10
-11.67906 -20.58761 -0.1237258 10
-11.7884 -16.9645 -0.2411187 17
nan nan nan 0
-18.89792 -41.94714 1.067232 92
-19.73955 -34.94989 0.6859316 9
-19.98985 -28.87837 0.4286335 9
nan nan nan 0
-0.1410708 -0.4025977 -0.1010979 47
-2.144762 -6.222489 -0.9089631 26
-2.778903 -7.84493 -0.7844268 35
-3.430094 -9.795153 -0.6631414 88
-3.950331 -8.680113 -0.6640816 27
-4.656218 -8.140786 -0.7054355 32
-5.251774 -7.510069 -0.7453695 15
-4.39972 -12.84052 -0.5506715 81
-5.067161 -11.28073 -0.5748395 15
-5.611041 -9.917026 -0.5950598 11
-6.362171 -9.194145 -0.6482481 24
-6.204894 -17.90188 -0.330025 10
-6.495527 -14.32152 -0.3641773 25
-7.3609 -12.92447 -0.4324802 34
-8.065989 -11.58476 -0.4866458 39
nan nan nan 0
-4.431828 -6.322534 -0.8643363 18
-27.49442 -39.26112 1.923517 27
-14.08778 -40.36985 2.485532 10
nan nan nan 0
-12.90818 -36.43568 4.741326 78
-6.734234 -9.510395 2.116841 48
-3.602952 -10.0583 2.852186 34
-10.36261 -29.84099 0.181714 9
-10.54073 -23.09302 0 10
-11.7732 -20.58578 -0.1239614 9
-11.76723 -16.80859 -0.2394816 21
nan nan nan 0
-19.04423 -41.88091 1.067232 94
-19.84163 -34.84602 0.6852474 10
-20.11056 -28.83712 0.4290611 8
nan nan nan 0
-0.1424753 -0.4021028 -0.1010979 39
-2.16647 -6.214965 -0.9089631 28
-2.804595 -7.830495 -0.7839553 32
-3.421023 -9.660806 -0.6548201 97
-4.038877 -8.793192 -0.6738475 22
-4.662183 -8.085616 -0.7020458 36
-5.280829 -7.495763 -0.7457766 14
-4.491899 -12.962 -0.5565665 100
nan nan nan 0
nan nan nan 0
-6.399939 -9.180068 -0.648829 24
-6.27065 -17.88954 -0.3301995 8
-6.510118 -14.22148 -0.3622044 31
-7.403481 -12.89436 -0.4323345 35
-8.020243 -11.43384 -0.4814632 41
-3.119944 -4.48822 -0.9842001 36
-4.45387 -6.307025 -0.8643363 18
nan nan nan 0
nan nan nan 0
nan nan nan 0
-14.12603 -39.43672 5.138621 92
-6.761673 -9.478825 2.115048 42
-3.63804 -10.04566 2.852186 44
-10.44022 -29.72915 0.1812532 9
-10.65055 -23.11967 0 9
-11.85997 -20.57055 -0.1241185 10
-11.96997 -16.97166 -0.242405 15
nan nan nan 0
-19.20698 -41.85053 1.068161 97
-19.95319 -34.75921 0.6849054 9
-20.20247 -28.75447 0.4288778 9
nan nan nan 0
-0.1423086 -0.397027 -0.09983423 40
-2.188151 -6.207365 -0.9089631 26
-2.828527 -7.811294 -0.7830125 27
-3.43121 -9.583025 -0.6503395 99
-4.059062 -8.756413 -0.6721036 27
-4.720457 -8.121013 -0.7065654 32
-5.309849 -7.481346 -0.7461837 14
nan nan nan 0
-5.133326 -11.21783 -0.5734419 14
nan nan nan 0
-6.446298 -9.178088 -0.6502811 21
-6.338064 -17.88168 -0.3304613 10
-6.559721 -14.19867 -0.3622044 28
-7.453454 -12.87709 -0.4326259 36
-8.019709 -11.34866 -0.4790446 41
-3.090375 -4.412869 -0.9699234 36
-4.478742 -6.295486 -0.8648953 17
nan nan nan 0
-13.01266 -36.46703 2.250571 51
nan nan nan 0
-14.26022 -39.37783 5.137402 101
-6.768867 -9.419227 2.106979 42
-3.669768 -10.02383 2.849598 39
-10.51215 -29.603 0.180706 9
-10.7333 -23.08688 0 10
-11.97693 -20.60683 -0.1245898 9
-11.99438 -16.88087 -0.2417034 18
nan nan nan 0
-19.35925 -41.79684 1.068509 95
nan nan nan 0
-20.38362 -28.79803 0.4305882 8
nan nan nan 0
-0.145279 -0.4010983 -0.1010979 41
-2.209805 -6.199689 -0.9089631 27
-2.85236 -7.792023 -0.7820697 24
-3.493471 -9.650764 -0.6557803 68
-4.093828 -8.751226 -0.6728011 32
-4.748775 -8.104486 -0.7065654 38
-5.338833 -7.466818 -0.7465908 14
-4.473936 -12.6242 -0.5433536 100
-5.18292 -11.22251 -0.5746065 15
nan nan nan 0
-6.484067 -9.163678 -0.650862 25
-6.4055 -17.87357 -0.3307231 10
-6.615579 -14.18928 -0.3625526 29
nan nan nan 0
-7.972285 -11.1985 -0.4738621 48
-3.020557 -4.28154 -0.9431546 46
-4.50069 -6.279814 -0.8648953 18
nan nan nan 0
nan nan nan 0
nan nan nan 0
-14.39077 -39.30918 5.134964 105
-6.795932 -9.387575 2.105186 45
nan nan nan 0
-10.59347 -29.50495 0.1803317 10
-10.82232 -23.06738 0 9
-12.03615 -20.54333 -0.1244589 9
-11.93969 -16.68038 -0.2394232 18
nan nan nan 0
nan nan nan 0
-19.17003 -32.86159 0.6500999 9
-20.51885 -28.77555 0.4313212 9
nan nan nan 0
-0.1482795 -0.4051538 -0.1023617 38
-2.231433 -6.191937 -0.9089631 24
-2.877817 -7.777349 -0.7815983 22
-3.494603 -9.549463 -0.6496994 80
nan nan nan 0
nan nan nan 0
-5.36778 -7.452179 -0.7469978 14
nan nan nan 0
nan nan nan 0
nan nan nan 0
-6.524713 -9.153177 -0.6517333 23
-6.47636 -17.87461 -0.3311594 9
nan nan nan 0
-7.538103 -12.81613 -0.4323345 31
-8.087086 -11.27615 -0.4783536 35
-3.175335 -4.467324 -0.9868769 37
-4.522583 -6.264066 -0.8648953 19
nan nan nan 0
nan nan nan 0
nan nan nan 0
-14.52789 -39.2587 5.134964 108
-6.851862 -9.395578 2.112358 41
-3.736278 -9.988921 2.847009 46
-10.68446 -29.43489 0.1801301 11
-10.91561 -23.05658 0 10
nan nan nan 0
nan nan nan 0
nan nan nan 0
nan nan nan 0
-19.24661 -32.72984 0.6488172 17
-20.66585 -28.76871 0.4322986 9
nan nan nan 0
-0.1496929 -0.4046337 -0.1023617 42
-2.253033 -6.184111 -0.9089631 25
-2.901467 -7.757929 -0.7806555 19
-3.538288 -9.56529 -0.6516197 91
-4.152678 -8.71793 -0.6724523 30
-4.80524 -8.071136 -0.7065654 36
-5.396688 -7.437428 -0.7474049 15
-4.578957 -12.63964 -0.5453864 98
nan nan nan 0
-5.760448 -9.778872 -0.5927047 14
-6.565364 -9.142505 -0.6526046 22
-6.543869 -17.86598 -0.3314212 11
-6.845218 -14.41821 -0.3696319 32
-7.554749 -12.74245 -0.4307316 34
-8.108829 -11.22356 -0.4773171 41
-3.173702 -4.43223 -0.9815232 39
-4.547347 -6.252257 -0.8654544 18
nan nan nan 0
-15.77575 -42.79219 2.65137 6
-28.47937 -38.75123 3.908324 6
-14.66658 -39.2124 5.135574 117
-6.916673 -9.415195 2.122221 110
-3.77965 -9.99841 2.85348 37
-10.76304 -29.3317 0.1797269 10
-11.00464 -23.03638 0 9
nan nan nan 0
-12.16167 -16.74221 -0.241528 18
nan nan nan 0
-19.8281 -41.65952 1.07025 89
nan nan nan 0
-20.81013 -28.75714 0.4332148 11
nan nan nan 0
-0.1527375 -0.4086623 -0.1036254 40
-2.272898 -6.17156 -0.908275 30
-2.926772 -7.743097 -0.7801841 20
-3.624006 -9.693122 -0.6612211 82
-4.150686 -8.635942 -0.6672206 31
nan nan nan 0
-5.42556 -7.422565 -0.747812 14
-4.641926 -12.67519 -0.5476223 93
nan nan nan 0
nan nan nan 0
-6.597237 -9.119531 -0.6526046 19
-6.618334 -17.87584 -0.332032 10
-6.921414 -14.44833 -0.3710245 33
-7.558154 -12.64736 -0.4284002 38
-8.224452 -11.3002 -0.4818087 39
-3.203564 -4.441061 -0.9859847 36
-4.569144 -6.236346 -0.8654544 18
-28.39621 -38.79361 1.929336 16
-15.92502 -42.73687 2.65137 7
-28.50769 -38.50741 3.893732 41
-14.80337 -39.16096 5.135574 111
-6.943641 -9.383088 2.120428 113
-3.812807 -9.980642 2.852186 35
-10.86884 -29.30332 0.1797845 9
-11.09801 -23.02486 0 10
-11.29864 -18.82992 -0.1147723 11
nan nan nan 0
nan nan nan 0
-19.92795 -41.49542 1.067812 71
-20.50293 -34.31556 0.6831095 11
-20.95457 -28.74492 0.4341311 10
nan nan nan 0
-0.1541631 -0.4081267 -0.1036254 42
-2.294427 -6.163588 -0.908275 27
-2.953783 -7.732833 -0.7801841 23
-3.663102 -9.694418 -0.6621813 90
-4.230844 -8.724633 -0.6752426 30
-4.869212 -8.050188 -0.7076953 31
-5.457352 -7.411604 -0.7486262 14
nan nan nan 0
nan nan nan 0
nan nan nan 0
-6.658447 -9.136774 -0.6555089 23
-6.684193 -17.862 -0.3322065 10
-6.958758 -14.39708 -0.3703282 33
nan nan nan 0
-8.26976 -11.27948 -0.4821542 40
-3.15244 -4.338377 -0.9654619 45
-4.593838 -6.224355 -0.8660135 20
-28.55221 -38.72239 1.930741 47
-16.0829 -42.70437 2.652822 7
nan nan nan 0
-14.94175 -39.11369 5.136183 119
-6.902807 -9.260235 2.098013 42
-3.830252 -9.922208 2.839245 32
-10.9272 -29.14816 0.1790646 10
-11.19143 -23.01296 0 8
nan nan nan 0
-12.20407 -16.55631 -0.2400663 25
nan nan nan 0
-20.13371 -41.55157 1.071062 91
-20.59938 -34.20524 0.6823398 10
-21.09917 -28.73204 0.4350474 8
nan nan nan 0
-0.1555868 -0.4075861 -0.1036254 43
-2.315928 -6.155542 -0.908275 29
-2.982547 -7.72712 -0.7806555 22
-3.69692 -9.681572 -0.6621813 81
-4.289759 -8.768062 -0.6797768 25
-4.892091 -8.02463 -0.7069421 32
-5.489132 -7.40051 -0.7494403 14
nan nan nan 0
nan nan nan 0
-5.803197 -9.61969 -0.5866861 14
-6.684389 -9.105432 -0.6549281 17
-6.741201 -17.82453 -0.3319448 11
-6.998018 -14.35024 -0.3697479 31
-7.801919 -12.8506 -0.4371431 28
-8.28532 -11.2184 -0.4807722 43
-3.205391 -4.378917 -0.9770617 34
-4.618505 -6.212266 -0.8665726 18
-28.8898 -38.8952 1.944385 5
-16.23542 -42.65731 2.653403 8
nan nan nan 0
-15.0764 -39.05666 5.135574 116
-6.938045 -9.240015 2.09891 42
-3.870122 -9.922278 2.843127 36
-10.99347 -29.01632 0.1784886 10
-11.28271 -22.9962 0 10
-11.44544 -18.7762 -0.1149294 11
-12.21408 -16.44939 -0.2391308 17
-16.17172 -42.75873 1.347627 7
-20.2896 -41.50349 1.071642 91
-20.72124 -34.1374 0.6824253 11
-21.24394 -28.7185 0.4359637 9
nan nan nan 0
-0.1570086 -0.4070405 -0.1036254 47
-2.337401 -6.14742 -0.908275 28
-3.011307 -7.721301 -0.7811269 24
-3.750425 -9.719827 -0.6657018 76
-4.33358 -8.779871 -0.6818694 24
-4.904406 -7.982019 -0.7046822 34
-5.517917 -7.385296 -0.7498474 15
-4.753222 -12.5698 -0.5451831 98
nan nan nan 0
-5.847119 -9.616437 -0.5877327 12
-6.701283 -9.061983 -0.6534759 21
nan nan nan 0
-7.037036 -14.30329 -0.3691677 31
-7.747581 -12.6613 -0.4316059 36
-8.339352 -11.20945 -0.4816359 37
-3.206039 -4.347918 -0.9726002 37
-4.640161 -6.196107 -0.8665726 18
nan nan nan 0
-16.38601 -42.60503 2.653693 9
-21.99513 -29.07113 2.961847 17
-15.21264 -39.0038 5.135574 116
-6.949472 -9.188289 2.092633 33
-3.902965 -9.904214 2.841833 38
-11.05895 -28.88437 0.1779127 10
-11.37843 -22.98804 0 9
-11.52138 -18.75317 -0.1150341 15
-12.30438 -16.45069 -0.239774 21
-16.31909 -42.69735 1.34748 10
-20.44983 -41.46379 1.072455 86
-20.82463 -34.03927 0.6819122 9
-21.37992 -28.69228 0.4366967 9
nan nan nan 0
-0.1584285 -0.40649 -0.1036254 47
-2.360618 -6.143848 -0.9089631 29
-3.040063 -7.715374 -0.7815983 27
-3.76442 -9.655527 -0.6621813 84
-4.346421 -8.728968 -0.6790792 21
-4.93749 -7.973327 -0.7054355 33
-5.549661 -7.37395 -0.7506616 14
-4.866545 -12.73516 -0.5531108 72
nan nan nan 0
-5.940674 -9.693877 -0.5937514 12
-6.670215 -8.954502 -0.6473768 24
nan nan nan 0
-7.066926 -14.23834 -0.3681232 32
-7.852082 -12.73201 -0.4349573 26
-8.387424 -11.19226 -0.4821542 41
nan nan nan 0
-4.664756 -6.183836 -0.8671317 18
nan nan nan 0
-16.54005 -42.56153 2.654564 10
-22.05115 -28.93473 2.955766 31
-15.34688 -38.94585 5.134964 117
-6.996417 -9.183531 2.097116 47
-3.933945 -9.881554 2.839245 40
-11.12364 -28.75232 0.1773367 10
-11.47201 -22.97502 0 9
-11.57624 -18.69584 -0.1149294 12
-12.28348 -16.30384 -0.2382538 17
-16.46623 -42.63546 1.347332 9
-20.61225 -41.42796 1.073383 77
-20.91708 -33.92382 0.6810571 9
-21.52797 -28.68144 0.4376741 10
nan nan nan 0
-0.1598464 -0.4059345 -0.1036254 46
-2.383837 -6.140188 -0.9096511 29
-3.068814 -7.709342 -0.7820697 28
-3.790795 -9.623754 -0.6609011 84
-4.305249 -8.571102 -0.6679182 27
-4.994339 -8.002565 -0.7095785 33
-5.57838 -7.358501 -0.7510687 14
-4.887599 -12.6575 -0.5504682 75
nan nan nan 0
-5.948231 -9.630604 -0.5911346 12
-6.797358 -9.058881 -0.6566707 20
nan nan nan 0
-7.159094 -14.29852 -0.3703282 31
-7.848978 -12.62813 -0.4323345 32
-8.489696 -11.24665 -0.485782 36
-3.209755 -4.290003 -0.9645696 44
-4.686314 -6.167515 -0.8671317 19
-22.01429 -29.00135 1.460797 33
-16.69217 -42.51283 2.655145 11
-29.32716 -38.20164 3.913999 5
-15.48273 -38.89204 5.134964 120
-7.618744 -9.92753 2.273744 44
-3.964815 -9.8588 2.836657 37
-11.18755 -28.62017 0.1767607 10
-11.56563 -22.96163 0 9
nan nan nan 0
-12.39776 -16.33652 -0.2393647 18
-16.62041 -42.59169 1.347775 10
-20.7657 -41.37363 1.073847 74
-21.01954 -33.82513 0.680544 8
-21.69431 -28.69385 0.4390179 9
nan nan nan 0
-0.1612624 -0.405374 -0.1036254 51
-2.407061 -6.136443 -0.9103392 27
-3.097561 -7.703203 -0.7825412 28
-3.833578 -9.63365 -0.6625013 68
-4.395987 -8.676164 -0.6773353 23
-5.056762 -8.03994 -0.7144747 33
-5.610085 -7.346903 -0.7518828 14
-4.880962 -12.51002 -0.5447765 87
nan nan nan 0
-6.005566 -9.64793 -0.5934898 11
-6.822915 -9.027138 -0.6560898 20
-5.853432 -14.84482 -0.2778423 13
-7.220227 -14.29575 -0.3709085 33
-7.935469 -12.66842 -0.4346659 36
-8.571267 -11.27262 -0.4882005 39
-3.21878 -4.270921 -0.962785 45
-4.710836 -6.155063 -0.8676907 19
-22.35213 -29.23386 1.476449 10
-16.8515 -42.48214 2.656888 10
-29.06091 -37.58264 3.860899 4
-15.6184 -38.83775 5.134964 114
-7.716563 -9.982574 2.292572 42
-4.011913 -9.876227 2.845715 33
-11.28188 -28.567 0.1766743 10
-11.6593 -22.94787 0 9
nan nan nan 0
-12.39092 -16.20975 -0.2381369 17
-16.77631 -42.55201 1.348364 10
-20.92354 -41.32765 1.074544 72
-21.08706 -33.67105 0.6789191 9
-21.86705 -28.7134 0.440484 10
nan nan nan 0
-0.1626765 -0.4048086 -0.1036254 50
-2.430287 -6.132608 -0.9110273 27
-3.1263 -7.696955 -0.7830125 28
-3.839302 -9.550749 -0.6577006 73
-4.462551 -8.731835 -0.6829159 21
-5.071446 -8.001187 -0.7125916 32
-5.638737 -7.331223 -0.7522899 13
nan nan nan 0
-5.512912 -10.91887 -0.5685507 14
-6.071054 -9.677658 -0.5966299 12
-6.860434 -9.011207 -0.6566707 19
-5.912609 -14.84287 -0.2781913 29
-7.233787 -14.19919 -0.3690516 33
-7.912931 -12.53499 -0.4310231 27
-8.668321 -11.31798 -0.4914829 36
-3.275369 -4.314477 -0.9752771 40
-4.732293 -6.138582 -0.8676907 18
-29.3264 -38.07637 1.928734 4
-16.99969 -42.42307 2.656888 8
-28.74784 -36.91092 3.802124 6
-15.75574 -38.7876 5.135574 116
-7.814859 -10.03706 2.311401 99
-4.044531 -9.857695 2.844421 37
-11.37412 -28.50887 0.1765592 10
-11.75301 -22.93373 0 8
-12.06852 -19.04234 -0.1178354 15
-12.43523 -16.15055 -0.237903 20
-16.93399 -42.51641 1.349102 7
-21.08132 -41.28107 1.07524 69
-21.20713 -33.60147 0.6790047 8
-21.99758 -28.67655 0.4410948 10
nan nan nan 0
-0.1640885 -0.4042383 -0.1036254 57
-2.451679 -6.124087 -0.9110273 25
-3.156922 -7.69521 -0.7839553 27
-3.866993 -9.523417 -0.6567405 96
-4.486149 -8.702904 -0.6818694 26
-5.10203 -7.987638 -0.7129682 30
-5.667348 -7.315433 -0.752697 15
nan nan nan 0
-5.605375 -11.00638 -0.5741407 13
-6.040748 -9.555127 -0.5903496 13
-6.9344 -9.042639 -0.6607368 20
-5.940143 -14.76184 -0.2770569 13
-7.271886 -14.15162 -0.3684714 32
nan nan nan 0
-8.658915 -11.22437 -0.4887188 41
-3.287417 -4.299113 -0.9743848 39
-4.756742 -6.125948 -0.8682498 18
-29.04872 -37.44486 1.901846 4
-17.13831 -42.34033 2.655436 8
-28.55041 -36.39475 3.759158 7
-15.89292 -38.73695 5.136183 117
-7.588649 -9.676954 2.234294 105
-4.101076 -9.897068 2.859951 37
-11.44367 -28.39478 0.1760984 10
-11.84447 -22.91477 0 9
-12.03802 -18.84841 -0.1168929 17
nan nan nan 0
-17.10094 -42.50341 1.350576 7
-21.24131 -41.23834 1.076052 65
-21.29478 -33.48083 0.678064 8
-22.16175 -28.68267 0.4423776 10
nan nan nan 0
-0.1654986 -0.4036631 -0.1036254 51
-2.471189 -6.110899 -0.9103392 27
-3.183764 -7.684143 -0.7839553 29
-3.894539 -9.496008 -0.6557803 81
-4.4958 -8.647358 -0.6787304 19
-5.132579 -7.973971 -0.7133448 37
-5.695918 -7.299534 -0.7531041 14
-5.04336 -12.53703 -0.5482322 71
-5.630072 -10.96009 -0.5727432 14
-6.106267 -9.584512 -0.5934898 12
-6.984241 -9.04207 -0.6624793 16
-6.00104 -14.76418 -0.2774932 12
nan nan nan 0
-7.946291 -12.3953 -0.4281088 37
-8.691908 -11.18619 -0.4883733 37
nan nan nan 0
-4.778097 -6.109306 -0.8682498 18
-28.70854 -36.74097 1.871145 6
-17.26523 -42.22942 2.652241 37
-28.2972 -35.81396 3.7093 9
-16.03184 -38.69041 5.137402 117
-7.549165 -9.557798 2.212776 35
-4.150496 -9.918342 2.870303 34
-11.53895 -28.3454 0.1760408 11
-11.93594 -22.89546 0 10
-7.053774 -10.96125 -0.06804135 12
-12.64619 -16.1894 -0.239774 17
-17.25297 -42.45272 1.350871 7
-21.39895 -41.19056 1.076749 59
-6.937453 -10.82596 0.2192655 21
-22.28631 -28.63669 0.4428663 8
nan nan nan 0
-0.1669066 -0.403083 -0.1036254 52
-2.490636 -6.09765 -0.9096511 27
-3.212486 -7.677575 -0.7844268 29
-3.887614 -9.385526 -0.6490592 96
-4.514381 -8.609523 -0.6769865 26
-5.163097 -7.960188 -0.7137215 35
-5.724444 -7.283523 -0.7535112 14
-5.062668 -12.45917 -0.5455896 86
nan nan nan 0
-6.142384 -9.567339 -0.5937514 12
-6.960556 -8.946748 -0.6572515 19
nan nan nan 0
-7.395972 -14.14925 -0.3697479 30
-7.029279 -10.88149 -0.3765259 18
-8.718577 -11.14004 -0.4876823 38
-3.368681 -4.342089 -0.9895539 42
-4.80247 -6.096491 -0.8688089 19
-28.49051 -36.20088 1.848671 9
-17.35349 -42.02586 2.643237 86
-28.04649 -35.24318 3.660254 27
nan nan nan 0
-7.613123 -9.569869 2.221742 112
-4.192604 -9.921591 2.875479 43
-11.62452 -28.27258 0.1758392 10
-12.02277 -22.86693 0 9
-7.029412 -10.84008 -0.06743921 33
-12.82324 -16.29837 -0.2420542 25
-17.2986 -42.14256 1.342909 57
-21.55652 -41.14218 1.077445 65
-6.988764 -10.82267 0.2196931 29
-22.42624 -28.60987 0.4436604 9
nan nan nan 0
-0.1683126 -0.4024979 -0.1036254 57
-2.51002 -6.084339 -0.9089631 28
-3.241201 -7.670901 -0.7848982 27
-3.908813 -9.344274 -0.647139 83
-4.565384 -8.6334 -0.6801256 24
-5.196309 -7.950463 -0.7144747 33
-5.756024 -7.271306 -0.7543253 13
nan nan nan 0
nan nan nan 0
nan nan nan 0
-6.985582 -8.914541 -0.6566707 26
nan nan nan 0
-7.473283 -14.17641 -0.3711406 30
-7.053583 -10.83594 -0.3757973 28
-8.69551 -11.03108 -0.4842272 47
-3.438409 -4.400029 -1.005615 35
-4.823721 -6.079691 -0.8688089 18
-28.27527 -35.67058 1.826599 15
nan nan nan 0
-28.3065 -35.31614 3.678089 44
nan nan nan 0
-7.551077 -9.424278 2.193948 109
-4.232891 -9.920226 2.879362 38
-11.71164 -28.20412 0.1756664 11
-12.11656 -22.85133 0 9
-7.067208 -10.81548 -0.06743921 32
-12.81793 -16.17516 -0.2408849 26
nan nan nan 0
-21.71401 -41.0932 1.078141 58
-7.021045 -10.78983 0.219522 31
-22.57245 -28.59027 0.4445767 9
nan nan nan 0
-0.1678942 -0.3974266 -0.1023617 56
-2.531244 -6.07554 -0.9089631 27
-3.267957 -7.659541 -0.7848982 28
-3.980191 -9.422523 -0.65354 87
-4.600185 -8.626215 -0.6808231 20
-5.226772 -7.93644 -0.7148514 33
-5.78448 -7.255064 -0.7547324 14
nan nan nan 0
nan nan nan 0
-6.3454 -9.733344 -0.6068354 12
-6.991902 -8.858769 -0.6543472 20
-6.745664 -16.1118 -0.3041954 18
-7.503955 -14.11492 -0.3702122 27
-7.085881 -10.8029 -0.3755059 30
-8.805463 -11.09064 -0.4882005 40
-3.444608 -4.376411 -1.002938 34
-4.848019 -6.066695 -0.869368 20
-28.15332 -35.26325 1.810746 36
nan nan nan 0
-28.4891 -35.29079 3.685791 39
-16.44001 -38.52954 5.138621 44
-7.52211 -9.321333 2.176016 49
-4.282763 -9.940881 2.889715 36
-11.80422 -28.14923 0.17558 9
-12.19154 -22.80008 0 9
-7.115919 -10.80745 -0.06754393 27
-12.6684 -15.87247 -0.237026 22
nan nan nan 0
-21.87143 -41.04362 1.078838 52
-7.064149 -10.77362 0.2196931 27
-22.71568 -28.56608 0.4454319 8
nan nan nan 0
-0.1692804 -0.3968382 -0.1023617 55
-2.552436 -6.066668 -0.9089631 26
-3.294674 -7.648087 -0.7848982 30
-4.024789 -9.436114 -0.6554602 71
-4.634991 -8.618891 -0.6815207 28
-5.257202 -7.922301 -0.715228 29
-5.816014 -7.242596 -0.7555466 14
nan nan nan 0
nan nan nan 0
-6.343692 -9.656888 -0.6034335 12
-6.994811 -8.799155 -0.6517333 23
-6.834934 -16.16644 -0.3056789 34
-7.477616 -13.94766 -0.3664984 24
-7.137329 -10.79894 -0.3762345 20
-8.844123 -11.05984 -0.4882005 41
-3.429265 -4.325837 -0.9940153 36
-4.869166 -6.049735 -0.869368 18
-28.45472 -35.38667 1.822184 28
nan nan nan 0
-28.27252 -34.77356 3.642013 19
-16.5744 -38.47192 5.138621 94
-7.514246 -9.245416 2.164361 37
-4.321286 -9.93473 2.892303 36
-11.87903 -28.0526 0.1752345 9
-12.30902 -22.8278 0 9
-12.40107 -18.6896 -0.1172332 16
-13.03081 -16.20995 -0.2427558 21
nan nan nan 0
-22.02876 -40.99344 1.079534 53
nan nan nan 0
-22.87465 -28.56075 0.4465925 9
nan nan nan 0
-0.1706646 -0.3962449 -0.1023617 59
-2.573597 -6.057721 -0.9089631 25
-3.323334 -7.641106 -0.7853696 28
-4.037991 -9.37617 -0.6522598 69
-4.686441 -8.642124 -0.6846597 24
-5.284823 -7.903901 -0.715228 29
-5.844397 -7.226124 -0.7559537 14
nan nan nan 0
nan nan nan 0
-6.347039 -9.58889 -0.6005551 12
-7.012997 -8.759106 -0.6505716 25
-6.285255 -14.72157 -0.2787149 8
-7.54527 -13.95665 -0.3674269 24
nan nan nan 0
-8.923441 -11.07947 -0.4904463 37
-3.398244 -4.256215 -0.9806309 46
-4.893385 -6.03656 -0.869927 19
-28.3485 -35.00373 1.807536 33
nan nan nan 0
-28.36531 -34.63996 3.638365 30
-16.7086 -38.41383 5.138621 102
-7.587001 -9.268592 2.176016 69
nan nan nan 0
-11.96705 -27.98798 0.1750905 10
-12.40534 -22.81545 0 9
-12.51904 -18.72517 -0.1177306 16
-12.95828 -16.00508 -0.2403587 19
nan nan nan 0
-22.18362 -40.93827 1.080114 48
nan nan nan 0
-23.0056 -28.51964 0.4472033 10
nan nan nan 0
-0.1720467 -0.3956467 -0.1023617 56
-2.596675 -6.053253 -0.9096511 28
-3.349986 -7.629458 -0.7853696 29
-4.064733 -9.348288 -0.6512997 77
-4.716579 -8.625712 -0.6846597 21
-5.312381 -7.885405 -0.715228 32
-5.875885 -7.213403 -0.7567679 13
nan nan nan 0
nan nan nan 0
-6.410954 -9.612366 -0.6034335 10
-7.052935 -8.746224 -0.6514429 19
-6.40977 -14.86943 -0.2819436 9
-7.653744 -14.03996 -0.3703282 26
nan nan nan 0
-8.921119 -10.99783 -0.4882005 39
-3.397646 -4.225173 -0.9761694 44
-4.917572 -6.023288 -0.8704861 20
-28.33787 -34.74198 1.799108 49
nan nan nan 0
-28.911 -35.05587 3.692681 23
-16.84857 -38.3689 5.140449 115
-7.741412 -9.390018 2.210983 91
nan nan nan 0
-12.03496 -27.87717 0.1746585 9
-12.50654 -22.81146 0 10
-12.53963 -18.61501 -0.1173118 16
-13.26692 -16.26966 -0.245036 31
-18.19362 -42.21061 1.355 5
-22.34796 -40.90007 1.081159 42
nan nan nan 0
-23.1397 -28.48184 0.4478753 9
nan nan nan 0
-0.1771963 -0.4039545 -0.1048891 50
-2.617789 -6.044152 -0.9096511 25
-3.376597 -7.617719 -0.7853696 30
-4.14742 -9.448291 -0.6593009 63
-4.724992 -8.56988 -0.6815207 28
-5.334272 -7.858564 -0.7144747 23
-5.904192 -7.196699 -0.757175 14
nan nan nan 0
nan nan nan 0
nan nan nan 0
-7.080273 -8.717679 -0.6511524 26
-7.131432 -16.38739 -0.3112637 11
-7.71715 -14.03944 -0.3710245 23
nan nan nan 0
-8.962616 -10.97049 -0.4883733 40
-3.499177 -4.32025 -1.001154 35
-4.941726 -6.009922 -0.8710452 19
-28.50337 -34.6969 1.801917 16
nan nan nan 0
-29.10962 -35.04674 3.70241 24
-16.98441 -38.31439 5.141058 117
-7.906191 -9.521822 2.24864 82
nan nan nan 0
-12.10224 -27.76624 0.1742265 10
-12.60786 -22.80705 0 8
-12.70563 -18.72005 -0.1182542 19
-13.32363 -16.22325 -0.245036 25
-18.33288 -42.12851 1.35441 6
-22.4713 -40.78679 1.08023 40
nan nan nan 0
-23.26748 -28.43571 0.448425 9
nan nan nan 0
-0.1805056 -0.4077823 -0.1061528 50
-2.638871 -6.034977 -0.9096511 27
-3.405197 -7.61043 -0.785841 29
-4.172298 -9.415504 -0.6580207 79
-4.740342 -8.527177 -0.679428 23
-5.35604 -7.831666 -0.7137215 18
-5.93563 -7.183725 -0.757989 14
nan nan nan 0
nan nan nan 0
-6.517105 -9.625252 -0.607097 11
-7.104335 -8.685186 -0.6505716 20
-7.228779 -16.45395 -0.3130089 14
-7.746729 -13.97744 -0.3700961 25
-8.303362 -12.18924 -0.4288373 30
-8.981797 -10.91599 -0.4873368 40
-3.532916 -4.330865 -1.006507 34
-4.965846 -5.996459 -0.8716043 18
-29.05751 -35.12064 1.829207 9
nan nan nan 0
-29.28935 -35.01371 3.709706 22
-17.1221 -38.26394 5.142277 116
-7.983582 -9.546974 2.261192 48
-17.09006 -37.8729 11.12275 10
-12.18701 -27.69636 0.1740537 9
-12.702 -22.78911 0 8
-12.80477 -18.72511 -0.1185684 13
-13.35149 -16.14198 -0.2445098 17
-18.46173 -42.02308 1.353083 6
-22.68878 -40.84356 1.083828 41
nan nan nan 0
-23.41748 -28.41604 0.4494024 9
nan nan nan 0
-0.1838438 -0.4115919 -0.1074166 53
-2.659921 -6.02573 -0.9096511 26
-3.431742 -7.598497 -0.785841 29
-4.150192 -9.277873 -0.6493793 93
-4.743261 -8.462711 -0.6755914 29
-5.377686 -7.804714 -0.7129682 17
-5.963859 -7.16679 -0.7583961 13
nan nan nan 0
nan nan nan 0
-6.525333 -9.565326 -0.6047419 13
-7.128258 -8.652634 -0.6499907 18
-6.354486 -14.32615 -0.2728684 14
-7.78572 -13.93286 -0.3696319 20
nan nan nan 0
-9.003897 -10.86534 -0.486473 42
-3.576152 -4.352692 -1.014538 35
-4.989932 -5.982902 -0.8721634 19
-28.9976 -34.80024 1.817769 11
-21.79473 -48.86941 3.111126 5
-29.45956 -34.96843 3.715786 16
-17.25352 -38.19941 5.141667 117
-7.978813 -9.473916 2.250433 39
-17.23016 -37.8306 11.12792 10
-12.27347 -27.6308 0.1739098 10
-12.79127 -22.76207 0 9
nan nan nan 0
-13.17728 -15.81875 -0.2403002 16
nan nan nan 0
nan nan nan 0
-22.37672 -32.61009 0.6758406 8
-23.56762 -28.39568 0.4503797 11
nan nan nan 0
-0.1872107 -0.4153831 -0.1086803 56
-2.682951 -6.020933 -0.9103392 28
-3.460307 -7.591003 -0.7863125 28
-4.188706 -9.276977 -0.6503395 81
-4.797303 -8.489532 -0.6790792 19
-5.399208 -7.777704 -0.7122149 17
-5.992043 -7.149747 -0.7588032 13
nan nan nan 0
nan nan nan 0
-6.637892 -9.657696 -0.612069 11
-7.139283 -8.604659 -0.6482481 24
-6.375876 -14.24 -0.2716467 31
-7.849026 -13.93173 -0.3703282 22
-8.206301 -11.86791 -0.4195116 42
-9.057786 -10.85302 -0.4873368 45
-3.607024 -4.359119 -1.019 34
-5.013985 -5.96925 -0.8727224 18
-29.38871 -35.02024 1.834625 15
-22.00001 -48.87042 3.116064 5
-29.60079 -34.88818 3.718218 17
-17.40322 -38.17508 5.146542 115
-8.015018 -9.449758 2.251329 46
-17.34396 -37.73073 11.11628 9
-12.35758 -27.56042 0.173737 9
-12.88296 -22.73903 0 10
-13.12337 -18.90634 -0.1202963 18
-13.32242 -15.87988 -0.2419372 16
-18.68524 -41.73806 1.34807 6
nan nan nan 0
-22.47052 -32.50299 0.6752419 9
-23.71149 -28.36693 0.4512349 9
nan nan nan 0
-0.1886595 -0.414727 -0.1086803 41
-2.703951 -6.011531 -0.9103392 28
-3.486784 -7.578878 -0.7863125 28
-4.239665 -9.303172 -0.6532199 73
-4.834313 -8.485738 -0.6801256 21
-5.437758 -7.77515 -0.7137215 17
-6.023397 -7.1364 -0.7596174 13
nan nan nan 0
nan nan nan 0
-6.654504 -9.609839 -0.6104989 11
-7.185287 -8.598829 -0.6497003 24
-6.407029 -14.17665 -0.2708613 23
-7.909951 -13.92598 -0.3709085 20
nan nan nan 0
-9.208199 -10.95518 -0.4933831 39
-3.603299 -4.323843 -1.013646 34
-5.038003 -5.955503 -0.8732815 18
-29.56238 -34.97849 1.837835 14
nan nan nan 0
-29.75801 -34.82631 3.722677 16
-17.53015 -38.10057 5.144714 116
-8.012794 -9.380597 2.241467 42
-5.340948 -11.50426 3.387941 38
-12.43928 -27.48522 0.1735354 9
-12.97466 -22.71563 0 9
nan nan nan 0
-13.46492 -15.93637 -0.2435159 18
-18.86169 -41.74091 1.350281 5
-23.16222 -40.68627 1.086033 21
-22.52669 -32.34232 0.6735315 8
-23.88122 -28.36813 0.4525788 9
nan nan nan 0
-0.1881438 -0.4096441 -0.1074166 47
-2.724919 -6.002057 -0.9103392 28
-3.513217 -7.566661 -0.7863125 29
-4.290857 -9.329126 -0.6561004 92
-4.873837 -8.486114 -0.6815207 21
-5.473483 -7.768346 -0.7148514 19
-6.051501 -7.119126 -0.7600245 14
nan nan nan 0
nan nan nan 0
nan nan nan 0
-7.21526 -8.573695 -0.6497003 28
-6.514524 -14.28157 -0.2733047 17
-7.983347 -13.94166 -0.372069 26
nan nan nan 0
-9.191473 -10.85815 -0.4904463 38
-3.621537 -4.315004 -1.014538 34
-5.061985 -5.94166 -0.8738406 19
-29.71344 -34.90932 1.839641 15
nan nan nan 0
-29.90866 -34.75621 3.726325 16
-17.66304 -38.03915 5.144714 82
-8.013392 -9.315293 2.232501 35
-5.415875 -11.55991 3.409941 37
-12.51854 -27.40525 0.173305 10
-13.06385 -22.68754 0 9
-13.19168 -18.72434 -0.1197203 14
-13.43296 -15.78648 -0.2419372 20
-19.01971 -41.7021 1.351166 7
-23.31156 -40.61818 1.086381 24
-22.67391 -32.31259 0.6745578 9
-23.9898 -28.29603 0.452762 9
nan nan nan 0
-0.1875949 -0.40457 -0.1061528 46
-2.745853 -5.992508 -0.9103392 26
-3.539608 -7.554352 -0.7863125 29
-4.344381 -9.359362 -0.6593009 71
-4.905929 -8.473366 -0.6818694 24
-5.506339 -7.757323 -0.7156047 21
-6.079558 -7.101742 -0.7604316 14
nan nan nan 0
-5.900679 -10.30759 -0.5520136 14
-6.775994 -9.640756 -0.6154708 11
-7.199935 -8.495169 -0.6456342 21
-6.549713 -14.22695 -0.2726938 18
-8.104423 -14.03926 -0.3754346 24
nan nan nan 0
-9.281212 -10.88682 -0.4932104 40
nan nan nan 0
-5.085932 -5.927723 -0.8743997 22
-29.87739 -34.85469 1.84225 14
nan nan nan 0
-30.0657 -34.69303 3.730784 17
nan nan nan 0
-8.074863 -9.320712 2.24057 40
-5.480943 -11.59334 3.42547 17
-12.59529 -27.32052 0.1730458 10
-13.17308 -22.69369 0 9
nan nan nan 0
-13.47822 -15.72811 -0.2417618 18
-19.16935 -41.64454 1.351461 6
nan nan nan 0
-22.74327 -32.17202 0.673275 10
-24.13063 -28.26155 0.4535562 9
nan nan nan 0
-0.189006 -0.4039127 -0.1061528 44
-2.766754 -5.982887 -0.9103392 25
-3.568082 -7.546452 -0.7867839 26
-4.40451 -9.402895 -0.6634615 54
-4.907828 -8.408798 -0.6780329 28
-5.542087 -7.75022 -0.7167345 23
-6.110822 -7.088022 -0.7612457 14
nan nan nan 0
nan nan nan 0
-6.800948 -9.60482 -0.6146858 11
-7.287909 -8.538295 -0.650862 18
-6.576182 -14.15412 -0.2717339 24
-8.110647 -13.93744 -0.3734617 33
-8.539412 -11.98826 -0.427963 32
-9.3159 -10.85057 -0.4930376 40
-3.670727 -4.312075 -1.019892 35
-5.109844 -5.913691 -0.8749588 20
-30.02826 -34.78422 1.844056 14
-13.92641 -29.81155 1.912216 29
-30.21939 -34.62541 3.734837 13
-17.93453 -37.92837 5.146542 93
-8.117057 -9.303583 2.24326 36
-5.064286 -10.61496 3.140769 10
-12.65052 -27.19024 0.1724987 10
-13.27242 -22.6821 0 8
nan nan nan 0
-13.58532 -15.74152 -0.2426973 18
-13.92565 -29.97319 0.9739662 16
-23.63989 -40.53217 1.08847 9
-22.81773 -32.0395 0.6721633 10
-19.97125 -23.2269 0.3737791 9
nan nan nan 0
-0.1904147 -0.4032505 -0.1061528 45
-2.787622 -5.973193 -0.9103392 26
-3.594402 -7.533951 -0.7867839 28
-4.369144 -9.243071 -0.6532199 54
-4.977606 -8.460407 -0.6836134 23
-5.577852 -7.742962 -0.7178645 20
-6.138796 -7.070409 -0.7616528 14
nan nan nan 0
-6.065397 -10.4259 -0.5606315 13
-6.848934 -9.601345 -0.6159942 11
-7.350225 -8.550641 -0.6537664 20
-6.62979 -14.14013 -0.2719085 16
-8.136491 -13.87023 -0.3724172 33
-8.537492 -11.89747 -0.4257773 39
-9.373338 -10.84066 -0.4940741 40
-3.679346 -4.291772 -1.018107 35
-5.130456 -5.895818 -0.8749588 19
-30.18556 -34.72066 1.846263 14
-14.13677 -29.98853 1.926737 17
-30.37627 -34.56089 3.739296 14
-18.08177 -37.89689 5.150807 115
-8.133241 -9.256724 2.238777 28
-5.122238 -10.64075 3.15371 45
-12.70925 -27.06897 0.1720091 10
-13.37691 -22.6787 0 9
-13.77282 -19.12067 -0.1231761 16
-13.51224 -15.54686 -0.2404171 18
-14.10018 -30.07374 0.9788324 17
-19.28978 -32.8092 0.8827065 12
-22.89737 -31.91497 0.6712226 10
-20.04239 -23.1457 0.3735959 8
nan nan nan 0
-0.1918212 -0.4025833 -0.1061528 44
-2.808455 -5.963426 -0.9103392 26
-3.622834 -7.525843 -0.7872552 30
-4.407819 -9.241278 -0.65418 72
-5.02237 -8.468724 -0.6857061 24
-5.610704 -7.731514 -0.7186177 23
-6.166722 -7.052687 -0.7620599 13
nan nan nan 0
nan nan nan 0
-6.894065 -9.593596 -0.6170409 11
-7.383296 -8.528704 -0.6540567 23
-7.653334 -16.1779 -0.3117 27
-8.217924 -13.89768 -0.3739259 26
-8.608255 -11.9081 -0.4272345 35
-9.424254 -10.82294 -0.4947652 42
-3.713616 -4.301228 -1.023461 33
-5.154283 -5.881608 -0.8755178 20
-30.34607 -34.66019 1.848671 14
-19.79067 -41.61002 2.67867 10
-30.53967 -34.50314 3.744565 14
-18.21609 -37.83801 5.151417 112
nan nan nan 0
-5.167782 -10.64018 3.158886 108
-12.79082 -26.99733 0.1718363 9
-13.47899 -22.67055 0 9
-13.79837 -19.01583 -0.1228095 17
-13.66524 -15.61244 -0.2421711 18
-14.22858 -30.07404 0.9804544 6
-23.95796 -40.42635 1.090095 9
-23.00571 -31.8308 0.6711371 9
-19.98502 -22.91737 0.3710303 13
nan nan nan 0
-0.1932253 -0.4019113 -0.1061528 41
-2.831376 -5.958061 -0.9110273 26
-3.653426 -7.522109 -0.7881981 29
nan nan nan 0
-5.087718 -8.511085 -0.690589 23
-5.643544 -7.71993 -0.719371 19
-6.197894 -7.038595 -0.7628741 14
nan nan nan 0
nan nan nan 0
-6.857225 -9.472414 -0.6107606 12
-7.422868 -8.514163 -0.6549281 17
-7.696846 -16.12401 -0.3111764 30
-8.307328 -13.93762 -0.3757828 25
-8.62917 -11.8497 -0.4262145 38
-9.481752 -10.81251 -0.4958017 34
-3.722145 -4.280819 -1.021676 34
-5.178072 -5.867304 -0.8760769 21
-30.50653 -34.59901 1.851079 15
-19.82784 -41.31567 2.664149 86
-30.69972 -34.44097 3.749429 14
-18.34806 -37.7742 5.151417 113
-9.353445 -10.49557 2.555272 45
-5.198522 -10.60907 3.155004 43
-12.81815 -26.81267 0.1709436 10
-13.58374 -22.66625 0 8
-13.94433 -19.07652 -0.1235164 14
-13.82217 -15.68088 -0.2439836 17
-19.82856 -41.53971 1.356917 49
-24.12456 -40.38539 1.091255 14
-23.13139 -31.77051 0.6715647 10
-24.71756 -28.14348 0.4571601 6
nan nan nan 0
-0.1946271 -0.4012343 -0.1061528 41
-2.852156 -5.948141 -0.9110273 27
-3.681849 -7.513782 -0.7886695 28
-4.533189 -9.335992 -0.6631414 69
-5.109677 -8.480454 -0.6895427 21
-5.679329 -7.712226 -0.7205009 22
-6.229043 -7.024371 -0.7636883 15
nan nan nan 0
-6.256032 -10.49912 -0.5680848 15
-6.910847 -9.476657 -0.6125923 12
-7.419591 -8.450706 -0.6520237 23
-7.753082 -16.09705 -0.3111764 31
-8.368798 -13.92997 -0.376363 22
-8.705962 -11.86786 -0.427963 37
-9.542602 -10.80556 -0.4970109 33
-3.746798 -4.278895 -1.024353 32
-5.201825 -5.852904 -0.876636 22
-30.67024 -34.54087 1.853687 16
nan nan nan 0
-30.8697 -34.38922 3.75551 14
-18.48854 -37.72775 5.153854 114
-9.284842 -10.34575 2.526582 77
-5.344579 -10.81171 3.221003 42
-12.76401 -26.4615 0.1689853 10
-13.65244 -22.60157 0 9
nan nan nan 0
-13.8237 -15.57273 -0.2430481 15
nan nan nan 0
-24.28858 -40.33947 1.0923 12
-23.2865 -31.75004 0.6728474 11
-24.80571 -28.0458 0.4569769 7
nan nan nan 0
-0.1960264 -0.4005525 -0.1061528 37
-2.872902 -5.938149 -0.9110273 27
-3.710258 -7.505349 -0.7891409 29
-4.572328 -9.333558 -0.6641016 61
-5.185836 -8.539312 -0.6958207 23
-5.715129 -7.704366 -0.7216308 21
-6.260168 -7.010014 -0.7645024 14
-5.731042 -11.9006 -0.5358324 98
nan nan nan 0
-6.943885 -9.452477 -0.6125923 12
-7.455661 -8.43223 -0.6526046 31
-7.876918 -16.2093 -0.3138815 30
nan nan nan 0
nan nan nan 0
-9.663318 -10.8655 -0.5013298 34
-3.764969 -4.269478 -1.025246 34
-5.228856 -5.842111 -0.8777542 21
-30.84059 -34.48946 1.856697 15
nan nan nan 0
-31.02297 -34.31822 3.759563 21
-18.62452 -37.67188 5.155073 112
-9.360496 -10.35706 2.53734 99
