# .PCD v0.7 - Point Cloud Data file format
VERSION 0.7
FIELDS x y z intensity
SIZE 4 4 4 4
TYPE F F F F
COUNT 1 1 1 1
WIDTH 1665
HEIGHT 1
VIEWPOINT 0 0 0 1 0 0 0
POINTS 1665
DATA ascii
23.07576 -26.68552 0.2029667 14
nan nan nan 0
13.16966 -22.59694 -0.1367372 15
11.38083 -24.40453 -0.3144366 17
61.46923 -70.99564 2.769574 13
nan nan nan 0
26.35276 -45.02177 0.8916854 17
17.42311 -37.18179 0.5012025 29
nan nan nan 0
0.2131743 -0.2517179 -0.07582346 10
4.859253 -5.631978 -1.028002 28
6.281138 -7.406605 -0.9159503 20
8.244849 -9.651437 -0.8116441 13
6.720875 -9.481173 -0.8098726 15
5.207553 -9.008522 -0.7830221 36
4.081039 -8.818835 -0.7905558 40
11.17802 -12.90828 -0.6931671 20
8.8181 -12.31125 -0.7043414 15
6.937268 -11.87297 -0.7185726 13
5.435989 -11.59721 -0.7429295 8
15.63377 -18.18436 -0.4178979 41
11.8358 -16.6516 -0.4733841 24
9.512244 -16.38603 -0.5512374 9
7.109311 -15.28181 -0.5813145 9
2.418903 -5.142024 -1.023461 18
3.372296 -7.308533 -0.9012354 19
61.9726 -134.1694 5.934288 8
nan nan nan 0
12.48214 -27.40116 2.445844 20
13.68588 -16.14604 2.593989 44
10.96913 -24.08925 4.817361 27
14.04188 -16.67152 5.829899 44
nan nan nan 0
17.71979 -25.05755 0 23
13.06819 -22.60381 -0.1365016 39
11.29558 -24.4441 -0.3144366 19
61.21452 -71.20221 2.769279 14
nan nan nan 0
13.00431 -22.39417 0.4422937 32
17.329 -37.31948 0.5022409 36
nan nan nan 0
nan nan nan 0
4.833115 -5.641388 -1.026626 31
6.242413 -7.413261 -0.9140646 18
8.198192 -9.664943 -0.8103639 12
6.681997 -9.496417 -0.809175 16
5.1612 -9.000691 -0.7807624 35
4.048157 -8.828496 -0.7901487 36
11.15571 -12.97373 -0.69459 15
8.763493 -12.32568 -0.7034097 14
6.893278 -11.89279 -0.718311 13
5.391273 -11.60706 -0.7423486 10
15.59942 -18.27303 -0.4186832 34
11.81507 -16.7459 -0.4748928 21
9.464962 -16.43646 -0.5518203 9
7.049653 -15.29291 -0.5807962 10
2.400939 -5.150436 -1.023461 22
3.342639 -7.31122 -0.9001173 19
61.51635 -134.4121 5.935492 9
nan nan nan 0
12.50937 -27.71713 2.470165 21
nan nan nan 0
11.05886 -24.51304 4.894467 18
13.9867 -16.72414 5.831193 34
22.99597 -26.9715 0.203917 6
17.60061 -25.07424 0 20
13.0091 -22.68399 -0.136711 26
11.21434 -24.49248 -0.3145535 18
60.96236 -71.41164 2.769131 10
32.394 -46.00995 1.305491 6
13.01588 -22.59538 0.4453723 35
17.19027 -37.36158 0.5019966 32
nan nan nan 0
nan nan nan 0
4.810182 -5.654455 -1.025938 32
6.206913 -7.423555 -0.9126503 19
8.151541 -9.67824 -0.8090838 13
6.64595 -9.515594 -0.8088262 17
5.137144 -9.031656 -0.7818923 39
4.013197 -8.833495 -0.7893345 34
11.08115 -12.97841 -0.6927606 16
8.714654 -12.34803 -0.7029439 14
6.844258 -11.9038 -0.717526 14
5.346554 -11.61673 -0.7417678 9
15.55494 -18.35025 -0.4192068 27
11.77088 -16.80751 -0.4754731 27
9.402575 -16.46072 -0.5515288 8
6.990005 -15.30379 -0.580278 9
2.380888 -5.154318 -1.022569 19
3.31505 -7.318316 -0.8995582 18
15.84506 -34.93313 1.539054 8
13.72822 -16.27091 1.236376 15
12.40238 -27.73788 2.468138 31
12.81837 -15.33888 2.449574 43
9.89188 -22.13071 4.411207 9
13.92515 -16.76915 5.829899 17
29.97485 -35.40382 0.2669554 7
nan nan nan 0
nan nan nan 0
11.11846 -24.50871 -0.3142612 21
nan nan nan 0
32.23606 -46.12684 1.305607 9
nan nan nan 0
17.17585 -37.67612 0.5054173 28
nan nan nan 0
0.2168321 -0.261275 -0.07835092 9
4.784017 -5.663649 -1.024562 30
6.161873 -7.422206 -0.9098219 20
8.1081 -9.695158 -0.8081236 13
6.609852 -9.534637 -0.8084775 16
5.130076 -9.09296 -0.7856585 34
3.97621 -8.833814 -0.7881132 32
11.00992 -12.98653 -0.6911344 16
8.665766 -12.3702 -0.7024781 14
6.805138 -11.93195 -0.7177876 12
5.301833 -11.62624 -0.7411869 9
15.43605 -18.33943 -0.4177233 32
11.73497 -16.88133 -0.4764015 23
9.337668 -16.48039 -0.5510917 9
6.928307 -15.30989 -0.579587 9
2.362881 -5.162597 -1.022569 18
3.285422 -7.320775 -0.8984401 19
15.68003 -34.89252 1.53484 44
13.37955 -15.97062 1.209947 34
12.21268 -27.57138 2.449492 30
12.69501 -15.29953 2.436168 41
10.57296 -23.87893 4.752806 23
nan nan nan 0
30.02806 -35.71871 0.2685392 16
17.41091 -25.17594 0 19
14.38344 -25.4916 -0.1530472 22
11.03079 -24.54281 -0.3142027 18
59.92161 -71.19315 2.744358 12
31.96659 -46.08302 1.301197 66
nan nan nan 0
17.11419 -37.89078 0.5074942 17
nan nan nan 0
nan nan nan 0
4.761033 -5.676522 -1.023874 27
6.145432 -7.455189 -0.9112362 18
8.06464 -9.711888 -0.8071635 13
6.570874 -9.549436 -0.8077799 16
5.066664 -9.054245 -0.7807624 36
3.937242 -8.82943 -0.7864849 36
10.94521 -13.00196 -0.6899147 17
8.616829 -12.39217 -0.7020122 14
6.743781 -11.92086 -0.7156941 13
5.257111 -11.63558 -0.7406061 9
15.37835 -18.40087 -0.4178979 33
11.68449 -16.93453 -0.4767497 24
9.25805 -16.47367 -0.5497802 9
6.864609 -15.31117 -0.5787233 8
2.342818 -5.166331 -1.021676 19
3.257833 -7.327656 -0.897881 19
15.68408 -35.23004 1.547281 6
nan nan nan 0
12.51667 -28.52663 2.530561 20
12.59734 -15.29013 2.427637 37
9.76676 -22.26681 4.424655 15
12.40918 -15.15847 5.238497 33
nan nan nan 0
17.32575 -25.24068 0 23
14.36274 -25.66383 -0.1537803 24
10.93285 -24.55375 -0.3138519 17
59.50606 -71.20248 2.73669 12
31.77718 -46.15315 1.300037 107
nan nan nan 0
15.75896 -35.21655 0.4709043 36
nan nan nan 0
nan nan nan 0
4.734845 -5.6855 -1.022497 27
6.122526 -7.480445 -0.9117076 29
8.024338 -9.732282 -0.8065234 14
6.534687 -9.568194 -0.8074312 15
5.10517 -9.198311 -0.7916847 23
3.900365 -8.829441 -0.7852637 38
10.8677 -13.00177 -0.687882 17
8.565007 -12.40984 -0.7013134 15
6.687472 -11.9182 -0.7141241 13
5.212389 -11.64474 -0.7400252 10
15.30764 -18.44674 -0.4177233 37
11.63378 -16.98759 -0.4770979 20
9.16643 -16.44477 -0.5477403 10
6.803013 -15.31677 -0.5780322 9
2.322758 -5.169988 -1.020784 23
3.228235 -7.329886 -0.8967628 18
nan nan nan 0
13.1946 -15.97514 1.203267 12
nan nan nan 0
12.50617 -15.28793 2.420325 33
9.632161 -22.16992 4.398654 32
12.31658 -15.15298 5.221674 17
nan nan nan 0
17.20094 -25.24729 0 22
14.32159 -25.80124 -0.1543038 19
10.74221 -24.35388 -0.3108116 17
59.14226 -71.2713 2.731382 11
31.59614 -46.23491 1.299224 95
nan nan nan 0
17.01737 -38.38872 0.5125642 18
nan nan nan 0
nan nan nan 0
4.711811 -5.698179 -1.021809 25
6.102659 -7.509493 -0.9126503 34
7.983993 -9.752516 -0.8058833 13
6.495648 -9.582689 -0.8067335 16
5.111486 -9.285967 -0.7977109 22
3.86154 -8.824735 -0.7836353 37
10.81906 -13.03578 -0.6876787 15
8.513168 -12.42731 -0.7006147 12
6.645829 -11.94147 -0.7141241 12
5.167666 -11.65374 -0.7394443 9
15.2209 -18.47306 -0.4171125 35
11.55755 -17.00329 -0.4764015 18
9.116223 -16.48979 -0.5481774 8
6.73744 -15.31298 -0.5769957 9
2.300705 -5.169072 -1.019 19
3.200646 -7.336555 -0.8962037 19
nan nan nan 0
13.07226 -15.94007 1.197168 127
12.0001 -27.8763 2.465301 29
12.42456 -15.29683 2.414841 32
9.552773 -22.19889 4.397758 11
12.78548 -15.84218 5.444259 13
33.9422 -41.24257 0.3074162 30
17.21354 -25.45628 0 22
5.231071 -9.499745 -0.05657459 6
10.56909 -24.18962 -0.308239 16
58.91537 -71.50433 2.732414 8
nan nan nan 0
5.168686 -9.344111 0.1819801 38
16.83704 -38.34259 0.5111593 22
nan nan nan 0
nan nan nan 0
4.685601 -5.706941 -1.020433 26
6.06077 -7.511389 -0.9102933 38
7.940455 -9.768712 -0.8049231 12
6.45659 -9.59703 -0.806036 16
5.110087 -9.360649 -0.8026071 19
3.822796 -8.819867 -0.782007 37
10.76396 -13.0619 -0.6870689 16
8.464118 -12.44868 -0.7001489 14
nan nan nan 0
5.122944 -11.66257 -0.7388634 9
15.08033 -18.43323 -0.4150182 38
11.48414 -17.02282 -0.4758213 19
5.207572 -9.496183 -0.3145973 7
6.673973 -15.31349 -0.5761319 9
2.280667 -5.172567 -1.018107 19
3.171082 -7.338558 -0.8950856 18
12.45432 -28.78017 1.257931 6
13.11427 -16.10557 1.206171 36
12.06097 -28.28937 2.498133 17
12.20903 -15.13927 2.383155 41
10.30791 -24.18714 4.785083 14
12.72709 -15.88295 5.442964 31
33.86764 -41.44598 0.3080498 17
17.19146 -25.61585 0 25
5.159547 -9.44773 -0.05615571 10
10.35558 -23.9281 -0.3044387 17
nan nan nan 0
nan nan nan 0
5.176902 -9.436614 0.1834339 22
16.76689 -38.54785 0.513114 26
nan nan nan 0
0.2122392 -0.2650194 -0.07835092 9
4.66252 -5.719426 -1.019745 26
6.018941 -7.513083 -0.9079363 36
7.896901 -9.784724 -0.8039629 13
6.42305 -9.619509 -0.806036 16
5.077381 -9.378429 -0.8026071 20
3.784133 -8.814836 -0.7803787 31
10.70564 -13.08393 -0.6862558 19
8.41223 -12.46573 -0.6994501 14
nan nan nan 0
5.078224 -11.67122 -0.7382826 9
15.00013 -18.46636 -0.4145819 30
11.52757 -17.21647 -0.4801153 16
5.121877 -9.417702 -0.3113916 7
6.608605 -15.30917 -0.5750954 10
2.260632 -5.175987 -1.017215 21
3.143494 -7.345013 -0.8945265 18
12.29083 -28.67651 1.25151 43
13.12076 -16.22886 1.21198 31
11.85945 -28.08795 2.47665 14
12.08474 -15.09272 2.36914 35
10.20048 -24.16859 4.774324 20
nan nan nan 0
nan nan nan 0
17.06035 -25.61329 0 21
5.069407 -9.360157 -0.0555274 8
10.29562 -24.01925 -0.3051403 20
nan nan nan 0
nan nan nan 0
5.115269 -9.401927 0.1824077 16
16.69749 -38.75768 0.5151299 12
nan nan nan 0
0.2082377 -0.2620242 -0.07708719 10
4.636289 -5.727972 -1.018369 25
5.967874 -7.502896 -0.904165 39
7.853332 -9.800554 -0.8030028 13
6.367386 -9.608612 -0.8032457 15
5.028111 -9.365344 -0.7999707 14
3.747499 -8.814229 -0.7791574 36
10.64729 -13.10572 -0.6854426 16
8.363106 -12.48672 -0.6989843 15
nan nan nan 0
5.033506 -11.67971 -0.7377017 10
14.91674 -18.49527 -0.4140583 40
11.53381 -17.35652 -0.4829006 16
5.034422 -9.33434 -0.3080401 6
6.543348 -15.30457 -0.5740589 9
2.240602 -5.179329 -1.016323 21
3.1159 -7.351365 -0.8939674 18
12.36237 -29.12396 1.269168 15
13.05466 -16.26289 1.211109 8
11.71521 -28.01882 2.466922 10
12.06288 -15.17365 2.375233 37
11.21377 -26.83208 5.293448 27
11.7175 -14.83467 5.054736 35
22.03314 -27.3539 0.202074 19
17.03151 -25.76444 0 18
5.003593 -9.316122 -0.05516088 8
10.1707 -23.95839 -0.3039125 22
68.85061 -85.36693 3.234659 7
nan nan nan 0
5.039702 -9.340524 0.1808684 16
12.42129 -29.10773 0.3861794 41
nan nan nan 0
nan nan nan 0
4.613162 -5.740263 -1.017681 28
5.944734 -7.527586 -0.9046364 39
7.80975 -9.816197 -0.8020427 12
6.314618 -9.601611 -0.8008043 16
4.953228 -9.303613 -0.7931913 12
3.708984 -8.808881 -0.7775291 36
10.58893 -13.12725 -0.6846296 17
8.308405 -12.4992 -0.6980526 13
nan nan nan 0
4.990748 -11.69261 -0.7374113 9
14.84584 -18.53942 -0.4138838 30
11.586 -17.56775 -0.4876588 14
5.01359 -9.373894 -0.3087687 5
6.480151 -15.30431 -0.5731952 10
2.220576 -5.182595 -1.01543 21
3.09022 -7.362197 -0.8939674 19
nan nan nan 0
nan nan nan 0
11.62877 -28.08717 2.469354 37
nan nan nan 0
11.32496 -27.36652 5.391176 23
11.67459 -14.88688 5.058618 47
21.95314 -27.45016 0.202218 18
16.81256 -25.62725 0 16
4.9264 -9.249676 -0.05466346 9
nan nan nan 0
57.07399 -71.27446 2.692895 6
nan nan nan 0
4.964626 -9.278709 0.1793291 13
16.60549 -39.29702 0.5207497 23
nan nan nan 0
0.2246975 -0.2860066 -0.08466953 9
4.586913 -5.748593 -1.016305 28
5.918422 -7.548292 -0.9046364 40
7.766152 -9.831655 -0.8010825 12
6.237435 -9.556771 -0.7952237 17
4.88582 -9.254704 -0.7875417 10
3.672467 -8.80797 -0.7763078 36
10.53055 -13.14854 -0.6838165 20
8.253721 -12.51145 -0.6971209 14
nan nan nan 0
4.946019 -11.70077 -0.7368304 8
nan nan nan 0
11.59031 -17.70846 -0.4904441 13
4.891882 -9.22354 -0.3032316 6
6.415104 -15.29918 -0.5721586 9
2.200554 -5.185784 -1.014538 18
3.062599 -7.36835 -0.8934084 18
nan nan nan 0
nan nan nan 0
11.71393 -28.57491 2.508672 30
12.1557 -15.51134 2.414841 38
12.03281 -29.36782 5.777605 24
nan nan nan 0
nan nan nan 0
16.80212 -25.80729 0 16
4.861404 -9.204913 -0.05429694 9
10.05505 -24.15344 -0.3054911 25
38.81483 -48.82346 1.839108 13
nan nan nan 0
4.880675 -9.198819 0.1774477 14
16.5261 -39.49311 0.5225822 25
nan nan nan 0
nan nan nan 0
4.56374 -5.760689 -1.015617 27
5.888978 -7.564979 -0.904165 40
7.722544 -9.846931 -0.8001224 12
6.242008 -9.637089 -0.8001066 17
4.756405 -9.086162 -0.7717232 14
3.634103 -8.802307 -0.7746795 36
10.47525 -13.17349 -0.6832067 19
8.196317 -12.5193 -0.6959563 14
nan nan nan 0
4.901295 -11.70875 -0.7362496 7
nan nan nan 0
11.62374 -17.89552 -0.494506 14
4.822447 -9.169779 -0.3009001 8
6.350173 -15.29379 -0.5711221 9
2.180537 -5.188896 -1.013646 19
3.034972 -7.374399 -0.8928493 18
20.50798 -49.7663 2.160294 4
nan nan nan 0
12.09181 -29.79322 2.612035 15
12.10148 -15.55367 2.414841 34
3.871883 -9.534485 1.868487 13
11.66789 -15.09409 5.101323 34
nan nan nan 0
16.75535 -25.93298 0 16
4.792142 -9.15095 -0.05387807 34
10.00877 -24.28085 -0.3066604 21
38.59772 -48.89981 1.836896 18
nan nan nan 0
4.820611 -9.162702 0.1764215 31
16.46085 -39.72608 0.5249035 28
nan nan nan 0
0.204559 -0.2649061 -0.07708719 11
4.540539 -5.772695 -1.014928 29
5.859489 -7.581553 -0.9036936 38
7.681991 -9.865955 -0.7994823 13
6.232608 -9.696578 -0.8032457 16
4.759099 -9.169093 -0.7773727 15
3.593941 -8.791869 -0.7726441 37
10.42611 -13.20606 -0.6830034 18
8.141679 -12.53108 -0.6950247 15
nan nan nan 0
4.856575 -11.71656 -0.7356687 10
nan nan nan 0
11.55308 -17.92338 -0.4941578 15
4.771929 -9.1511 -0.2997344 30
6.287255 -15.29275 -0.5702583 9
2.160525 -5.191932 -1.012753 22
3.005469 -7.375743 -0.8917311 19
20.80586 -50.99408 2.210459 7
nan nan nan 0
11.46959 -28.545 2.498944 28
12.05925 -15.61153 2.417278 37
3.845906 -9.566202 1.872073 41
11.55924 -15.06195 5.076735 44
nan nan nan 0
16.64853 -25.96605 0 18
4.764777 -9.176498 -0.05393043 27
9.925839 -24.32026 -0.3067189 18
nan nan nan 0
31.15819 -48.44439 1.336361 6
4.781664 -9.166175 0.1761649 39
16.31069 -39.75554 0.5245369 28
nan nan nan 0
0.203633 -0.2656185 -0.07708719 10
4.51731 -5.784608 -1.01424 27
5.829957 -7.598012 -0.9032222 40
7.644452 -9.888763 -0.7991623 12
6.005555 -9.415528 -0.7781334 25
4.70882 -9.150182 -0.7743596 20
3.553895 -8.781259 -0.7706087 35
10.37686 -13.23844 -0.6828001 23
8.08706 -12.54263 -0.694093 14
4.760983 -9.145839 -0.5382753 19
4.81186 -11.72421 -0.7350878 10
nan nan nan 0
11.47428 -17.93834 -0.4934615 16
4.749135 -9.18546 -0.3003173 15
6.224424 -15.29146 -0.5693945 9
2.142389 -5.199442 -1.012753 18
2.977849 -7.38158 -0.8911721 18
20.65204 -51.12661 2.213068 4
13.5087 -17.44311 1.281394 24
11.37908 -28.60802 2.500971 20
12.07115 -15.74015 2.430684 37
3.814307 -9.58414 1.87297 40
11.44511 -15.02155 5.04956 44
nan nan nan 0
16.63832 -26.15056 0 14
4.735003 -9.197519 -0.05395661 25
nan nan nan 0
nan nan nan 0
30.96738 -48.51915 1.335433 8
4.756527 -9.196134 0.1764215 36
16.23201 -39.96047 0.5264916 33
nan nan nan 0
nan nan nan 0
4.494053 -5.796429 -1.013552 28
5.803399 -7.618316 -0.9032222 40
7.606847 -9.91143 -0.7988422 13
nan nan nan 0
4.647406 -9.108822 -0.7694634 23
3.510267 -8.76122 -0.767759 38
10.34287 -13.29035 -0.6836132 15
8.037844 -12.56238 -0.6936272 14
4.747343 -9.197901 -0.5403687 11
4.765275 -11.72706 -0.7342165 9
13.66707 -17.6921 -0.3895377 30
11.43302 -18.01204 -0.4943899 16
4.728438 -9.224223 -0.3010459 16
6.159811 -15.28528 -0.568358 9
2.122372 -5.202332 -1.011861 20
2.950224 -7.387314 -0.890613 18
30.90149 -77.28355 3.341373 93
13.56339 -17.6405 1.29243 38
11.3193 -28.74959 2.509888 18
12.01312 -15.77824 2.430074 41
3.777228 -9.58824 1.871176 44
11.43341 -15.11532 5.067677 44
13.52819 -17.53784 0.1273438 38
16.62702 -26.33531 0 18
4.711959 -9.231808 -0.05406133 17
9.633321 -24.08257 -0.3028601 17
13.46445 -17.43645 0.6488193 33
nan nan nan 0
4.731239 -9.226027 0.176678 37
16.11107 -40.06327 0.5271025 31
nan nan nan 0
0.2047567 -0.2708421 -0.07835092 10
4.470768 -5.808159 -1.012864 26
5.779776 -7.642496 -0.9036936 40
7.566152 -9.929987 -0.7982021 13
5.990093 -9.537472 -0.7847603 17
4.674069 -9.240674 -0.7792557 29
3.481498 -8.778054 -0.7681661 36
10.25669 -13.27499 -0.6809707 15
7.985911 -12.57771 -0.6929284 14
4.708386 -9.20108 -0.5395837 13
4.728032 -11.75288 -0.7347974 9
13.5961 -17.7278 -0.3892759 34
11.38873 -18.08144 -0.4952023 16
4.691684 -9.231761 -0.3007544 9
6.097167 -15.28348 -0.5674943 10
2.102361 -5.205145 -1.010969 21
2.920773 -7.388323 -0.8894948 19
30.75471 -77.70221 3.354817 154
nan nan nan 0
11.1827 -28.69605 2.501781 16
12.04778 -15.93882 2.448355 35
3.736599 -9.583031 1.86759 45
11.64748 -15.51037 5.186733 32
13.5794 -17.7318 0.1284093 38
16.56154 -26.43556 0 20
13.81706 -27.31357 -0.1600634 28
9.700053 -24.49726 -0.3076544 18
13.57384 -17.70541 0.657077 33
30.89656 -49.16161 1.347154 8
nan nan nan 0
16.0155 -40.23076 0.5285686 34
nan nan nan 0
nan nan nan 0
4.444448 -5.815865 -1.011488 26
5.762035 -7.674562 -0.9051078 35
7.528432 -9.95236 -0.7978821 11
nan nan nan 0
4.695401 -9.363909 -0.788295 18
3.450835 -8.790154 -0.7681661 35
10.19203 -13.28693 -0.679751 16
7.933969 -12.59283 -0.6922297 13
nan nan nan 0
4.688823 -11.77395 -0.7350878 9
13.57655 -17.83083 -0.3904976 31
11.34674 -18.155 -0.4961307 14
8.33937 -16.55529 -0.5392888 9
6.032779 -15.27678 -0.5664577 9
2.082357 -5.207882 -1.010077 19
2.893158 -7.393845 -0.8889357 18
30.50515 -77.86491 3.357225 68
nan nan nan 0
11.01435 -28.5582 2.486378 38
12.11126 -16.13952 2.472729 31
3.665988 -9.499624 1.848762 47
11.60193 -15.56254 5.190616 35
nan nan nan 0
16.49292 -26.53143 0 16
13.68801 -27.29459 -0.1596707 27
9.52331 -24.2982 -0.304731 16
nan nan nan 0
30.99722 -49.70602 1.359108 6
nan nan nan 0
15.90795 -40.37015 0.5296681 24
nan nan nan 0
0.1999045 -0.2684358 -0.07708719 10
4.421123 -5.8274 -1.0108 26
5.699488 -7.646754 -0.899451 39
7.487649 -9.970601 -0.797242 13
nan nan nan 0
4.602789 -9.259686 -0.7781259 21
3.420131 -8.802146 -0.7681661 34
10.13045 -13.30256 -0.6787346 17
7.882019 -12.60774 -0.6915309 15
6.095088 -12.12008 -0.7088905 13
4.649524 -11.79489 -0.7353783 9
13.49613 -17.85419 -0.389974 25
11.30175 -18.22423 -0.4969431 14
8.285995 -16.59325 -0.5395802 9
5.970328 -15.27447 -0.565594 9
2.062359 -5.210543 -1.009184 19
2.86554 -7.399264 -0.8883767 18
nan nan nan 0
nan nan nan 0
11.93591 -31.27383 2.719451 15
11.79682 -15.83553 2.419716 38
3.588997 -9.397456 1.826347 45
11.51017 -15.55249 5.173793 45
nan nan nan 0
16.39758 -26.58458 0 17
nan nan nan 0
9.423978 -24.294 -0.3042633 20
37.13718 -49.1313 1.815957 26
31.07604 -50.22198 1.370249 8
nan nan nan 0
15.80144 -40.51394 0.5308287 22
nan nan nan 0
0.2048523 -0.276811 -0.07961464 10
4.397771 -5.838843 -1.010112 26
5.678688 -7.674603 -0.9003938 40
7.446832 -9.988679 -0.7966018 13
nan nan nan 0
4.559424 -9.253331 -0.7762427 22
3.389385 -8.814031 -0.7681661 32
10.06587 -13.31394 -0.677515 16
7.827428 -12.61821 -0.6905993 15
6.039381 -12.11446 -0.7073204 13
4.611949 -11.82035 -0.7359591 8
nan nan nan 0
11.27474 -18.32317 -0.4985678 17
8.236891 -16.63999 -0.5401631 8
5.902563 -15.25793 -0.564212 9
2.044158 -5.21771 -1.009184 18
2.837919 -7.404582 -0.8878176 18
nan nan nan 0
36.95656 -49.46398 3.590342 14
11.93403 -31.59972 2.744177 8
11.73262 -15.86465 2.417888 34
3.564853 -9.43294 1.83083 61
11.43293 -15.56144 5.16344 43
nan nan nan 0
16.33862 -26.6971 0 18
nan nan nan 0
nan nan nan 0
36.99246 -49.29661 1.817284 14
31.08363 -50.62833 1.378373 7
nan nan nan 0
15.71572 -40.71344 0.5327224 15
nan nan nan 0
0.2009552 -0.2736746 -0.07835092 9
4.371426 -5.846231 -1.008736 27
5.637118 -7.674327 -0.8980367 44
7.40598 -10.00659 -0.7959617 13
5.685125 -9.339011 -0.7617407 43
4.485539 -9.184062 -0.7690867 27
3.358597 -8.825808 -0.7681661 33
10.00133 -13.32503 -0.6762953 17
7.77286 -12.62844 -0.6896676 15
5.990422 -12.12204 -0.7065354 13
4.558087 -11.80378 -0.7339261 9
nan nan nan 0
11.18987 -18.32828 -0.4976394 17
8.147942 -16.60582 -0.5381231 9
5.838556 -15.25043 -0.5631754 9
2.024158 -5.220226 -1.008292 19
2.810296 -7.409795 -0.8872585 19
nan nan nan 0
37.03944 -49.93744 3.615319 11
13.72248 -36.72523 3.185596 16
nan nan nan 0
3.512982 -9.394634 1.820968 48
11.3757 -15.59735 5.162146 41
nan nan nan 0
16.29205 -26.83089 0 24
13.20396 -27.03208 -0.1573145 23
9.264793 -24.38725 -0.3046141 18
nan nan nan 0
31.15898 -51.15061 1.38963 5
19.30208 -39.32705 0.748701 22
nan nan nan 0
nan nan nan 0
0.208747 -0.2859543 -0.08214208 9
4.348038 -5.85748 -1.008048 26
5.428328 -7.444692 -0.8688093 100
7.365093 -10.02435 -0.7953217 12
5.6138 -9.294761 -0.7565089 46
4.410023 -9.109903 -0.761554 45
3.331276 -8.846807 -0.7689803 31
9.93684 -13.33583 -0.6750757 18
7.718316 -12.63844 -0.688736 14
5.939288 -12.12494 -0.7054887 14
4.513297 -11.81029 -0.7333452 9
13.9656 -18.88267 -0.4092589 34
11.12065 -18.35868 -0.4974073 18
8.081184 -16.61618 -0.5375403 8
5.772906 -15.23801 -0.5619661 9
2.004166 -5.222664 -1.0074 18
2.782672 -7.414907 -0.8866994 18
nan nan nan 0
37.03362 -50.29552 3.631874 7
13.53547 -36.61398 3.171815 18
11.37303 -15.60533 2.366093 31
3.476758 -9.397611 1.819175 44
11.27018 -15.56657 5.138852 40
22.40449 -30.33157 0.2169624 12
16.24216 -26.9604 0 22
13.11824 -27.09601 -0.1574192 20
9.179609 -24.41944 -0.3046141 18
nan nan nan 0
31.31896 -51.81947 1.404833 12
19.08595 -39.23235 0.7456223 20
16.07085 -42.51519 0.5548351 16
nan nan nan 0
0.1961371 -0.2712007 -0.07708719 10
4.324624 -5.868637 -1.00736 32
5.489935 -7.584514 -0.8829516 52
7.32123 -10.0379 -0.7943615 12
5.591579 -9.331413 -0.7579041 39
4.399755 -9.170197 -0.7653204 44
3.293426 -8.839698 -0.767352 35
9.872394 -13.34634 -0.673856 17
7.663798 -12.64822 -0.6878042 14
5.905649 -12.16357 -0.7065354 13
4.468516 -11.81663 -0.7327643 9
13.94992 -18.99979 -0.4107424 29
11.0668 -18.41452 -0.4978715 15
8.003607 -16.60377 -0.5362288 9
5.709165 -15.22999 -0.5609296 8
1.984181 -5.225028 -1.006507 19
2.755045 -7.419915 -0.8861403 18
nan nan nan 0
nan nan nan 0
13.34085 -36.47845 3.156006 18
11.31267 -15.63689 2.364874 36
3.47263 -9.488234 1.834417 105
11.39059 -15.84892 5.219086 45
22.34579 -30.47409 0.2174232 26
16.189 -27.0856 0 20
13.02357 -27.14164 -0.1574192 24
9.024636 -24.26388 -0.3022754 16
nan nan nan 0
31.33069 -52.25 1.413537 32
nan nan nan 0
16.09743 -43.03933 0.5609435 14
nan nan nan 0
nan nan nan 0
4.301185 -5.879702 -1.006671 27
5.367502 -7.470284 -0.867395 87
7.28029 -10.05532 -0.7937214 13
5.574269 -9.376596 -0.7599967 43
4.322775 -9.090934 -0.757411 46
3.252225 -8.823079 -0.7649094 33
9.816873 -13.36864 -0.6732462 17
7.609305 -12.65778 -0.6868726 15
5.873977 -12.2066 -0.7078438 13
4.416758 -11.80411 -0.7310218 11
13.94831 -19.13724 -0.4126621 17
10.97685 -18.41011 -0.496711 17
7.939138 -16.61807 -0.5357917 9
5.647287 -15.2264 -0.5600659 10
1.964204 -5.227315 -1.005615 18
2.727418 -7.424822 -0.8855813 19
nan nan nan 0
11.97783 -16.51357 1.184679 35
13.13887 -36.31859 3.138171 11
11.78508 -16.40977 2.475775 27
3.444504 -9.514175 1.837106 100
11.27347 -15.8021 5.190616 47
nan nan nan 0
16.13006 -27.20215 0 17
12.95666 -27.24563 -0.1577596 21
nan nan nan 0
nan nan nan 0
nan nan nan 0
14.53099 -30.40626 0.5757858 32
16.01128 -43.26876 0.5632038 12
nan nan nan 0
0.194239 -0.2725634 -0.07708719 9
4.274809 -5.886671 -1.005295 29
5.384783 -7.549739 -0.8744661 60
7.236405 -10.06852 -0.7927613 13
5.546574 -9.40459 -0.7606943 43
4.329255 -9.187158 -0.7641904 39
3.21118 -8.806281 -0.762467 37
9.764257 -13.39475 -0.6728396 19
7.554839 -12.6671 -0.6859409 16
5.818439 -12.19999 -0.7062737 13
nan nan nan 0
12.02584 -16.62242 -0.3574253 29
10.93542 -18.48703 -0.4977555 16
7.876805 -16.63665 -0.5355003 11
5.585504 -15.22256 -0.5592021 10
1.945945 -5.234139 -1.005615 19
2.699791 -7.429627 -0.8850222 17
nan nan nan 0
11.92012 -16.55528 1.184679 35
10.70437 -29.91212 2.580823 10
11.47701 -16.09931 2.422762 32
3.502338 -9.780897 1.886418 50
11.19032 -15.80195 5.177675 41
11.96307 -16.56016 0.1174373 37
16.05022 -27.28415 0 18
12.8764 -27.32236 -0.1579428 26
8.80033 -24.17594 -0.3004044 14
nan nan nan 0
nan nan nan 0
18.92869 -39.96774 0.7557989 17
nan nan nan 0
nan nan nan 0
0.1961483 -0.2771401 -0.07835092 9
4.251335 -5.897541 -1.004607 28
5.444753 -7.69032 -0.8886085 43
7.195415 -10.08559 -0.7921212 12
5.523791 -9.441113 -0.7620894 42
4.282399 -9.170588 -0.761554 35
3.170293 -8.789304 -0.7600245 40
9.711581 -13.42066 -0.6724331 18
7.500401 -12.67621 -0.6850092 15
5.767286 -12.20217 -0.705227 15
nan nan nan 0
11.94441 -16.63181 -0.3567272 35
10.78986 -18.38714 -0.4940417 14
7.814439 -16.65499 -0.5352088 10
5.523817 -15.21847 -0.5583383 9
1.925969 -5.236281 -1.004723 20
2.672163 -7.434329 -0.8844631 18
13.4339 -37.3183 1.591426 41
32.71863 -45.76091 3.270865 18
nan nan nan 0
11.59281 -16.38229 2.459323 23
3.45014 -9.742049 1.876556 45
nan nan nan 0
11.94599 -16.65869 0.1178405 17
15.97 -27.36592 0 12
12.79576 -27.39885 -0.1581261 25
nan nan nan 0
32.87003 -45.76998 1.66142 112
nan nan nan 0
18.83367 -40.1286 0.7575948 23
16.51376 -45.6031 0.592097 13
nan nan nan 0
0.2008763 -0.2856436 -0.08087836 10
4.224953 -5.904294 -1.003231 27
5.397825 -7.68078 -0.8853086 47
7.15151 -10.09844 -0.791161 12
nan nan nan 0
4.214783 -9.108551 -0.7551512 39
3.142937 -8.809706 -0.7608387 33
9.658844 -13.44637 -0.6720265 17
7.44852 -12.68939 -0.6843105 14
5.71407 -12.19962 -0.7039186 14
nan nan nan 0
11.85144 -16.62457 -0.35568 12
nan nan nan 0
7.756255 -16.68217 -0.5352088 9
5.463913 -15.21885 -0.5576473 9
1.907679 -5.242972 -1.004723 22
2.644534 -7.438928 -0.883904 18
nan nan nan 0
32.48647 -45.77309 3.263604 20
nan nan nan 0
nan nan nan 0
3.422606 -9.772606 1.880142 68
nan nan nan 0
22.32712 -31.35735 0.2214837 45
13.09351 -22.61845 0 31
12.73363 -27.51595 -0.158545 29
nan nan nan 0
32.66364 -45.81932 1.65906 171
12.90807 -22.2267 0.5958211 38
18.75461 -40.32556 0.7600747 18
13.52645 -37.76212 0.4895963 20
nan nan nan 0
0.2055472 -0.2941834 -0.08340581 9
4.201447 -5.914971 -1.002543 30
5.379531 -7.711819 -0.8867228 42
7.110474 -10.11518 -0.7905209 14
5.681789 -9.868442 -0.7934799 17
4.201655 -9.164001 -0.7585409 34
3.112166 -8.820623 -0.7608387 33
9.603144 -13.4678 -0.6714167 16
7.399152 -12.70668 -0.6838446 17
5.669349 -12.21496 -0.7036569 13
nan nan nan 0
13.78664 -19.48108 -0.4158908 21
nan nan nan 0
7.672886 -16.65467 -0.5334603 8
5.404073 -15.21899 -0.5569563 9
1.891028 -5.25423 -1.005615 20
2.616907 -7.443425 -0.8833449 18
nan nan nan 0
32.26898 -45.8046 3.257795 24
nan nan nan 0
10.82225 -15.52261 2.318564 35
3.263116 -9.421871 1.810209 59
10.86744 -15.69199 5.103911 40
nan nan nan 0
13.01946 -22.67269 0 22
12.60833 -27.4966 -0.1581785 28
nan nan nan 0
32.4573 -45.86779 1.656701 119
13.02256 -22.60512 0.6047572 37
18.66813 -40.50883 0.7622982 18
16.32183 -46.07545 0.5967394 8
nan nan nan 0
0.2045191 -0.2948991 -0.08340581 10
4.177917 -5.925556 -1.001855 27
5.358252 -7.738732 -0.8876657 42
7.069408 -10.13175 -0.7898809 14
5.597821 -9.801598 -0.7865042 25
4.16758 -9.174072 -0.7581643 35
3.081357 -8.831433 -0.7608387 35
9.544523 -13.48493 -0.6706036 20
7.344758 -12.71513 -0.682913 15
5.624591 -12.23014 -0.7033952 13
4.096828 -11.55941 -0.7112722 13
13.71281 -19.52091 -0.4157163 30
nan nan nan 0
7.604328 -16.65862 -0.5327317 10
5.342647 -15.21418 -0.5560926 10
1.872676 -5.260798 -1.005615 22
2.587652 -7.443126 -0.8822268 18
nan nan nan 0
32.04024 -45.81879 3.250825 27
12.3724 -36.16042 3.105338 29
10.74258 -15.52357 2.31308 24
3.227026 -9.423896 1.808416 95
10.79617 -15.70596 5.096147 43
nan nan nan 0
15.81621 -27.76625 0 22
12.53089 -27.58141 -0.1584141 22
8.452065 -24.26812 -0.3000537 25
32.24528 -45.90721 1.654047 91
nan nan nan 0
18.56606 -40.66015 0.763923 17
16.20881 -46.26898 0.5985109 17
nan nan nan 0
0.2034885 -0.2956112 -0.08340581 9
4.151522 -5.931992 -1.000479 27
5.314277 -7.732785 -0.8848372 39
7.028313 -10.14817 -0.7892407 13
5.600461 -9.886169 -0.7917359 18
4.155985 -9.234034 -0.7619306 31
3.048889 -8.837422 -0.7604316 33
9.485902 -13.50182 -0.6697906 17
7.305296 -12.74936 -0.6833789 15
5.581865 -12.2497 -0.7033952 12
4.048208 -11.55009 -0.70982 11
13.67033 -19.60556 -0.4165017 25
nan nan nan 0
7.533779 -16.65774 -0.5318574 9
5.284594 -15.21858 -0.5555743 10
1.8543 -5.267303 -1.005615 20
2.560043 -7.447413 -0.8816677 21
53.79803 -156.3125 6.637999 36
31.83171 -45.86065 3.245887 16
12.18066 -36.00983 3.088719 18
10.69676 -15.57325 2.314908 34
3.186238 -9.411801 1.803933 50
nan nan nan 0
nan nan nan 0
15.85694 -28.06507 0 26
12.41812 -27.58851 -0.1582046 23
8.372182 -24.31166 -0.300229 19
32.01908 -45.92519 1.650655 123
nan nan nan 0
18.45287 -40.78849 0.7651203 17
16.09138 -46.45284 0.6001602 16
nan nan nan 0
0.2024553 -0.2963198 -0.08340581 9
4.127962 -5.942382 -0.9997905 28
5.281637 -7.743066 -0.8838944 41
6.987189 -10.16442 -0.7886006 13
5.502373 -9.79261 -0.7826676 25
4.093285 -9.180174 -0.7562811 33
3.01481 -8.838576 -0.7596174 34
9.424416 -13.51437 -0.6687741 18
7.233594 -12.72702 -0.6808168 16
5.534964 -12.26 -0.7028719 13
4.02256 -11.6066 -0.7124339 10
13.55627 -19.58739 -0.4151055 35
10.47959 -18.59442 -0.494622 14
7.463327 -16.65656 -0.5309831 8
5.224955 -15.21802 -0.5548833 8
1.835903 -5.273744 -1.005615 22
2.532436 -7.451599 -0.8811086 19
19.58428 -57.5443 2.439812 96
31.62045 -45.8975 3.240659 24
12.26657 -36.68549 3.143035 15
nan nan nan 0
3.14869 -9.408871 1.801243 48
nan nan nan 0
nan nan nan 0
15.75644 -28.11588 0 19
12.30545 -27.59516 -0.1579952 24
8.288878 -24.34547 -0.3002875 17
nan nan nan 0
32.34148 -57.51811 1.5311 9
15.7915 -35.23217 0.6597634 18
15.96476 -46.61279 0.601504 18
nan nan nan 0
0.2014197 -0.2970246 -0.08340581 10
4.101564 -5.948605 -0.9984143 27
5.23782 -7.736733 -0.881066 43
6.946039 -10.1805 -0.7879605 14
5.456014 -9.789974 -0.7809237 32
4.051147 -9.1716 -0.7543979 34
2.982349 -8.844323 -0.7592103 34
9.365807 -13.53075 -0.6679611 17
7.194032 -12.7609 -0.6812826 14
5.48806 -12.27013 -0.7023485 13
3.952932 -11.53556 -0.7072062 11
13.50764 -19.66343 -0.4157163 32
10.4195 -18.63962 -0.4948541 14
7.395003 -16.65967 -0.5302545 9
5.166988 -15.22197 -0.554365 9
1.817483 -5.28012 -1.005615 20
2.50483 -7.455682 -0.8805496 18
19.39763 -57.65493 2.441618 97
31.41778 -45.9458 3.236303 22
12.07591 -36.5388 3.126822 17
11.28335 -16.6749 2.467245 36
3.120454 -9.433816 1.803933 93
nan nan nan 0
nan nan nan 0
15.70679 -28.25812 0 19
12.19289 -27.60135 -0.1577858 25
8.192689 -24.34108 -0.2998782 19
31.59864 -46.00343 1.645494 85
32.30121 -57.91877 1.538759 10
nan nan nan 0
15.82439 -46.73453 0.6023592 17
nan nan nan 0
0.1948502 -0.2897878 -0.08087836 10
4.077975 -5.958802 -0.9977263 27
5.199667 -7.738449 -0.8791803 40
6.90766 -10.20056 -0.7876405 13
5.414566 -9.795865 -0.7798773 32
4.00912 -9.162846 -0.7525148 37
2.949886 -8.849951 -0.7588032 31
9.310028 -13.55101 -0.6673512 20
7.142129 -12.77285 -0.6805838 15
5.439128 -12.27552 -0.7015635 13
3.904643 -11.52565 -0.705754 13
13.4361 -19.70634 -0.415629 37
10.37134 -18.70647 -0.4956665 15
7.326749 -16.66251 -0.529526 9
5.104293 -15.21149 -0.5533285 10
1.79746 -5.281773 -1.004723 25
2.477227 -7.459664 -0.8799905 18
19.1868 -57.69384 2.440414 102
31.19553 -45.96433 3.229914 23
nan nan nan 0
11.29427 -16.81717 2.482478 31
3.090556 -9.454004 1.805726 114
nan nan nan 0
20.88304 -30.66925 0.2134779 10
5.232164 -9.493603 0 10
12.09246 -27.63459 -0.1577334 24
8.096631 -24.33632 -0.299469 16
nan nan nan 0
5.219735 -9.440039 0.249516 21
18.26021 -41.5149 0.7751257 18
14.36665 -42.92061 0.5525138 24
nan nan nan 0
0.1938374 -0.2904662 -0.08087836 11
4.051579 -5.96481 -0.9963501 29
5.147748 -7.719294 -0.8749376 43
6.866441 -10.21633 -0.7870004 14
5.270016 -9.613531 -0.7638333 17
3.967202 -9.153909 -0.7506316 36
2.917419 -8.855459 -0.7583961 34
9.251404 -13.56692 -0.6665382 18
nan nan nan 0
5.392233 -12.28529 -0.7010401 13
3.846974 -11.48714 -0.7025592 16
13.37003 -19.75726 -0.4157163 30
nan nan nan 0
7.256569 -16.66049 -0.5286517 9
5.048022 -15.21972 -0.552983 10
1.779012 -5.288015 -1.004723 18
2.449627 -7.463543 -0.8794314 20
18.9775 -57.73674 2.439411 117
30.98748 -46.00257 3.224976 21
3.183285 -9.848847 0.8386561 39
nan nan nan 0
3.046971 -9.431964 1.79945 57
nan nan nan 0
20.73665 -30.68397 0.2130747 8
5.160612 -9.441616 0 11
12.00189 -27.69039 -0.157812 25
nan nan nan 0
nan nan nan 0
5.179539 -9.445053 0.2491679 18
18.21102 -41.79838 0.7792305 19
14.19477 -42.90405 0.5516587 9
nan nan nan 0
0.2010363 -0.3031058 -0.08466953 9
4.027961 -5.974813 -0.995662 30
5.12627 -7.745515 -0.8758804 41
6.827968 -10.23608 -0.7866803 14
5.141106 -9.456599 -0.749882 17
3.925396 -9.144791 -0.7487484 37
2.88495 -8.86085 -0.757989 33
9.195586 -13.58672 -0.6659283 16
nan nan nan 0
5.345336 -12.29487 -0.7005167 14
3.824085 -11.55263 -0.705754 10
13.31772 -19.8287 -0.4162399 32
5.163707 -9.470807 -0.249516 7
7.184514 -16.65359 -0.5276317 10
4.994864 -15.23725 -0.552983 9
1.758995 -5.289524 -1.003831 22
2.4205 -7.462595 -0.8783132 19
18.77122 -57.78837 2.438809 82
30.77955 -46.03991 3.220039 26
3.148887 -9.8599 0.8386561 43
12.36811 -18.69579 2.747544 25
3.02448 -9.475349 1.805726 96
nan nan nan 0
18.73508 -27.93285 0.1934922 10
5.087104 -9.384852 0 9
11.85388 -27.61266 -0.1571313 23
nan nan nan 0
30.94796 -46.08288 1.636647 41
5.110703 -9.397215 0.2474271 14
18.10858 -41.96268 0.7811119 18
15.45373 -47.2636 0.6070628 11
nan nan nan 0
0.2163214 -0.3277926 -0.09225187 9
4.004324 -5.984723 -0.994974 30
5.101936 -7.76752 -0.8763518 38
6.797708 -10.26817 -0.7873205 14
5.058342 -9.382297 -0.7425576 16
3.875904 -9.117139 -0.7453587 34
2.852479 -8.866121 -0.7575819 35
9.136954 -13.60215 -0.6651152 17
5.189765 -9.514864 -0.5035668 6
5.296464 -12.2997 -0.6997317 14
nan nan nan 0
13.26506 -19.90002 -0.4167634 30
5.090186 -9.414031 -0.2475431 6
7.122412 -16.66938 -0.5273402 10
nan nan nan 0
1.74052 -5.295631 -1.003831 21
2.392923 -7.466265 -0.8777542 18
3.175485 -9.87841 0.4151634 36
nan nan nan 0
3.120438 -9.889844 0.8402776 39
12.31367 -18.75544 2.749981 24
2.997293 -9.504618 1.809312 44
nan nan nan 0
18.74555 -28.16038 0.1946154 18
5.009319 -9.318884 0 10
11.74569 -27.62626 -0.1569742 26
3.177759 -9.885699 -0.1209686 31
30.74256 -46.12409 1.634287 51
5.035144 -9.335812 0.2453381 15
12.44144 -29.10789 0.5408093 30
3.199686 -9.889083 0.126507 26
nan nan nan 0
29.98546 -44.34871 -13.97426 13
3.980666 -5.99454 -0.9942859 27
5.077512 -7.789451 -0.8768232 40
6.764565 -10.29601 -0.7876405 13
4.987922 -9.329525 -0.7369771 12
3.81505 -9.061679 -0.7397093 34
2.82302 -8.880774 -0.757989 37
9.078329 -13.61734 -0.6643021 15
5.09234 -9.414322 -0.4972781 7
5.249581 -12.30893 -0.6992083 14
3.208197 -9.921222 -0.6043926 15
13.19552 -19.94621 -0.4167634 31
5.007673 -9.339238 -0.245106 6
7.060287 -16.68493 -0.5270488 9
3.164225 -9.87905 -0.3572536 32
1.720509 -5.296994 -1.002938 23
2.36535 -7.469834 -0.8771951 19
3.137965 -9.879911 0.4147621 41
30.4409 -46.22866 3.218296 94
3.093298 -9.924469 0.8423042 37
11.47031 -17.60514 2.575099 38
2.97578 -9.552599 1.816485 86
nan nan nan 0
18.81805 -28.48426 0.1964008 35
4.924999 -9.239251 0 9
11.63173 -27.62562 -0.1567386 24
3.1387 -9.882434 -0.1207932 37
nan nan nan 0
4.960075 -9.273997 0.2432491 15
nan nan nan 0
3.162107 -9.890666 0.1263849 34
nan nan nan 0
0.1978512 -0.3051944 -0.08466953 9
3.956989 -6.004266 -0.9935977 27
5.052997 -7.811305 -0.8772946 44
6.731311 -10.32374 -0.7879605 13
4.92027 -9.280784 -0.7317454 9
3.789149 -9.088748 -0.7408392 33
2.787533 -8.876309 -0.7567679 35
9.019708 -13.63229 -0.663489 17
nan nan nan 0
5.202699 -12.31798 -0.698685 13
3.172029 -9.927604 -0.6041022 16
13.12581 -19.99215 -0.4167634 31
4.93044 -9.272812 -0.242901 6
6.99814 -16.70026 -0.5267574 10
3.132731 -9.899565 -0.3575991 38
1.702009 -5.302968 -1.002938 18
2.33778 -7.473303 -0.876636 19
3.101965 -9.886037 0.4145614 41
nan nan nan 0
nan nan nan 0
nan nan nan 0
2.9583 -9.614654 1.826347 107
nan nan nan 0
18.81449 -28.6961 0.1974087 34
4.852983 -9.181245 0 11
11.53907 -27.67528 -0.1567909 25
3.10269 -9.88856 -0.1207348 41
30.53776 -46.51723 1.640628 110
4.887845 -9.216189 0.2412762 17
17.9619 -42.85083 0.7941105 14
3.127562 -9.901643 0.1263849 42
nan nan nan 0
0.1887386 -0.2938049 -0.08087836 9
3.933292 -6.013899 -0.9929097 28
4.998786 -7.787021 -0.8725805 41
6.687096 -10.33461 -0.7870004 14
4.85302 -9.231683 -0.7265136 9
3.747892 -9.078875 -0.7389559 34
2.750637 -8.866943 -0.7551395 31
8.961092 -13.64699 -0.6626759 20
4.899789 -9.211549 -0.4847005 7
5.155818 -12.32685 -0.6981617 13
3.120854 -9.886248 -0.6009074 29
13.0696 -20.05878 -0.4171997 31
4.865393 -9.228066 -0.2412762 8
6.935973 -16.71535 -0.526466 10
3.096667 -9.905669 -0.3574263 39
1.683488 -5.308876 -1.002938 19
2.310216 -7.476669 -0.8760769 20
3.07482 -9.920668 0.4155647 40
nan nan nan 0
13.00433 -42.83642 3.63796 29
10.63128 -16.56975 2.412404 35
2.910446 -9.577849 1.817381 112
12.81448 -20.10888 6.378595 34
18.68147 -28.71132 0.1970632 29
4.795364 -9.14942 0 33
11.45384 -27.74312 -0.156948 19
3.075542 -9.923211 -0.1210271 33
30.60985 -46.98365 1.65331 155
4.811423 -9.149145 0.2390712 41
17.97127 -43.29651 0.8012084 15
3.09298 -9.912499 0.1263849 37
nan nan nan 0
nan nan nan 0
3.906876 -6.019288 -0.9915335 25
4.920716 -7.724685 -0.8636237 46
6.645586 -10.34949 -0.7863603 13
4.772336 -9.155691 -0.7191892 18
3.695439 -9.041131 -0.734813 35
2.71384 -8.857428 -0.7535112 35
8.902484 -13.66145 -0.6618628 18
nan nan nan 0
5.108937 -12.33554 -0.6976383 14
3.095227 -9.925678 -0.60265 25
12.96963 -20.05811 -0.4162399 28
4.784503 -9.151977 -0.2388391 28
6.873785 -16.73021 -0.5261745 10
3.065015 -9.925969 -0.3577719 33
1.663479 -5.310024 -1.002046 20
2.282657 -7.479935 -0.8755178 19
nan nan nan 0
30.63058 -47.59418 3.290905 13
12.86616 -42.91974 3.641202 25
10.60804 -16.66117 2.420325 41
2.830431 -9.432446 1.787794 117
12.86299 -20.34124 6.438124 33
nan nan nan 0
4.772624 -9.183847 0 30
11.34936 -27.76442 -0.1568433 26
3.042346 -9.938667 -0.1210856 9
30.65464 -47.41336 1.664664 186
4.781769 -9.170315 0.2391872 48
nan nan nan 0
nan nan nan 0
nan nan nan 0
0.1893367 -0.2991601 -0.08214208 9
3.883156 -6.028728 -0.9908454 24
4.917681 -7.779669 -0.8678665 41
6.601368 -10.36001 -0.7854002 13
4.749511 -9.190018 -0.7205843 16
3.68255 -9.100196 -0.7385793 33
2.680025 -8.857306 -0.752697 36
8.8466 -13.67986 -0.661253 16
4.786736 -9.152598 -0.4798093 19
5.062058 -12.34406 -0.6971149 14
3.064962 -9.950734 -0.6035213 27
12.96435 -20.20422 -0.4183342 28
4.761731 -9.186372 -0.2393033 17
6.807814 -16.73559 -0.5255917 10
nan nan nan 0
1.644934 -5.315799 -1.002046 20
2.255103 -7.483098 -0.8749588 20
nan nan nan 0
30.74103 -48.13409 3.320819 13
nan nan nan 0
10.64528 -16.84911 2.442261 35
2.803066 -9.461137 1.79138 104
nan nan nan 0
nan nan nan 0
4.74741 -9.213784 0 28
11.23737 -27.76679 -0.1566339 24
nan nan nan 0
30.69679 -47.84395 1.676018 196
4.752026 -9.191391 0.2393033 44
nan nan nan 0
nan nan nan 0
nan nan nan 0
0.1830118 -0.2917112 -0.07961464 10
3.859418 -6.038074 -0.9901573 27
4.893142 -7.801002 -0.8683379 41
6.559828 -10.37455 -0.78476 13
4.726503 -9.224295 -0.7219794 16
3.628524 -9.057451 -0.7340598 32
2.650515 -8.871383 -0.7531041 39
8.790696 -13.69804 -0.6606432 15
4.766258 -9.191418 -0.4809739 15
5.017062 -12.35703 -0.6968532 14
3.03746 -9.985253 -0.6049735 13
12.93404 -20.3126 -0.4196431 31
4.734207 -9.211829 -0.2395354 16
6.740021 -16.73606 -0.5248631 9
4.609586 -15.31646 -0.5516009 6
1.626368 -5.321508 -1.002046 20
2.226141 -7.481399 -0.8738406 18
nan nan nan 0
30.79464 -48.59102 3.344925 14
12.45864 -42.64017 3.609991 28
10.59168 -16.89457 2.44348 44
2.768646 -9.466142 1.790484 105
nan nan nan 0
nan nan nan 0
4.719769 -9.239204 0 20
11.04184 -27.55985 -0.1552463 18
7.129789 -23.91261 -0.291342 23
30.77927 -48.34286 1.689732 191
4.731318 -9.230162 0.2398836 44
18.41722 -45.71746 0.8424276 16
nan nan nan 0
nan nan nan 0
0.202997 -0.3248536 -0.08972443 10
3.835662 -6.04733 -0.9894693 25
4.868515 -7.82226 -0.8688093 47
6.512959 -10.38048 -0.7834799 14
nan nan nan 0
3.598722 -9.074698 -0.7344364 32
2.606869 -8.837555 -0.7494403 37
8.737457 -13.72022 -0.6602366 18
4.73643 -9.212441 -0.4812068 14
4.972035 -12.36983 -0.6965916 13
3.495725 -11.64055 -0.7048827 10
12.87641 -20.37875 -0.4200794 24
4.708833 -9.241658 -0.2398836 15
6.666757 -16.72235 -0.5236974 10
4.550406 -15.31329 -0.5509099 6
1.606366 -5.322442 -1.001154 22
2.198616 -7.484355 -0.8732815 18
nan nan nan 0
30.90389 -49.14186 3.375421 12
12.31801 -42.71213 3.612423 33
nan nan nan 0
2.739671 -9.489928 1.793174 105
nan nan nan 0
18.22807 -28.88902 0.196516 32
nan nan nan 0
10.91424 -27.51921 -0.1548013 18
7.057562 -23.97573 -0.2918098 20
30.85863 -48.84293 1.703446 180
nan nan nan 0
16.07066 -40.29727 0.7414321 14
nan nan nan 0
nan nan nan 0
0.1940277 -0.3133433 -0.08593326 10
3.811888 -6.056493 -0.9887812 30
4.833326 -7.826506 -0.867395 45
6.468769 -10.39045 -0.7825197 13
4.960474 -9.849503 -0.7683675 40
nan nan nan 0
2.580175 -8.860957 -0.7506616 38
8.67883 -13.73374 -0.6594235 17
4.704244 -9.228918 -0.4812068 14
4.926981 -12.38247 -0.6963298 13
nan nan nan 0
12.83708 -20.47439 -0.4211265 30
9.12028 -18.05132 -0.4686259 16
6.593671 -16.70833 -0.5225317 10
4.495521 -15.32429 -0.5507372 7
1.586377 -5.3233 -1.000261 19
2.171096 -7.487211 -0.8727224 20
nan nan nan 0
30.9436 -49.5882 3.398656 13
12.15248 -42.69735 3.607559 33
12.60924 -20.4262 2.942535 17
2.710563 -9.513628 1.795863 93
nan nan nan 0
18.26247 -29.16858 0.1979847 30
14.84856 -29.56573 0 29
10.77244 -27.44079 -0.1541468 20
nan nan nan 0
30.96674 -49.39494 1.718929 156
nan nan nan 0
18.39312 -46.59359 0.8561958 13
nan nan nan 0
nan nan nan 0
0.198127 -0.3221815 -0.08846071 11
3.788097 -6.065563 -0.9880931 29
4.795564 -7.826357 -0.8655093 45
6.427211 -10.40448 -0.7818796 13
4.894861 -9.804287 -0.7634845 41
3.51543 -9.048474 -0.7302934 33
2.553349 -8.88428 -0.7518828 36
8.622871 -13.75126 -0.6588137 16
6.535641 -12.93147 -0.6738293 13
4.874582 -12.37637 -0.6950215 14
3.415774 -11.66947 -0.7051731 17
12.76289 -20.51484 -0.4210393 33
8.920638 -17.81043 -0.4615466 8
6.522583 -16.69865 -0.5215117 10
4.444777 -15.34949 -0.5510827 8
1.566401 -5.324084 -0.9993691 18
2.143584 -7.489966 -0.8721634 18
16.5283 -57.65905 2.407506 11
31.01998 -50.09906 3.426247 14
11.99393 -42.70592 3.604722 29
12.50416 -20.41508 2.934614 30
2.662723 -9.470935 1.786001 48
nan nan nan 0
nan nan nan 0
nan nan nan 0
10.60779 -27.30112 -0.1531519 16
6.876236 -23.97635 -0.2912251 15
31.0476 -49.91011 1.733085 74
nan nan nan 0
18.2522 -46.71339 0.857222 15
nan nan nan 0
nan nan nan 0
0.1995841 -0.3269616 -0.08972443 10
3.764289 -6.074542 -0.987405 25
4.737157 -7.792027 -0.8598524 47
6.385634 -10.41835 -0.7812395 14
4.851756 -9.803434 -0.7620894 38
3.483824 -9.060691 -0.7302934 33
2.525036 -8.90273 -0.752697 33
8.566895 -13.76856 -0.6582039 17
6.468083 -12.90955 -0.6715001 15
4.827724 -12.384 -0.6944981 13
3.373636 -11.67652 -0.7048827 15
12.69383 -20.56352 -0.4211265 26
nan nan nan 0
6.453444 -16.69335 -0.5206374 11
4.387057 -15.35049 -0.5505645 8
1.546439 -5.324794 -0.9984767 22
2.116079 -7.49262 -0.8716043 21
18.28592 -64.64394 2.696656 14
31.09841 -50.61956 3.454419 12
nan nan nan 0
14.07 -23.15129 3.321549 19
2.648016 -9.546542 1.798553 118
nan nan nan 0
nan nan nan 0
14.6595 -29.70454 0 30
10.5232 -27.36598 -0.153309 17
6.773456 -23.93285 -0.2904066 15
nan nan nan 0
nan nan nan 0
18.14131 -46.91204 0.859702 15
nan nan nan 0
nan nan nan 0
0.2010101 -0.3317557 -0.09098815 11
3.740465 -6.083427 -0.9867169 28
4.722796 -7.82982 -0.8622094 45
6.344039 -10.43205 -0.7805994 13
4.808716 -9.8024 -0.7606943 35
3.45572 -9.082118 -0.7310467 36
2.504665 -8.949888 -0.7559537 34
8.505652 -13.77712 -0.6571875 16
6.438537 -12.96336 -0.6731305 14
4.7665 -12.35419 -0.6918813 14
3.35199 -11.75544 -0.7089488 18
12.6716 -20.68869 -0.4227845 32
8.80712 -17.8947 -0.4621269 18
6.384421 -16.68776 -0.5197631 10
4.332092 -15.3609 -0.5503917 9
1.527843 -5.33016 -0.9984767 18
2.088582 -7.495174 -0.8710452 21
nan nan nan 0
31.16317 -51.12416 3.481429 13
14.68336 -53.72539 4.526879 16
13.702 -22.72433 3.253302 29
2.613381 -9.550982 1.797656 108
nan nan nan 0
18.0865 -29.57147 0.1994246 36
14.58209 -29.80943 0 34
10.4365 -27.42591 -0.1534399 16
6.722121 -24.07193 -0.2918098 18
nan nan nan 0
nan nan nan 0
18.02569 -47.10114 0.862011 13
nan nan nan 0
nan nan nan 0
0.2024051 -0.3365637 -0.09225187 11
3.714042 -6.087996 -0.9853407 31
4.713346 -7.876146 -0.8655093 45
6.302427 -10.44559 -0.7799593 13
4.754833 -9.778757 -0.7575552 33
3.429263 -9.108124 -0.7321765 29
2.457528 -8.900923 -0.7510687 34
8.457509 -13.80673 -0.6571875 18
6.3778 -12.95439 -0.6715001 15
4.73581 -12.40341 -0.6937131 13
3.294736 -11.7094 -0.7054635 18
12.57333 -20.69008 -0.4219119 28
8.755562 -17.94779 -0.4627072 19
6.317286 -16.68657 -0.5190345 10
4.277108 -15.37112 -0.5502189 8
1.507893 -5.330725 -0.9975845 22
2.061093 -7.497627 -0.8704861 22
18.97045 -68.89804 2.86862 16
31.25321 -51.67681 3.511634 12
nan nan nan 0
12.35085 -20.64711 2.949238 13
nan nan nan 0
12.38376 -20.85023 6.487299 4
17.8223 -29.36943 0.1976391 32
14.49104 -29.88714 0 26
10.39883 -27.61659 -0.1543038 22
6.547827 -23.76746 -0.287834 19
nan nan nan 0
nan nan nan 0
17.90542 -47.28066 0.8641489 15
13.36862 -48.18576 0.6104835 6
nan nan nan 0
0.203769 -0.3413855 -0.0935156 11
3.690201 -6.096688 -0.9846526 30
4.695998 -7.909666 -0.867395 46
6.260798 -10.45896 -0.7793192 14
4.725003 -9.804281 -0.7582528 36
3.392231 -9.106022 -0.7310467 32
2.41599 -8.870974 -0.747812 37
8.385897 -13.79775 -0.655358 20
6.334734 -12.98107 -0.671733 15
4.697777 -12.43388 -0.6944981 13
3.256509 -11.73045 -0.7060444 17
12.50104 -20.73384 -0.4219119 29
8.677624 -17.94675 -0.4618948 19
6.246732 -16.67576 -0.5180146 9
4.220785 -15.37632 -0.5498735 9
1.489276 -5.335956 -0.9975845 21
2.033612 -7.499979 -0.869927 21
20.40672 -75.14008 3.125664 13
31.3372 -52.22642 3.541549 12
15.54929 -58.49852 4.920062 14
12.17989 -20.52367 2.925473 18
2.660249 -9.996874 1.878349 44
12.23733 -20.76852 6.448476 41
17.85124 -29.6499 0.1991078 30
14.38229 -29.92853 0 30
10.33204 -27.73238 -0.1547489 17
6.555214 -24.12309 -0.2918682 22
nan nan nan 0
14.52217 -30.11201 0.7752405 23
17.80167 -47.50673 0.867142 12
13.15021 -48.04889 0.6081623 8
nan nan nan 0
0.2076271 -0.3503469 -0.09604306 12
3.666344 -6.105288 -0.9839645 30
4.678475 -7.943161 -0.8692807 47
6.219151 -10.47218 -0.7786791 13
4.682148 -9.802712 -0.7568577 28
3.356978 -9.10845 -0.7302934 28
2.382431 -8.869727 -0.7469978 38
8.319613 -13.797 -0.6539351 17
6.289383 -13.0031 -0.671733 16
4.661338 -12.46891 -0.6955448 13
3.232654 -11.80434 -0.70982 25
12.41062 -20.74732 -0.4213011 28
8.612765 -17.97242 -0.4617788 19
6.17633 -16.66466 -0.5169945 8
4.165781 -15.38613 -0.5497007 9
1.470641 -5.341122 -0.9975845 21
2.004859 -7.497431 -0.8688089 19
20.1637 -75.28325 3.128675 10
31.40241 -52.75151 3.569721 14
nan nan nan 0
11.99232 -20.36937 2.897444 31
2.640287 -10.0632 1.889108 84
12.27203 -20.99454 6.505417 26
17.81431 -29.82363 0.1998566 39
14.32719 -30.08237 0 29
10.26111 -27.83865 -0.1551416 18
6.503298 -24.26657 -0.2933299 14
32.29376 -53.99128 1.855033 7
14.54202 -30.42409 0.7819716 36
nan nan nan 0
12.9772 -48.07519 0.607918 8
nan nan nan 0
0.2064029 -0.3510695 -0.09604306 14
3.639934 -6.109544 -0.9825884 29
4.648206 -7.955147 -0.8688093 45
6.17749 -10.48522 -0.778039 14
4.643633 -9.809981 -0.7561601 34
3.326869 -9.124797 -0.73067 29
2.347636 -8.863535 -0.7457766 35
8.250873 -13.79167 -0.6523089 15
6.230997 -12.99795 -0.6703355 16
4.619517 -12.48979 -0.6958065 13
3.184933 -11.79146 -0.7083679 22
12.32025 -20.76043 -0.4206902 30
8.562847 -18.02947 -0.4624751 18
6.104361 -16.64858 -0.5158288 11
4.110761 -15.39575 -0.5495279 9
1.451988 -5.346223 -0.9975845 20
1.977413 -7.499578 -0.8682498 20
nan nan nan 0
31.48464 -53.31207 3.600217 13
16.31434 -63.15102 5.301896 10
11.79344 -20.19258 2.866367 35
2.586707 -10.00091 1.87566 48
nan nan nan 0
17.72285 -29.90713 0.2000005 33
14.24557 -30.18194 0 32
nan nan nan 0
6.358566 -24.06192 -0.290582 18
32.34489 -54.50768 1.868895 7
nan nan nan 0
nan nan nan 0
12.75017 -47.89795 0.605108 10
nan nan nan 0
0.2101695 -0.3600751 -0.0985705 14
3.616063 -6.117951 -0.9819003 28
4.620409 -7.971324 -0.8688093 43
6.135812 -10.49811 -0.7773989 15
4.603004 -9.812584 -0.7551138 30
3.284855 -9.108212 -0.7284102 34
2.317939 -8.876497 -0.7461837 35
8.174615 -13.77314 -0.6500729 17
6.177011 -13.00158 -0.6694038 14
4.570745 -12.49177 -0.6950215 14
3.065511 -11.50824 -0.6906514 17
12.25786 -20.82054 -0.4210393 28
8.510505 -18.08186 -0.4630553 19
6.025766 -16.6134 -0.5140802 10
4.055725 -15.40517 -0.5493551 9
1.43205 -5.346505 -0.9966922 23
1.949975 -7.501625 -0.8676907 21
nan nan nan 0
31.57848 -53.89968 3.632455 12
16.10363 -63.24622 5.305139 10
11.73284 -20.2508 2.868804 38
2.538444 -9.957442 1.865797 43
nan nan nan 0
17.73747 -30.17138 0.201354 37
