# .PCD v0.7 - Point Cloud Data file format
VERSION 0.7
FIELDS x y z intensity
SIZE 4 4 4 4
TYPE F F F F
COUNT 1 1 1 1
WIDTH 1695
HEIGHT 1
VIEWPOINT 0 0 0 1 0 0 0
POINTS 1695
DATA ascii
25.29395 -19.40889 -0.3723776 11
30.50208 -12.08883 0.9668882 67
30.59267 -15.55629 0.7958981 45
30.61663 -19.24847 0.6179456 36
25.41436 -19.42404 0.3903332 12
nan nan nan 0
nan nan nan 0
9.952968 -3.960665 -1.482828 14
14.37558 -5.863374 -1.466558 10
20.62663 -8.326879 -1.424218 9
17.46214 -8.960853 -1.369668 10
14.95731 -9.519173 -1.336298 11
12.77846 -9.869243 -1.315693 9
nan nan nan 0
23.81963 -12.07612 -1.243545 43
20.42314 -12.86403 -1.262866 10
16.84563 -12.87736 -1.231439 8
30.45657 -12.18767 -0.5719153 6
nan nan nan 0
29.48213 -18.68611 -1.016503 10
23.70372 -18.22769 -1.032373 11
6.240489 -4.757682 -1.41607 16
9.865454 -7.63714 -1.399375 11
25.43279 -19.65683 1.289435 11
30.63219 -12.3386 1.919186 56
25.60088 -20.00876 2.639598 25
81.54725 -33.28455 10.80981 41
nan nan nan 0
nan nan nan 0
30.46142 -12.21438 0.1887982 77
30.54676 -15.7212 0 34
31.15731 -19.82433 -0.1931547 10
25.40403 -19.63468 -0.3750086 16
30.49681 -12.21009 0.9680679 78
30.5871 -15.68807 0.7971746 42
30.61682 -19.39804 0.6193138 39
25.42562 -19.57364 0.3915549 8
nan nan nan 0
nan nan nan 0
9.929889 -3.991693 -1.481452 14
14.34121 -5.907835 -1.465143 11
20.52813 -8.370584 -1.419417 8
17.41746 -9.014874 -1.368622 10
14.90721 -9.560557 -1.334791 11
12.7282 -9.901542 -1.314065 8
nan nan nan 0
23.76844 -12.15464 -1.243079 36
20.34439 -12.91384 -1.260773 9
16.80058 -12.93608 -1.231439 7
30.45555 -12.31077 -0.5727007 6
30.88634 -15.93687 -0.8059947 9
29.34513 -18.74317 -1.014026 9
23.60835 -18.28583 -1.030991 12
6.219945 -4.776437 -1.415178 16
9.826984 -7.662361 -1.397698 11
25.45468 -19.81609 1.29405 11
30.63517 -12.46426 1.922091 64
25.57786 -20.135 2.644462 8
81.44434 -33.57467 10.81164 38
nan nan nan 0
nan nan nan 0
30.46494 -12.3394 0.1890862 82
nan nan nan 0
31.15527 -19.97615 -0.1935736 9
25.42607 -19.79389 -0.3763533 13
30.49571 -12.33332 0.969395 79
30.581 -15.82001 0.7984512 44
30.61634 -19.54785 0.6206821 38
25.4638 -19.74501 0.3932042 7
nan nan nan 0
nan nan nan 0
9.906716 -4.02261 -1.480075 14
14.30212 -5.950217 -1.463258 10
20.47572 -8.432694 -1.417817 9
17.37263 -9.068695 -1.367576 10
14.85281 -9.599001 -1.332908 11
12.6818 -9.936686 -1.312844 9
30.46028 -12.30662 -1.335109 10
23.7303 -12.23982 -1.243312 33
20.26554 -12.96324 -1.25868 8
16.75532 -12.99465 -1.231439 9
30.47257 -12.44156 -0.5738351 5
30.84382 -16.0515 -0.8063429 10
29.17866 -18.78056 -1.010529 10
23.54438 -18.36813 -1.030991 11
6.199345 -4.795107 -1.414286 17
9.78846 -7.687404 -1.39602 12
30.68037 -24.05814 1.564337 7
30.63764 -12.59008 1.924995 60
nan nan nan 0
81.31748 -33.85495 10.81042 34
71.16743 -56.46004 16.55099 7
nan nan nan 0
30.47259 -12.46648 0.189403 79
30.55144 -15.99436 0 34
31.16514 -20.13634 -0.194071 10
25.43943 -19.94732 -0.3775812 14
30.51262 -12.46426 0.971312 85
30.56104 -15.94516 0.7993797 48
30.61518 -19.69788 0.6220503 38
25.43413 -19.86456 0.393815 8
nan nan nan 0
nan nan nan 0
9.883449 -4.053412 -1.478699 14
14.26749 -5.994325 -1.461843 11
20.42311 -8.494541 -1.416217 10
17.32762 -9.122311 -1.366529 10
14.8025 -9.639904 -1.331401 10
12.63139 -9.968539 -1.311215 9
30.7317 -12.54118 -1.348932 32
23.66528 -12.31106 -1.242147 31
20.1824 -13.00955 -1.256325 10
16.70986 -13.05306 -1.231439 8
30.45206 -12.55738 -0.5742714 5
30.66367 -16.09403 -0.8030934 14
29.02488 -18.82518 -1.007469 10
23.47226 -18.44403 -1.030646 10
6.182568 -4.816718 -1.414286 16
9.749879 -7.712273 -1.394343 11
30.6354 -24.19605 1.566344 42
30.63961 -12.71607 1.927899 66
nan nan nan 0
81.1622 -34.12321 10.80554 33
71.01987 -56.74804 16.56265 9
nan nan nan 0
30.47972 -12.59377 0.1897197 77
nan nan nan 0
31.17008 -20.29411 -0.1945422 11
25.38142 -20.0453 -0.3777566 9
30.51513 -12.58975 0.9727867 81
30.58925 -16.09596 0.8015848 39
30.61335 -19.84814 0.6234187 38
30.62555 -24.09315 0.4756078 36
nan nan nan 0
nan nan nan 0
9.860086 -4.084102 -1.477323 14
14.22815 -6.036321 -1.459958 11
20.36573 -8.554192 -1.414296 9
17.27805 -9.173387 -1.365134 10
14.74792 -9.677836 -1.329518 11
12.58092 -10.00016 -1.309587 10
30.62768 -12.62363 -1.346289 18
23.63543 -12.40055 -1.242846 29
20.09918 -13.05544 -1.253969 9
16.66419 -13.1113 -1.231439 9
30.80958 -12.83074 -0.5818632 6
nan nan nan 0
28.87532 -18.87169 -1.004555 10
23.40382 -18.52275 -1.030473 11
6.161849 -4.835229 -1.413393 16
9.711245 -7.736966 -1.392666 12
30.64067 -24.37439 1.570959 42
30.64568 -12.84417 1.931094 63
nan nan nan 0
nan nan nan 0
70.89417 -57.0542 16.57968 10
nan nan nan 0
30.49557 -12.72511 0.1900941 81
30.5582 -16.2707 0 35
31.19938 -20.46862 -0.1951706 13
25.22131 -20.06217 -0.3764118 4
30.51714 -12.7154 0.9742612 80
30.59028 -16.23309 0.8030934 45
30.61503 -20.00137 0.6248724 36
30.6353 -24.27444 0.4770739 41
nan nan nan 0
nan nan nan 0
9.83663 -4.114677 -1.475947 14
14.18868 -6.078115 -1.458072 10
20.31278 -8.615493 -1.412696 9
17.21954 -9.219519 -1.363041 10
14.69741 -9.718255 -1.328012 10
12.52649 -10.02844 -1.307552 8
30.44505 -12.6729 -1.340191 20
23.60083 -12.48765 -1.243312 29
20.02007 -13.10365 -1.251876 9
16.61832 -13.16939 -1.231439 8
30.31757 -12.75029 -0.5733988 42
nan nan nan 0
28.72579 -18.91739 -1.00164 10
23.3312 -18.5981 -1.030127 11
6.141077 -4.853656 -1.412501 16
9.672557 -7.761483 -1.390989 12
30.63337 -24.54369 1.574972 43
30.65123 -12.97245 1.934289 55
nan nan nan 0
nan nan nan 0
70.75571 -57.35089 16.59403 8
nan nan nan 0
30.49704 -12.85089 0.1903821 35
30.52765 -16.39146 0 32
31.16528 -20.60222 -0.1954062 16
30.69103 -24.58998 -0.4594353 12
nan nan nan 0
30.59954 -16.37515 0.8048342 43
30.61601 -20.15485 0.6263262 36
30.63634 -24.44985 0.4784178 35
nan nan nan 0
nan nan nan 0
9.813082 -4.145139 -1.474571 14
14.1491 -6.119708 -1.456187 11
20.25965 -8.676529 -1.411096 9
17.16531 -9.267723 -1.361297 11
14.64266 -9.755675 -1.326128 11
12.47589 -10.05958 -1.305923 9
30.33155 -12.75006 -1.337142 16
23.56591 -12.57466 -1.243777 22
19.93252 -13.14596 -1.249259 9
16.57225 -13.22732 -1.231439 8
30.39713 -12.90878 -0.5757548 65
nan nan nan 0
28.56796 -18.95675 -0.9984347 11
23.28173 -18.69194 -1.030818 10
6.120249 -4.871996 -1.411609 16
9.637679 -7.78895 -1.389871 13
30.64858 -24.73206 1.580189 42
30.63789 -13.09309 1.936322 61
nan nan nan 0
41.73589 -18.06651 5.579178 9
70.61987 -57.6504 16.60927 10
nan nan nan 0
30.53021 -12.99053 0.1908716 33
30.5406 -16.53601 0 32
31.15559 -20.75246 -0.1957989 10
nan nan nan 0
30.57943 -12.99261 0.9791273 54
30.60378 -16.51509 0.806459 42
30.61629 -20.30858 0.62778 34
30.64432 -24.63183 0.4798838 31
nan nan nan 0
0.3155726 -0.1378502 -0.07961464 9
9.793996 -4.177427 -1.473883 13
14.1094 -6.161099 -1.454301 11
20.20633 -8.7373 -1.409496 9
17.10657 -9.313277 -1.359205 12
14.59196 -9.79561 -1.324622 11
12.4291 -10.09364 -1.304702 9
30.15348 -12.79928 -1.331247 12
23.51747 -12.65448 -1.243545 31
19.87404 -13.20716 -1.248474 8
16.52987 -13.28822 -1.23173 8
30.44838 -13.05617 -0.5775873 28
32.43494 -17.60549 -0.855898 8
28.41437 -18.99801 -0.9953747 10
23.20468 -18.76367 -1.0303 12
6.099369 -4.89025 -1.410717 16
9.598876 -7.813129 -1.388193 12
30.65123 -24.91137 1.584804 42
30.57825 -13.19403 1.93545 71
nan nan nan 0
41.47247 -18.12467 5.552367 7
70.48278 -57.94968 16.62451 9
nan nan nan 0
30.50306 -13.10491 0.1909868 84
30.51341 -16.65928 0 33
31.11617 -20.88338 -0.1960083 8
30.7475 -24.98972 -0.4628848 3
30.51092 -13.08942 0.97839 83
30.59864 -16.65049 0.8078517 43
30.61587 -20.46255 0.6292338 39
30.64363 -24.80787 0.4812277 37
nan nan nan 0
nan nan nan 0
9.770256 -4.207676 -1.472506 14
14.07415 -6.204293 -1.452887 11
20.15284 -8.797803 -1.407895 9
17.05209 -9.360934 -1.357461 10
14.53703 -9.832518 -1.322739 11
12.37837 -10.12434 -1.303074 9
30.00759 -12.86117 -1.326775 16
23.48633 -12.74364 -1.244243 25
19.77388 -13.24033 -1.245072 8
16.48339 -13.34584 -1.23173 9
30.60908 -13.25172 -0.5815142 18
40.46794 -22.14846 -1.070134 10
28.24841 -19.03006 -0.9918776 10
23.03832 -18.76249 -1.025808 13
6.082262 -4.911511 -1.410717 16
9.56002 -7.837132 -1.386516 12
30.65686 -25.09417 1.58962 42
nan nan nan 0
57.68102 -47.74441 6.087047 5
41.10472 -18.13514 5.511541 8
70.34827 -58.25182 16.64065 10
nan nan nan 0
30.48007 -13.22125 0.1911308 83
30.5164 -16.79945 0 34
nan nan nan 0
nan nan nan 0
30.53384 -13.22563 0.980602 77
30.60168 -16.79085 0.8094764 41
30.6189 -20.61957 0.6307731 36
30.64596 -24.98736 0.4826326 42
nan nan nan 0
0.3101505 -0.1381574 -0.07835092 10
9.746424 -4.237811 -1.47113 14
14.03421 -6.245294 -1.451001 11
20.10375 -8.860052 -1.406615 9
16.99749 -9.408325 -1.355717 10
14.48614 -9.871968 -1.321232 10
12.33141 -10.15798 -1.301852 9
29.82495 -12.90634 -1.320677 17
23.46361 -12.83753 -1.245408 31
19.64062 -13.25063 -1.239577 8
16.4367 -13.40329 -1.23173 9
30.59012 -13.37049 -0.5820377 43
nan nan nan 0
28.12805 -19.09206 -0.9899833 10
22.8877 -18.77306 -1.022008 14
6.057451 -4.926499 -1.408932 16
9.517286 -7.857796 -1.38428 12
30.66159 -25.27732 1.594436 45
30.68646 -13.49557 1.94823 15
49.47592 -41.24363 5.235825 4
40.74194 -18.14529 5.471324 12
70.21249 -58.55374 16.65679 8
nan nan nan 0
nan nan nan 0
30.50566 -16.93256 0 36
nan nan nan 0
nan nan nan 0
nan nan nan 0
30.59974 -16.92903 0.8109851 44
30.62119 -20.77685 0.6323124 37
30.64355 -25.164 0.4839765 45
nan nan nan 0
0.3007754 -0.135423 -0.07582346 10
9.722498 -4.267829 -1.469754 14
13.9987 -6.288131 -1.449587 11
20.0271 -8.909902 -1.403415 9
16.93841 -9.453017 -1.353624 10
14.43104 -9.908361 -1.319349 10
12.28821 -10.1946 -1.301038 9
29.7202 -12.98438 -1.318034 17
23.47989 -12.95312 -1.248669 21
19.51992 -13.26857 -1.234867 7
16.38596 -13.45742 -1.231439 9
30.47922 -13.44894 -0.580816 21
40.06334 -22.29191 -1.063519 8
27.98698 -19.13934 -0.9873605 8
22.78736 -18.82419 -1.020453 11
6.036413 -4.944493 -1.40804 16
9.478343 -7.881434 -1.382603 12
30.66156 -25.45761 1.599051 46
30.60266 -13.5864 1.945906 28
49.15991 -41.27187 5.217585 17
40.45203 -18.18568 5.440857 10
70.07548 -58.85542 16.67293 9
nan nan nan 0
nan nan nan 0
30.52491 -17.08289 0 31
nan nan nan 0
32.39567 -26.89789 -0.491943 3
nan nan nan 0
30.60595 -17.07226 0.8127259 41
30.62276 -20.9344 0.6338517 39
30.64412 -25.34411 0.4853815 34
nan nan nan 0
0.3091784 -0.1403192 -0.07835092 10
9.698484 -4.297733 -1.468378 14
13.96306 -6.330795 -1.448173 12
19.95491 -8.961368 -1.400534 9
16.88358 -9.499859 -1.35188 10
14.37587 -9.944491 -1.317466 10
12.24108 -10.22784 -1.299817 8
29.58784 -13.04976 -1.314172 16
23.5 -13.07142 -1.252162 21
19.39934 -13.28584 -1.230157 7
16.34273 -13.51771 -1.23173 7
30.45493 -13.56542 -0.5812524 14
nan nan nan 0
26.61541 -18.33795 -0.941169 14
22.69847 -18.88444 -1.019417 9
6.015324 -4.962401 -1.407147 16
9.435541 -7.901704 -1.380366 12
30.66448 -25.64141 1.603867 47
30.55049 -13.6911 1.945616 54
49.03076 -41.45609 5.219206 18
40.13069 -18.20992 5.406124 10
69.9372 -59.15686 16.68907 9
nan nan nan 0
30.51347 -13.61711 0.1922251 54
30.49558 -17.20653 0 32
30.55838 -21.13377 -0.1943328 5
32.10984 -26.85042 -0.4890196 4
30.54889 -13.61379 0.9856155 54
30.60717 -17.21329 0.8143507 39
30.62361 -21.09221 0.635391 40
30.63998 -25.52133 0.4867253 43
nan nan nan 0
0.2998226 -0.1375195 -0.07582346 9
9.67438 -4.327522 -1.467002 14
13.9273 -6.373287 -1.446758 12
19.88714 -9.014498 -1.397974 9
16.82862 -9.546432 -1.350136 10
14.32471 -9.983207 -1.315959 10
12.19387 -10.26087 -1.298596 9
29.45995 -13.1164 -1.310513 15
23.45859 -13.15581 -1.252395 28
19.29531 -13.31377 -1.226493 9
16.29544 -13.57468 -1.23173 9
30.43019 -13.68189 -0.5816886 12
30.81743 -17.43067 -0.8210818 9
26.48145 -18.38229 -0.9386919 15
22.67837 -19.00208 -1.02149 7
5.994184 -4.980221 -1.406255 17
9.392715 -7.921772 -1.37813 13
30.66649 -25.82554 1.608683 47
30.56619 -13.82645 1.949682 53
49.04131 -41.75947 5.235825 20
39.80066 -18.228 5.370173 11
69.80517 -59.46443 16.707 9
nan nan nan 0
30.50222 -13.73996 0.1924555 40
30.52225 -17.36232 0 31
30.48442 -21.24031 -0.1943328 6
31.86679 -26.83672 -0.4867394 5
30.51486 -13.72649 0.9860579 57
30.60777 -17.35454 0.8159754 38
30.61962 -21.24743 0.6368448 39
30.64262 -25.70526 0.4881913 38
nan nan nan 0
0.303766 -0.1405197 -0.07708719 9
9.650186 -4.357193 -1.465626 14
13.89141 -6.415607 -1.445344 11
19.81925 -9.067263 -1.395413 10
16.76921 -9.590262 -1.348044 9
14.26937 -10.01882 -1.314076 10
12.14658 -10.29371 -1.297374 9
29.32284 -13.17821 -1.306447 15
23.42991 -13.24745 -1.253327 22
19.22002 -13.36109 -1.224661 9
16.25943 -13.64111 -1.232601 8
30.50517 -13.84379 -0.5840448 13
30.74771 -17.53318 -0.8208497 9
26.3393 -18.42019 -0.9359233 14
22.53171 -19.01343 -1.017862 8
5.972992 -4.997955 -1.405363 16
9.353649 -7.944855 -1.376453 12
30.66759 -26.01 1.613499 40
30.59494 -13.96829 1.954619 53
48.9482 -41.97582 5.2415 17
39.57911 -18.29396 5.348845 8
69.67183 -59.77179 16.72493 9
nan nan nan 0
30.53145 -13.88151 0.1929451 66
30.5352 -17.51104 0 29
30.50831 -21.41554 -0.1949611 12
31.64329 -26.83782 -0.4847515 6
30.55324 -13.87217 0.9888596 60
30.61211 -17.49848 0.8177162 42
30.61902 -21.40575 0.6383842 39
30.64817 -25.89274 0.4897185 41
nan nan nan 0
nan nan nan 0
9.621395 -4.384698 -1.463561 15
13.85539 -6.457754 -1.44393 11
19.75124 -9.119666 -1.392853 9
16.69674 -9.626321 -1.344905 10
14.21396 -10.05417 -1.312193 10
12.0992 -10.32633 -1.296153 8
29.18567 -13.23922 -1.302382 15
23.42258 -13.35141 -1.255423 21
19.14055 -13.40518 -1.222568 10
16.2079 -13.69456 -1.23231 8
30.47939 -13.9606 -0.5844811 11
32.25514 -18.54215 -0.8628612 7
26.21765 -18.47171 -0.9338832 15
22.44998 -19.07902 -1.017171 8
5.951749 -5.015601 -1.40447 16
9.310763 -7.964531 -1.374216 13
30.66777 -26.19478 1.618315 44
30.59134 -14.09589 1.957523 51
48.72218 -42.07801 5.232987 15
39.22266 -18.29568 5.309237 9
69.54838 -60.08859 16.74555 8
nan nan nan 0
30.52826 -14.00885 0.1932331 55
30.54748 -17.66005 0 32
30.57216 -21.62006 -0.1958512 10
31.41637 -26.83445 -0.4827052 5
30.57278 -14.00995 0.9910715 56
30.61148 -17.64017 0.819341 40
30.61768 -21.56432 0.6399235 42
30.64898 -26.07733 0.4911845 37
nan nan nan 0
29.68332 -13.36527 -8.493492 25
9.597031 -4.414122 -1.462185 15
13.82375 -6.501844 -1.442987 10
19.68762 -9.17381 -1.390613 9
16.61129 -9.654473 -1.340719 11
14.15848 -10.08926 -1.31031 9
12.04797 -10.35551 -1.294525 9
29.03933 -13.29529 -1.29791 15
23.39316 -13.44304 -1.256355 30
19.05692 -13.446 -1.220213 9
16.11439 -13.71222 -1.228825 9
30.48947 -14.09416 -0.5856155 13
32.25942 -18.69473 -0.8647181 11
26.0715 -18.50526 -0.930969 16
22.3339 -19.11502 -1.014925 8
5.930457 -5.03316 -1.403578 16
9.275379 -7.990494 -1.373098 13
30.66325 -26.37661 1.62293 48
30.60079 -14.22994 1.961299 56
nan nan nan 0
39.2304 -18.46629 5.318987 17
69.37531 -60.36329 16.75452 8
nan nan nan 0
30.52908 -14.13843 0.1935498 62
30.55477 -17.80685 0 31
30.57388 -21.78177 -0.1963487 5
31.22776 -26.86242 -0.4812435 4
30.55545 -14.13127 0.9921037 59
30.61023 -17.78206 0.8209658 42
30.61968 -21.72603 0.6415482 36
30.65647 -26.26875 0.4927727 42
nan nan nan 0
0.3154915 -0.1496953 -0.08087836 8
9.572577 -4.44343 -1.460809 15
13.78298 -6.541528 -1.441101 11
19.61935 -9.225499 -1.388052 9
16.56458 -9.704836 -1.339673 11
14.10292 -10.12408 -1.308427 9
12.00045 -10.38771 -1.293304 9
28.91564 -13.36096 -1.294454 15
23.37202 -13.53964 -1.257753 19
18.97325 -13.4864 -1.217858 10
16.05885 -13.76189 -1.228244 9
30.48539 -14.22163 -0.5864881 11
nan nan nan 0
25.93764 -18.54673 -0.9284918 18
22.21027 -19.14392 -1.012334 9
5.912852 -5.053831 -1.403578 17
9.239926 -8.016307 -1.37198 13
30.66916 -26.56855 1.628147 46
30.60064 -14.35998 1.964494 51
48.55094 -42.5255 5.246364 12
38.58291 -18.32639 5.239772 13
69.22707 -60.6602 16.76976 8
nan nan nan 0
30.52938 -14.26819 0.1938666 62
30.55709 -17.95139 0 27
30.72919 -22.05455 -0.1978409 5
31.00912 -26.86322 -0.4793141 4
30.56029 -14.2632 0.9938733 57
30.60836 -17.92416 0.8225905 39
30.62093 -21.88802 0.6431731 39
30.65542 -26.45401 0.4942388 46
nan nan nan 0
0.3017745 -0.1447473 -0.07708719 8
9.548037 -4.47262 -1.459433 15
13.7466 -6.583155 -1.439687 11
19.55997 -9.281099 -1.386132 10
16.51342 -9.752454 -1.338278 9
14.0473 -10.15863 -1.306543 10
11.95285 -10.41971 -1.292082 9
28.8326 -13.44493 -1.292828 10
23.31599 -13.6161 -1.257287 21
18.89358 -13.52929 -1.215764 10
16.00694 -13.8146 -1.227954 8
30.48532 -14.35138 -0.587448 11
30.97373 -18.23977 -0.8336157 14
25.79164 -18.57872 -0.9255776 21
22.13199 -19.2115 -1.011816 9
5.891448 -5.071227 -1.402686 16
9.204408 -8.041969 -1.370862 13
30.6741 -26.76085 1.633364 44
30.60898 -14.49447 1.968269 48
48.29757 -42.6024 5.235014 17
38.65297 -18.52529 5.258053 12
69.06653 -60.94704 16.78231 8
nan nan nan 0
30.52913 -14.39813 0.1941834 64
30.55878 -18.09616 0 30
30.60744 -22.12945 -0.1975529 4
30.79838 -26.86939 -0.4775016 4
30.55553 -14.39107 0.9953479 63
30.60588 -18.06647 0.8242152 42
30.62142 -22.05028 0.6447979 42
30.64967 -26.63629 0.4956437 36
nan nan nan 0
0.3012674 -0.1457998 -0.07708719 10
9.523408 -4.501693 -1.458057 15
13.71008 -6.624607 -1.438273 11
19.49595 -9.334244 -1.383892 8
16.46213 -9.799833 -1.336883 10
13.99161 -10.19293 -1.30466 9
11.90518 -10.4515 -1.290861 8
28.62727 -13.47107 -1.285713 16
nan nan nan 0
18.80979 -13.56887 -1.213409 10
15.93601 -13.85073 -1.226211 9
30.49375 -14.48558 -0.5885823 14
31.00014 -18.40135 -0.8360528 12
25.62955 -18.59819 -0.9220805 23
22.0347 -19.26232 -1.010433 8
5.87371 -5.091762 -1.402686 16
9.168823 -8.067482 -1.369744 13
30.66306 -26.94032 1.637778 24
30.60774 -14.62489 1.971464 58
48.21934 -42.83362 5.242716 14
38.65509 -18.6925 5.267192 13
68.90485 -61.23351 16.79486 7
nan nan nan 0
30.52835 -14.52823 0.1945002 63
30.55554 -18.23859 0 26
30.63509 -22.3127 -0.1982336 6
40.29592 -35.40605 -0.6268268 14
30.56379 -14.52552 0.9972647 57
30.60277 -18.20897 0.82584 39
30.6171 -22.20988 0.6463372 47
30.63551 -26.81227 0.4969265 38
nan nan nan 0
0.3051399 -0.1488973 -0.07835092 10
9.503166 -4.53278 -1.457368 15
13.67345 -6.665884 -1.436859 11
19.43629 -9.389226 -1.381971 9
16.40644 -9.844408 -1.335139 9
13.93585 -10.22695 -1.302777 11
11.86116 -10.48639 -1.290047 8
nan nan nan 0
nan nan nan 0
18.72193 -13.60509 -1.210792 9
15.835 -13.86024 -1.222145 8
30.50612 -14.62218 -0.589804 12
31.10302 -18.60954 -0.8405789 8
25.47168 -18.6197 -0.918729 24
21.94108 -19.316 -1.009224 8
5.852197 -5.108996 -1.401794 17
9.133172 -8.092845 -1.368626 13
nan nan nan 0
30.61047 -14.75765 1.974949 58
48.01382 -42.95183 5.236636 13
38.62083 -18.84254 5.271458 13
68.72 -61.4999 16.80204 8
nan nan nan 0
30.51351 -14.65201 0.1947305 55
30.55595 -18.3838 0 22
30.5409 -22.40767 -0.1981289 6
nan nan nan 0
30.56699 -14.65804 0.9990343 53
30.60332 -18.35425 0.8275808 47
30.62011 -22.37562 0.6480475 53
30.62423 -26.99179 0.4982704 20
nan nan nan 0
nan nan nan 0
9.478358 -4.561633 -1.455992 15
13.6367 -6.706986 -1.435444 11
19.37648 -9.443904 -1.380051 10
16.3421 -9.883552 -1.332697 10
13.87601 -10.25775 -1.300517 10
11.81704 -10.5211 -1.289233 9
25.85607 -12.38883 -1.164968 38
nan nan nan 0
18.62194 -13.63201 -1.20739 10
15.7678 -13.89892 -1.220693 10
30.53591 -14.76774 -0.5913748 14
31.10636 -18.75929 -0.8424357 6
25.30994 -18.63737 -0.9152318 28
21.84362 -19.36595 -1.007842 8
5.830635 -5.126142 -1.400901 17
9.097455 -8.118056 -1.367507 13
47.73484 -42.53777 2.566428 10
30.61263 -14.8906 1.978435 54
47.61925 -42.899 5.209883 14
38.62161 -19.01011 5.280598 8
68.58529 -61.81186 16.82176 7
nan nan nan 0
30.54318 -14.79766 0.1952489 56
30.56428 -18.53442 0 21
30.51476 -22.55277 -0.1984692 12
39.76783 -35.43701 -0.6224418 10
30.56962 -14.79076 1.000804 59
30.60324 -18.49975 0.8293216 49
30.61429 -22.53571 0.6495869 61
nan nan nan 0
nan nan nan 0
nan nan nan 0
9.453465 -4.590369 -1.454616 15
13.59982 -6.747914 -1.43403 10
19.31653 -9.498278 -1.378131 10
16.2862 -9.927556 -1.330953 9
13.82412 -10.29421 -1.299011 10
11.76169 -10.54564 -1.287197 8
25.9836 -12.5616 -1.172692 99
nan nan nan 0
18.50594 -13.64655 -1.202942 10
15.65201 -13.89421 -1.215465 10
30.56056 -14.91149 -0.5928582 13
36.62366 -22.26093 -0.9941183 6
25.16044 -18.66307 -0.9121718 31
21.74234 -19.41212 -1.006287 8
5.812706 -5.146463 -1.400901 17
9.061674 -8.143118 -1.366389 14
47.58979 -42.70747 2.566629 11
30.60976 -15.02155 1.981629 50
46.95621 -42.59947 5.15354 10
38.00827 -18.87339 5.205649 14
68.46745 -62.14016 16.84597 6
nan nan nan 0
25.13645 -12.2878 0.160922 142
30.58472 -18.69314 0 15
30.60429 -22.78456 -0.1995687 13
39.61412 -35.5489 -0.6219741 7
30.5762 -14.92587 1.002721 59
30.60678 -18.64807 0.8311785 37
30.61976 -22.70498 0.6513827 82
nan nan nan 0
nan nan nan 0
0.303564 -0.1520845 -0.07835092 9
9.428487 -4.618987 -1.45324 16
13.55838 -6.786438 -1.432145 10
19.25643 -9.55235 -1.376211 10
16.22595 -9.968682 -1.328861 10
13.76817 -10.32744 -1.297128 10
11.69893 -10.56325 -1.284348 9
25.85427 -12.61063 -1.16883 71
22.81442 -13.86276 -1.243079 14
18.43013 -13.69022 -1.20111 9
15.55133 -13.90217 -1.211399 10
24.95065 -12.28337 -0.4847406 121
36.43064 -22.31813 -0.9909849 8
25.0511 -18.71787 -0.910569 27
21.63729 -19.45448 -1.00456 9
5.791036 -5.163445 -1.400009 16
9.029512 -8.171364 -1.36583 14
nan nan nan 0
30.6153 -15.15709 1.985405 51
46.77779 -42.73623 5.150297 12
37.94659 -19.00817 5.206258 12
68.31185 -62.43519 16.86121 6
nan nan nan 0
24.92747 -12.29368 0.1598564 152
30.57889 -18.8365 0 12
30.59657 -22.94525 -0.20004 14
25.28417 -22.84669 -0.3980447 4
30.58221 -15.06121 1.004638 58
30.61817 -18.80187 0.8332675 40
30.60841 -22.86258 0.6528364 103
70.02087 -63.03991 1.150658 8
nan nan nan 0
nan nan nan 0
9.403425 -4.647487 -1.451864 16
13.52127 -6.826999 -1.43073 11
19.19619 -9.606118 -1.37429 10
16.16985 -10.01213 -1.327117 9
13.71214 -10.36041 -1.295244 9
11.63987 -10.5839 -1.281905 9
25.6263 -12.6104 -1.160496 72
22.75738 -13.93709 -1.242613 12
18.37424 -13.74848 -1.200587 8
15.45078 -13.90961 -1.207333 9
24.78225 -12.30815 -0.4822972 145
36.18238 -22.34013 -0.9863427 9
24.87381 -18.72104 -0.906489 30
21.52851 -19.49299 -1.00266 9
5.769319 -5.180339 -1.399117 17
8.993591 -8.196136 -1.364712 15
69.69816 -63.43525 3.783625 4
30.6158 -15.29062 1.98889 55
46.75301 -43.01398 5.164079 12
37.80913 -19.10471 5.196508 6
68.16587 -62.73989 16.87914 5
nan nan nan 0
24.72323 -12.30047 0.1588197 156
nan nan nan 0
25.60927 -19.3448 -0.1678388 15
37.96 -34.5457 -0.5997565 8
30.58764 -15.19677 1.006555 54
30.62462 -18.95335 0.8352404 38
30.59233 -23.01738 0.6542048 103
69.86336 -63.34103 1.151697 9
nan nan nan 0
nan nan nan 0
9.378279 -4.675868 -1.450488 16
13.48405 -6.867383 -1.429316 10
19.13136 -9.657335 -1.37205 10
16.11364 -10.05532 -1.325373 10
13.65606 -10.39311 -1.293361 10
11.56979 -10.59416 -1.278242 8
nan nan nan 0
22.64908 -13.97972 -1.239352 13
18.31018 -13.80051 -1.19954 10
15.36147 -13.92656 -1.204138 10
24.66761 -12.35876 -0.480901 127
nan nan nan 0
24.74857 -18.76246 -0.9043033 26
21.42342 -19.53434 -1.000932 9
5.747554 -5.197144 -1.398224 16
8.961268 -8.224118 -1.364153 16
48.05697 -44.04408 2.616593 33
30.61574 -15.42434 1.992375 58
46.55507 -43.13288 5.15881 12
37.5167 -19.12167 5.165432 8
nan nan nan 0
nan nan nan 0
24.5997 -12.34634 0.1583014 118
30.57804 -19.13172 0 11
25.48986 -19.39472 -0.1674985 15
36.83303 -33.75571 -0.583795 5
30.59249 -15.33255 1.008472 58
30.63038 -19.1051 0.8372133 39
nan nan nan 0
69.73414 -63.6688 1.153224 5
nan nan nan 0
nan nan nan 0
9.357474 -4.706352 -1.4498 15
13.44671 -6.907591 -1.427902 10
19.07085 -9.710479 -1.37013 10
16.05733 -10.09823 -1.323629 10
13.60387 -10.42858 -1.291855 10
11.5364 -10.63786 -1.278649 8
25.43935 -12.7398 -1.156024 65
22.54925 -14.02705 -1.236557 13
18.23406 -13.84321 -1.197708 8
15.28696 -13.95654 -1.202105 9
nan nan nan 0
35.02185 -21.96282 -0.9588378 10
24.6869 -18.85177 -0.904449 24
21.31462 -19.57182 -0.9990317 9
5.729378 -5.217175 -1.398224 17
8.921563 -8.245227 -1.362476 29
48.06079 -44.35727 2.625221 18
30.61511 -15.55824 1.995861 55
46.82323 -43.68613 5.205424 7
37.0613 -19.05289 5.111809 13
nan nan nan 0
nan nan nan 0
30.55687 -15.46842 0.1970344 45
30.55337 -19.26501 0 7
25.4101 -19.47445 -0.1674199 18
36.78111 -33.94511 -0.5848474 11
30.59232 -15.4663 1.010241 56
30.64391 -19.26245 0.8394184 39
25.44401 -19.42315 0.546881 15
69.55931 -63.95582 1.154018 12
nan nan nan 0
nan nan nan 0
9.336571 -4.73675 -1.449111 16
13.4181 -6.952198 -1.427431 11
19.00576 -9.761041 -1.367889 10
15.9967 -10.1382 -1.321536 9
13.54766 -10.46076 -1.289972 10
11.49189 -10.67129 -1.277834 9
25.60879 -12.93661 -1.165781 78
22.39858 -14.04201 -1.230967 12
18.142 -13.87341 -1.19483 9
15.20876 -13.98278 -1.199782 8
nan nan nan 0
34.89428 -22.05289 -0.9574453 10
24.54568 -18.87993 -0.9016804 29
21.20949 -19.61217 -0.9973043 9
5.707508 -5.233815 -1.397332 17
8.878185 -8.262773 -1.360239 47
47.62757 -44.26625 2.609971 16
30.61837 -15.6946 1.999636 54
46.58328 -43.7674 5.195696 16
36.95491 -19.16158 5.106325 14
nan nan nan 0
nan nan nan 0
30.54278 -15.59545 0.1972936 61
30.5619 -19.41981 0 9
25.42112 -19.62414 -0.1679436 13
36.77225 -34.17542 -0.5866014 17
30.59602 -15.60249 1.012158 55
30.64405 -19.41209 0.8412752 36
nan nan nan 0
48.0884 -44.52309 0.8002136 12
nan nan nan 0
0.2922145 -0.1530225 -0.07582346 10
9.31998 -4.769311 -1.449111 16
13.38933 -6.996689 -1.426959 10
18.94056 -9.811265 -1.365649 10
15.9402 -10.18055 -1.319792 10
13.49532 -10.49575 -1.288465 10
11.45093 -10.70793 -1.277427 8
25.6347 -13.06219 -1.169034 60
22.32409 -14.1041 -1.229569 11
18.05391 -13.90617 -1.192213 9
15.13057 -14.00865 -1.197458 8
30.8952 -15.88415 -0.6056857 15
34.72011 -22.11281 -0.954776 10
24.36505 -18.87672 -0.8974547 33
21.10434 -19.65203 -0.9955767 9
5.689204 -5.253706 -1.397332 17
8.838417 -8.283513 -1.358562 48
47.27945 -44.25128 2.599336 12
30.62104 -15.83118 2.003412 52
46.6257 -44.11472 5.217585 14
36.74267 -19.21459 5.086217 6
nan nan nan 0
nan nan nan 0
30.53261 -15.72486 0.1975815 65
30.57393 -19.5776 0 7
25.42351 -19.768 -0.1684148 11
36.69287 -34.34115 -0.5872445 16
30.59916 -15.73891 1.014075 60
30.62245 -19.54852 0.8425518 41
25.47775 -19.73194 0.5505582 12
nan nan nan 0
nan nan nan 0
nan nan nan 0
9.312078 -4.806353 -1.450488 34
13.35602 -7.038746 -1.426016 9
18.87523 -9.861155 -1.363409 10
15.8794 -10.21994 -1.3177 9
13.4429 -10.53049 -1.286958 9
11.40261 -10.73758 -1.276206 9
25.05125 -12.87538 -1.144437 68
22.24523 -14.16317 -1.227939 11
17.96975 -13.94156 -1.189858 9
15.04872 -14.03073 -1.194844 10
30.87063 -16.008 -0.6062965 12
34.42816 -22.09618 -0.9488572 11
24.34235 -18.99548 -0.8990576 25
20.99917 -19.69138 -0.9938492 9
5.667229 -5.27018 -1.39644 16
8.798614 -8.304079 -1.356885 48
47.11743 -44.40919 2.598935 12
30.62314 -15.96796 2.007188 52
46.2766 -44.09155 5.195696 14
36.44271 -19.22006 5.053921 8
nan nan nan 0
nan nan nan 0
30.53078 -15.85899 0.1979271 62
30.62725 -19.76281 0 8
25.40946 -19.89979 -0.1687813 11
36.5655 -34.46217 -0.5871276 9
30.59727 -15.87323 1.015845 59
30.60448 -19.68775 0.8439445 39
nan nan nan 0
nan nan nan 0
nan nan nan 0
0.2954484 -0.1572573 -0.07708719 10
9.264486 -4.822838 -1.445671 50
13.32697 -7.08299 -1.425545 9
18.81421 -9.913033 -1.361488 10
15.81851 -10.25902 -1.315607 9
13.39041 -10.56499 -1.285452 10
11.3506 -10.7636 -1.274578 9
25.13479 -13.02939 -1.150332 76
22.16203 -14.21916 -1.226076 12
17.89344 -13.98268 -1.188026 8
14.95964 -14.04558 -1.19165 7
30.67279 -16.04155 -0.6035042 15
nan nan nan 0
24.36234 -19.14828 -0.9022633 26
20.89398 -19.73025 -0.9921216 9
5.648798 -5.289931 -1.39644 16
8.758774 -8.324469 -1.355208 47
47.09257 -44.69721 2.606158 13
30.62907 -16.10728 2.011254 55
46.0505 -44.1838 5.187589 12
35.97226 -19.1328 4.997861 18
nan nan nan 0
nan nan nan 0
30.54167 -16.00025 0.1983591 59
30.69222 -19.95681 0 7
25.42228 -20.0534 -0.1693311 7
36.46312 -34.60681 -0.5874199 5
30.59482 -16.00773 1.017614 55
nan nan nan 0
nan nan nan 0
nan nan nan 0
nan nan nan 0
0.2948976 -0.1582877 -0.07708719 10
9.225664 -4.843648 -1.442231 65
13.29339 -7.124766 -1.424602 11
18.74864 -9.962264 -1.359248 10
15.76173 -10.30054 -1.313863 9
13.34173 -10.60236 -1.284322 10
11.29854 -10.78938 -1.272949 8
nan nan nan 0
22.07031 -14.26932 -1.223747 11
17.80921 -14.01726 -1.185671 7
14.89239 -14.08056 -1.190197 8
nan nan nan 0
32.58113 -21.23346 -0.9019715 7
24.27968 -19.2208 -0.9016804 26
20.7924 -19.77207 -0.9905668 10
5.626722 -5.306239 -1.395548 16
8.722486 -8.348117 -1.354089 48
47.09515 -45.01323 2.614987 8
30.6344 -16.24682 2.01532 57
46.07516 -44.51744 5.207856 11
35.91401 -19.26295 4.99908 7
nan nan nan 0
nan nan nan 0
30.54311 -16.13712 0.1987334 47
30.85658 -20.21727 0 11
30.73863 -24.42204 -0.2053545 7
34.817 -33.27594 -0.5627468 8
30.59181 -16.14241 1.019384 57
30.67554 -20.0376 0.8497472 38
nan nan nan 0
nan nan nan 0
nan nan nan 0
0.3158122 -0.1704588 -0.08340581 10
9.178055 -4.859617 -1.437414 61
13.25968 -7.166395 -1.423659 10
18.68296 -10.01116 -1.357008 10
15.70068 -10.33904 -1.31177 10
13.28908 -10.63641 -1.282815 10
11.25004 -10.81839 -1.271728 9
nan nan nan 0
21.95341 -14.30265 -1.22002 13
17.65845 -13.99868 -1.178867 8
14.81423 -14.10492 -1.187874 7
nan nan nan 0
32.53188 -21.36352 -0.9026678 9
24.20462 -19.2992 -0.9013889 33
20.69438 -19.81687 -0.9891848 8
5.608165 -5.325847 -1.395548 16
8.68614 -8.371614 -1.352971 61
46.97733 -45.21546 2.617195 8
30.63913 -16.38661 2.019386 48
45.98379 -44.74056 5.215153 13
35.66756 -19.29141 4.974097 8
nan nan nan 0
nan nan nan 0
30.54397 -16.27419 0.1991078 61
31.07792 -20.51768 0 11
30.70004 -24.56668 -0.2056687 10
26.42345 -25.42919 -0.4283891 5
30.59705 -16.28196 1.021448 58
30.61376 -20.15005 0.8499792 44
nan nan nan 0
49.23822 -47.21037 0.8329551 9
nan nan nan 0
nan nan nan 0
9.152296 -4.886964 -1.436038 71
13.22584 -7.207875 -1.422716 11
18.62156 -10.06209 -1.355087 10
15.64371 -10.37999 -1.310026 8
13.23634 -10.67021 -1.281309 9
11.19789 -10.84372 -1.2701 9
nan nan nan 0
21.91588 -14.38742 -1.220719 14
17.67971 -14.11632 -1.183578 8
14.76491 -14.15654 -1.187874 10
30.67495 -16.454 -0.6069074 15
32.52798 -21.52384 -0.9046407 8
24.13711 -19.38357 -0.9013889 35
20.59991 -19.8647 -0.9879755 9
5.585987 -5.341988 -1.394655 16
8.649738 -8.394958 -1.351853 49
49.27999 -47.76465 2.754847 11
30.64325 -16.52662 2.023452 50
46.1192 -45.18682 5.248391 11
35.39087 -19.30177 4.944849 9
nan nan nan 0
nan nan nan 0
30.54864 -16.41384 0.199511 57
30.92701 -20.57342 0 10
nan nan nan 0
26.48171 -25.66395 -0.4307863 5
30.59728 -16.41938 1.023365 57
30.63905 -20.32033 0.8526485 37
nan nan nan 0
49.03716 -47.34723 0.8323442 13
nan nan nan 0
0.3146145 -0.1726594 -0.08340581 9
9.139544 -4.921227 -1.436726 65
13.18751 -7.246811 -1.421302 10
18.55564 -10.11032 -1.352847 11
15.58251 -10.4179 -1.307934 9
13.1874 -10.70692 -1.280179 9
11.14571 -10.86882 -1.268472 9
nan nan nan 0
21.85719 -14.45832 -1.220253 17
17.63421 -14.18108 -1.183839 8
14.72976 -14.22187 -1.189036 9
32.54347 -17.60243 -0.6451282 6
32.63565 -21.75925 -0.9097471 10
24.08484 -19.48028 -0.9019718 37
20.4946 -19.90167 -0.986248 9
5.563765 -5.358039 -1.393763 16
8.609726 -8.414678 -1.350176 49
49.07721 -47.90149 2.75284 7
30.63801 -16.66209 2.026937 51
nan nan nan 0
34.94492 -19.21719 4.891835 18
nan nan nan 0
nan nan nan 0
30.54392 -16.54894 0.1998566 62
31.03776 -20.80373 0 8
nan nan nan 0
33.4327 -32.62939 -0.5458497 8
30.60571 -16.56175 1.025577 57
30.60949 -20.45493 0.8538091 37
nan nan nan 0
nan nan nan 0
nan nan nan 0
nan nan nan 0
9.122309 -4.9531 -1.436726 45
13.15343 -7.287978 -1.420359 11
18.48963 -10.15823 -1.350607 15
15.52536 -10.4583 -1.30619 10
13.13837 -10.74342 -1.279049 9
11.09348 -10.89369 -1.266843 8
nan nan nan 0
21.78996 -14.52345 -1.219321 29
17.55745 -14.22054 -1.182008 8
14.63352 -14.22795 -1.18526 8
32.35893 -17.64892 -0.6426849 11
33.04084 -22.19636 -0.9232092 13
23.9857 -19.53898 -0.9008061 40
20.41786 -19.9661 -0.9859025 9
5.541499 -5.374001 -1.392871 16
8.573221 -8.437706 -1.349058 49
nan nan nan 0
30.63656 -16.80013 2.030713 60
49.41887 -49.10129 5.663057 6
34.84724 -19.32221 4.88757 13
nan nan nan 0
nan nan nan 0
30.54301 -16.68662 0.2002309 58
nan nan nan 0
nan nan nan 0
33.37564 -32.80198 -0.5467852 16
30.60037 -16.6972 1.027346 57
30.61669 -20.61469 0.8560141 43
nan nan nan 0
56.58904 -55.40863 0.9671589 7
nan nan nan 0
nan nan nan 0
9.109309 -4.987288 -1.437414 18
13.11921 -7.328995 -1.419416 11
18.42349 -10.20578 -1.348366 10
15.47225 -10.50123 -1.304795 9
13.08925 -10.77971 -1.277919 9
11.04122 -10.91832 -1.265215 9
nan nan nan 0
21.63962 -14.5326 -1.213731 17
17.49996 -14.27543 -1.181484 8
14.55524 -14.251 -1.182937 8
32.09122 -17.64857 -0.6385835 12
32.83483 -22.22471 -0.9196116 12
23.8903 -19.6004 -0.8997862 33
20.34092 -20.03024 -0.985557 8
5.519188 -5.389872 -1.391978 16
8.536661 -8.460581 -1.34794 47
67.88245 -67.191 3.834593 6
30.63015 -16.93594 2.034198 58
49.22603 -49.25235 5.660625 18
77.06932 -43.07867 10.83601 12
nan nan nan 0
nan nan nan 0
30.54151 -16.82448 0.2006053 49
nan nan nan 0
nan nan nan 0
33.35687 -33.01325 -0.5483639 22
30.59007 -16.83041 1.028968 55
30.61901 -20.77194 0.858103 33
nan nan nan 0
56.349 -55.56018 0.9663647 11
nan nan nan 0
0.3042808 -0.1713382 -0.08087836 9
9.096183 -5.021447 -1.438102 17
13.08054 -7.367422 -1.418002 10
18.3529 -10.25058 -1.345806 11
15.41903 -10.54391 -1.3034 9
13.03619 -10.81259 -1.276413 9
10.99245 -10.94625 -1.263994 8
24.20474 -13.30757 -1.12228 29
21.53498 -14.57167 -1.210703 27
17.42688 -14.31741 -1.179914 9
14.47697 -14.27368 -1.180613 9
31.80206 -17.63445 -0.6340458 9
nan nan nan 0
23.7601 -19.63273 -0.8974547 35
20.25669 -20.08704 -0.984866 9
5.500341 -5.409104 -1.391978 15
8.500046 -8.483306 -1.346822 48
67.73242 -67.5122 3.839408 6
30.62317 -17.07192 2.037683 52
49.31007 -49.68211 5.690215 11
76.94009 -43.3596 10.83906 10
76.90332 -77.51515 19.89526 4
nan nan nan 0
30.53506 -16.96011 0.2009509 60
nan nan nan 0
30.57066 -25.35088 -0.2077369 5
33.22018 -33.10831 -0.548013 7
30.58359 -16.96617 1.030738 62
30.61234 -20.92382 0.8599599 34
nan nan nan 0
nan nan nan 0
nan nan nan 0
nan nan nan 0
9.082928 -5.055574 -1.43879 16
13.03742 -7.40321 -1.416117 11
18.28222 -10.295 -1.343245 10
15.36159 -10.58353 -1.301656 9
12.98689 -10.84844 -1.275283 9
10.9401 -10.97043 -1.262365 9
24.37664 -13.51305 -1.132444 31
21.42621 -14.60736 -1.207442 50
17.35756 -14.36224 -1.178606 8
14.40227 -14.2995 -1.17858 9
31.46538 -17.5917 -0.6285484 9
nan nan nan 0
23.76825 -19.77949 -0.900369 31
20.17938 -20.15056 -0.9845205 10
5.477932 -5.424806 -1.391086 16
8.463376 -8.505877 -1.345703 45
67.5457 -67.79776 3.842218 7
30.63302 -17.21783 2.04233 54
49.11186 -49.82908 5.687378 14
76.81416 -43.64262 10.84272 7
nan nan nan 0
nan nan nan 0
30.53675 -17.10079 0.201354 64
nan nan nan 0
30.53955 -25.50551 -0.2081296 4
nan nan nan 0
30.58088 -17.10453 1.032655 56
30.61323 -21.08158 0.8620489 42
nan nan nan 0
nan nan nan 0
nan nan nan 0
nan nan nan 0
9.052265 -5.079985 -1.436726 17
12.99422 -7.438788 -1.414231 11
18.23315 -10.35137 -1.342285 11
15.31226 -10.62855 -1.300609 10
12.93368 -10.88087 -1.273776 8
10.89123 -10.99792 -1.261144 9
24.54739 -13.71988 -1.142608 67
21.32568 -14.64814 -1.204647 50
17.27664 -14.39716 -1.176512 9
14.3311 -14.32851 -1.176838 8
31.1381 -17.55172 -0.6232254 5
30.72608 -21.27005 -0.8666911 6
23.71438 -19.87518 -0.9009519 28
20.08778 -20.19962 -0.983484 8
5.458962 -5.443895 -1.391086 15
8.430143 -8.531832 -1.345144 34
67.38944 -68.11482 3.846833 8
30.63788 -17.36156 2.046687 56
48.86442 -49.92541 5.678865 14
nan nan nan 0
75.76865 -77.44534 19.74105 4
nan nan nan 0
30.54654 -17.2466 0.2018148 60
nan nan nan 0
nan nan nan 0
31.83144 -32.17003 -0.5287773 8
30.58194 -17.24553 1.034719 60
30.60106 -21.23105 0.8637897 44
nan nan nan 0
nan nan nan 0
nan nan nan 0
nan nan nan 0
9.021542 -5.104243 -1.434662 17
12.95092 -7.474154 -1.412345 12
18.17958 -10.40504 -1.341005 11
15.25054 -10.66479 -1.298517 10
12.88041 -10.91306 -1.27227 8
10.84229 -11.02521 -1.259923 8
24.49065 -13.80058 -1.142201 91
21.22103 -14.68554 -1.20162 66
17.18803 -14.42528 -1.173895 9
14.25989 -14.35719 -1.175095 9
nan nan nan 0
30.52864 -21.29139 -0.8632094 6
23.69833 -20.00297 -0.9029918 24
20.01715 -20.26962 -0.983484 9
5.436458 -5.459429 -1.390194 15
8.396832 -8.557658 -1.344585 16
67.2388 -68.43874 3.851849 7
30.64644 -17.50801 2.051333 53
48.65512 -50.05993 5.674812 11
76.59786 -44.22992 10.85551 7
75.21338 -77.41651 19.66663 5
nan nan nan 0
30.55133 -17.39021 0.2022468 61
nan nan nan 0
nan nan nan 0
31.79603 -32.35941 -0.5300636 13
30.58674 -17.38922 1.036931 57
30.64967 -21.42365 0.8672712 39
nan nan nan 0
nan nan nan 0
nan nan nan 0
nan nan nan 0
8.995064 -5.1308 -1.433285 16
12.90754 -7.50931 -1.41046 11
18.12587 -10.45846 -1.339725 11
15.18876 -10.70072 -1.296424 9
12.82707 -10.945 -1.270763 9
10.7933 -11.05229 -1.258702 9
24.44667 -13.88845 -1.142404 82
21.12866 -14.73097 -1.19929 61
17.21765 -14.55289 -1.179391 9
14.18867 -14.38555 -1.173352 8
32.01692 -18.3426 -0.6433829 15
30.48686 -21.42082 -0.8641378 5
23.61313 -20.07262 -0.902409 16
19.9008 -20.29297 -0.9812382 9
5.417368 -5.478373 -1.390194 16
8.363442 -8.583356 -1.344026 15
49.85632 -51.09964 2.865811 17
30.65003 -17.65223 2.05569 55
47.98868 -49.72025 5.617253 13
nan nan nan 0
nan nan nan 0
nan nan nan 0
30.5555 -17.53407 0.2026787 53
nan nan nan 0
31.24452 -26.65469 -0.2148316 11
31.76667 -32.5561 -0.5314668 15
30.58657 -17.53066 1.038996 59
30.6401 -21.57655 0.8691282 41
nan nan nan 0
64.81202 -66.17623 1.131233 8
nan nan nan 0
nan nan nan 0
8.96851 -5.157234 -1.431909 16
12.86407 -7.544253 -1.408574 11
18.07199 -10.51164 -1.338445 12
15.12691 -10.73636 -1.294331 9
12.77366 -10.97671 -1.269257 8
10.74078 -11.07559 -1.257073 9
24.35035 -13.9464 -1.140169 69
21.0485 -14.78454 -1.19766 42
17.17055 -14.61613 -1.179652 8
14.10694 -14.40289 -1.170738 9
31.99167 -18.47674 -0.6441683 7
30.49758 -21.58775 -0.8665749 6
23.54672 -20.15817 -0.9025547 14
19.79847 -20.33009 -0.9796834 9
5.394768 -5.493737 -1.389301 15
8.326523 -8.605353 -1.342908 14
49.71241 -51.30924 2.867818 44
30.65298 -17.7967 2.060047 56
47.88379 -49.95942 5.62536 13
76.29578 -44.76862 10.85673 12
74.14706 -77.39268 19.52856 4
nan nan nan 0
30.56336 -17.68067 0.2031395 55
nan nan nan 0
31.10958 -26.72775 -0.2145436 17
31.68066 -32.69551 -0.5319346 10
30.5901 -17.67482 1.041208 60
nan nan nan 0
30.62491 -26.20942 0.6888391 132
64.68519 -66.50959 1.133066 14
nan nan nan 0
0.2964207 -0.1752813 -0.07961464 9
8.941881 -5.183546 -1.430533 16
12.82052 -7.578985 -1.406688 11
18.01366 -10.56205 -1.336845 11
15.06499 -10.77169 -1.292239 8
12.72396 -11.01144 -1.268127 9
10.69169 -11.10224 -1.255852 8
24.15873 -13.9489 -1.13346 81
20.90299 -14.79157 -1.192303 36
nan nan nan 0
14.02526 -14.41983 -1.168124 8
30.60052 -17.81628 -0.6173788 7
30.88195 -22.022 -0.879689 16
23.47621 -20.24025 -0.9025547 13
19.68918 -20.35956 -0.9777831 9
5.372125 -5.509009 -1.388409 15
8.292994 -8.630782 -1.342349 15
49.58842 -51.54007 2.871028 13
30.6553 -17.94139 2.064403 56
47.77095 -50.19124 5.632656 8
76.23302 -45.09025 10.87014 7
73.65607 -77.41938 19.47028 5
nan nan nan 0
30.56625 -17.82501 0.2035715 59
nan nan nan 0
31.1522 -26.95396 -0.2154861 12
31.4173 -32.65097 -0.5294204 6
30.59301 -17.81921 1.043419 57
30.65954 -21.91199 0.8740024 35
30.61654 -26.38797 0.6907205 126
64.6124 -66.90042 1.135876 13
nan nan nan 0
0.3125938 -0.1859405 -0.08466953 9
8.915179 -5.209734 -1.429157 16
12.78115 -7.616051 -1.405274 11
17.95521 -10.61217 -1.335244 12
14.99897 -10.80381 -1.289797 9
12.66665 -11.03941 -1.266244 9
10.6391 -11.12508 -1.254224 8
24.1358 -14.04822 -1.13468 68
20.77802 -14.81227 -1.18811 67
17.01518 -14.68996 -1.175989 8
13.94711 -14.43997 -1.165801 10
30.65456 -17.99129 -0.6197349 16
30.81301 -22.1355 -0.8799212 14
23.42051 -20.33518 -0.9031376 13
19.59031 -20.39932 -0.9764011 9
5.352862 -5.527728 -1.388409 15
8.25596 -8.652485 -1.341231 15
49.29087 -51.59002 2.864206 15
30.65697 -18.08633 2.068759 53
48.45117 -51.26321 5.733992 8
76.09648 -45.36879 10.87318 6
73.11515 -77.38995 19.39855 4
nan nan nan 0
30.5642 -17.96707 0.2039746 59
nan nan nan 0
30.95992 -26.97713 -0.2148054 36
31.23061 -32.68451 -0.5281926 5
30.59958 -17.96637 1.045779 51
30.64777 -22.06561 0.8758593 36
30.64128 -26.59628 0.6933715 121
64.59649 -67.35289 1.139724 10
nan nan nan 0
0.3035663 -0.1821885 -0.08214208 10
8.888402 -5.2358 -1.427781 16
12.73315 -7.647811 -1.402917 12
17.89661 -10.66202 -1.333644 13
14.9329 -10.8356 -1.287356 10
12.6168 -11.07369 -1.265114 8
10.58991 -11.1513 -1.253002 10
24.12109 -14.15261 -1.136306 66
20.6775 -14.84975 -1.185315 58
16.93366 -14.72306 -1.173895 8
13.86553 -14.45614 -1.163187 10
30.6346 -18.12364 -0.6206075 15
nan nan nan 0
23.38324 -20.44642 -0.904449 11
19.49485 -20.44226 -0.9751918 9
5.330127 -5.542831 -1.387517 15
8.218874 -8.674034 -1.340113 15
49.11049 -51.76176 2.864206 15
30.66231 -18.23404 2.073406 53
48.2617 -51.42113 5.732776 12
75.89936 -45.61113 10.8677 8
nan nan nan 0
nan nan nan 0
30.56152 -18.10932 0.2043778 60
30.44271 -22.14457 0 15
30.78289 -27.01248 -0.2142295 110
30.08062 -31.70154 -0.5105941 7
30.6012 -18.11124 1.047991 58
30.61507 -22.20474 0.8771359 37
30.63106 -26.77545 0.6952529 111
49.62492 -52.10357 0.8786467 17
nan nan nan 0
0.2862093 -0.1735045 -0.07708719 10
8.861552 -5.261742 -1.426405 16
12.68508 -7.67933 -1.40056 13
17.83362 -10.70902 -1.331724 12
14.87082 -10.87 -1.285263 8
12.55565 -11.09785 -1.262854 8
10.54067 -11.17732 -1.251781 10
24.01993 -14.20621 -1.133867 60
20.56889 -14.88085 -1.182054 51
16.86714 -14.76892 -1.172849 8
13.78745 -14.47552 -1.160864 9
30.60122 -18.24838 -0.6212183 17
30.26187 -22.06151 -0.8685479 11
23.36424 -20.57416 -0.906489 12
19.39932 -20.48479 -0.9739825 9
5.310746 -5.561403 -1.387517 15
8.18174 -8.69543 -1.338994 15
49.06997 -52.08197 2.872433 11
30.66269 -18.37945 2.077763 48
47.38543 -50.84186 5.649681 14
75.71421 -45.86036 10.86404 8
72.1037 -77.39461 19.27303 6
nan nan nan 0
30.55393 -18.24921 0.2047522 58
nan nan nan 0
nan nan nan 0
30.06919 -31.91188 -0.5122895 8
30.59789 -18.25379 1.050055 64
30.63425 -22.38223 0.8799212 35
30.59744 -26.93507 0.6966212 47
nan nan nan 0
nan nan nan 0
0.2814307 -0.1720523 -0.07582346 9
8.838881 -5.290102 -1.425717 16
12.63694 -7.710606 -1.398203 12
17.77478 -10.75829 -1.330123 12
14.81271 -10.90705 -1.283519 9
12.49822 -11.12503 -1.260971 8
10.49478 -11.20677 -1.250967 9
nan nan nan 0
20.50875 -14.94668 -1.181589 35
16.75931 -14.77817 -1.168923 10
13.71627 -14.5018 -1.159121 9
30.61018 -18.39886 -0.6227018 17
25.79298 -18.94218 -0.742049 30
23.33715 -20.69539 -0.9082376 12
19.30717 -20.53053 -0.972946 9
5.287919 -5.576335 -1.386625 16
8.147946 -8.720304 -1.338435 15
48.96636 -52.33686 2.877048 8
30.66672 -18.52766 2.08241 55
nan nan nan 0
75.56638 -46.13213 10.86587 9
71.8498 -77.66388 19.27751 4
nan nan nan 0
30.53716 -18.38412 0.2050689 47
nan nan nan 0
nan nan nan 0
30.01909 -32.08237 -0.513342 13
30.59396 -18.39653 1.052119 52
30.6445 -22.55422 0.8824744 35
nan nan nan 0
nan nan nan 0
nan nan nan 0
nan nan nan 0
8.811876 -5.315811 -1.42434 16
12.58875 -7.741641 -1.395846 12
17.71582 -10.80728 -1.328523 11
14.75051 -10.94087 -1.281426 9
12.43704 -11.14862 -1.258711 8
10.44542 -11.23238 -1.249746 8
nan nan nan 0
nan nan nan 0
16.74122 -14.86642 -1.171279 10
13.64165 -14.52411 -1.157088 11
30.60563 -18.54185 -0.6239235 16
25.79904 -19.0856 -0.744138 18
23.34304 -20.84664 -0.9112976 11
19.21151 -20.57223 -0.9717368 9
5.268421 -5.594759 -1.386625 16
8.110703 -8.741405 -1.337317 15
nan nan nan 0
30.67008 -18.67612 2.087057 58
nan nan nan 0
75.44716 -46.42163 10.87196 8
nan nan nan 0
nan nan nan 0
30.55403 -18.53987 0.2056161 61
nan nan nan 0
nan nan nan 0
25.93594 -27.91217 -0.4451108 11
30.57657 -18.5317 1.053742 59
30.64991 -22.72356 0.8849115 31
nan nan nan 0
nan nan nan 0
nan nan nan 0
0.3051471 -0.1888884 -0.08340581 10
8.789034 -5.343967 -1.423652 15
12.54472 -7.775053 -1.39396 13
17.65248 -10.85339 -1.326603 12
14.68825 -10.97438 -1.279334 8
12.37214 -11.16858 -1.256074 8
10.39938 -11.26145 -1.248932 9
nan nan nan 0
nan nan nan 0
16.6334 -14.87484 -1.167354 9
13.56704 -14.54609 -1.155055 10
30.59192 -18.67983 -0.6249706 15
25.66012 -19.12178 -0.742049 15
23.28128 -20.93802 -0.9117348 12
19.1192 -20.61718 -0.9707002 9
5.24886 -5.613116 -1.386625 15
8.076775 -8.766008 -1.336758 14
66.0823 -71.62967 3.912649 4
30.67277 -18.82483 2.091704 54
nan nan nan 0
75.33105 -46.71347 10.87867 8
nan nan nan 0
nan nan nan 0
30.56591 -18.69335 0.2061345 61
30.45072 -22.80723 0 5
42.30578 -38.18356 -0.2981881 12
25.72987 -27.88494 -0.4432398 15
30.60127 -18.69302 1.056838 54
30.64651 -22.88723 0.8871165 31
nan nan nan 0
nan nan nan 0
nan nan nan 0
nan nan nan 0
8.766102 -5.372028 -1.422964 15
12.49639 -7.805616 -1.391603 14
17.58903 -10.89917 -1.324683 11
14.62594 -11.00759 -1.277241 10
12.33308 -11.2117 -1.256074 7
10.34991 -11.28666 -1.24771 9
nan nan nan 0
nan nan nan 0
16.54799 -14.90273 -1.164998 9
13.49245 -14.56771 -1.153022 10
30.59892 -18.83104 -0.6264541 14
25.45329 -19.10622 -0.7379872 20
23.24139 -21.04936 -0.9130462 11
19.02681 -20.66173 -0.9696637 9
5.225889 -5.627795 -1.385732 15
8.042774 -8.790482 -1.336199 13
50.78458 -55.43292 3.017911 16
30.6748 -18.97378 2.096351 58
47.28331 -52.17433 5.723858 22
75.21383 -47.00507 10.88537 11
70.31268 -77.61725 19.08206 5
nan nan nan 0
30.57284 -18.84452 0.206624 59
25.45727 -19.20664 0 10
42.14264 -38.30409 -0.2979787 11
25.81474 -28.17366 -0.446397 21
30.6167 -18.84949 1.05964 56
30.61436 -23.03013 0.8885092 31
nan nan nan 0
nan nan nan 0
nan nan nan 0
nan nan nan 0
8.743082 -5.399995 -1.422276 16
12.45221 -7.838588 -1.389718 13
17.52548 -10.94465 -1.322762 10
14.55165 -11.03146 -1.274102 9
12.29019 -11.25131 -1.255698 9
10.30374 -11.31535 -1.246896 9
24.66627 -15.17544 -1.176758 40
nan nan nan 0
16.45518 -14.9235 -1.16212 9
13.41111 -14.58165 -1.150408 12
30.60948 -18.98515 -0.6280248 15
25.29473 -19.12561 -0.7353179 16
23.10131 -21.06973 -0.9104233 10
18.93435 -20.70589 -0.9686272 10
5.206213 -5.646003 -1.385732 15
8.005361 -8.811143 -1.335081 14
49.72345 -54.65635 2.966141 34
30.67616 -19.12298 2.100998 50
47.22757 -52.47984 5.739262 13
75.07868 -47.28584 10.88963 11
nan nan nan 0
nan nan nan 0
30.57908 -18.99597 0.2071136 59
25.26666 -19.20161 0 20
41.97548 -38.42058 -0.2977431 11
25.78688 -28.34127 -0.4476249 39
30.62292 -19.00104 1.062147 54
nan nan nan 0
nan nan nan 0
nan nan nan 0
nan nan nan 0
nan nan nan 0
8.719975 -5.427866 -1.421588 15
12.40375 -7.868682 -1.387361 12
17.46183 -10.98982 -1.320842 10
14.50909 -11.07916 -1.273753 9
12.24718 -11.29076 -1.255321 9
10.25416 -11.34015 -1.245675 9
24.63438 -15.27461 -1.177774 29
nan nan nan 0
16.36244 -14.94381 -1.159241 8
13.35003 -14.61731 -1.149537 9
30.6151 -19.13692 -0.6295083 13
25.11249 -19.12597 -0.7319524 18
23.02394 -21.14686 -0.9102775 9
18.8418 -20.74966 -0.9675907 9
5.183153 -5.660511 -1.38484 15
7.971229 -8.835343 -1.334522 14
49.67636 -54.98901 2.974769 21
30.67686 -19.27242 2.105645 52
47.11714 -52.72614 5.748179 17
74.99697 -47.60081 10.90182 8
nan nan nan 0
nan nan nan 0
30.58463 -19.14768 0.2076031 52
25.41388 -19.45379 0 17
41.8889 -38.61092 -0.2980834 10
25.6811 -28.42369 -0.4475079 26
30.62845 -19.15285 1.064654 59
25.45796 -19.43132 0.7426293 12
69.58569 -63.89541 1.61533 9
nan nan nan 0
nan nan nan 0
nan nan nan 0
8.696777 -5.455642 -1.4209 14
12.35943 -7.901212 -1.385475 14
17.39808 -11.03468 -1.318922 11
14.46242 -11.12366 -1.273056 10
12.21135 -11.33684 -1.255698 9
10.20453 -11.36475 -1.244454 9
24.55548 -15.34463 -1.176555 29
nan nan nan 0
16.28078 -14.97379 -1.157148 9
13.27211 -14.63424 -1.147213 10
30.62426 -19.29161 -0.631079 13
24.98608 -19.16788 -0.7302116 23
22.88027 -21.16262 -0.907509 9
18.74918 -20.79303 -0.9665541 9
5.163362 -5.678569 -1.38484 16
7.933712 -8.85571 -1.333404 14
49.50413 -55.18439 2.975973 16
30.67688 -19.42209 2.110291 52
46.8402 -52.7859 5.73683 15
74.83036 -47.86231 10.90182 7
nan nan nan 0
nan nan nan 0
30.58951 -19.29967 0.2080927 56
25.43294 -19.60955 0 12
