# .PCD v0.7 - Point Cloud Data file format
VERSION 0.7
FIELDS x y z intensity
SIZE 4 4 4 4
TYPE F F F F
COUNT 1 1 1 1
WIDTH 1458
HEIGHT 1
VIEWPOINT 0 0 0 1 0 0 0
POINTS 1458
DATA ascii
-1.766818 -2.229133 -0.0328001 35
-0.9427005 -2.248948 0.07078028 54
-1.189506 -2.237746 0.05791093 44
-1.458762 -2.235734 0.04498192 44
-1.768831 -2.240286 0.03439086 43
nan nan nan 0
-0.1740782 -0.4105673 -0.1061528 43
-0.9422867 -2.241619 -0.3323461 53
-0.9702441 -2.253873 -0.228634 87
-0.9550354 -2.239567 -0.1536235 60
-1.202037 -2.241902 -0.1750887 47
-1.467077 -2.221784 -0.1981095 42
-1.762128 -2.208447 -0.2275596 28
-0.9453803 -2.257641 -0.09797846 144
-1.188173 -2.241802 -0.1164586 43
-1.46163 -2.235976 -0.1379052 77
-1.750857 -2.216883 -0.162062 15
-0.9522395 -2.251112 -0.04197304 92
-1.201953 -2.248109 -0.05825909 45
-1.471922 -2.23818 -0.07693718 46
-1.771336 -2.230032 -0.0970873 24
-1.733295 -2.198508 -0.5005768 28
-1.762813 -2.203711 -0.3130843 17
-1.770116 -2.217472 0.112369 55
-0.9714512 -2.282327 0.1420221 22
-1.808908 -2.241277 0.2310459 84
-0.8376859 -1.940996 0.2547069 9
-1.786123 -2.21236 0.5110545 43
-0.8522701 -1.958273 0.5616373 9
-0.9443055 -2.227665 0.01370774 50
-1.207769 -2.245758 0 43
-1.47094 -2.228153 -0.01377058 42
-1.780841 -2.230754 -0.03291703 36
-0.9524826 -2.250251 0.07092775 51
-1.199668 -2.237988 0.05802698 45
-1.469307 -2.234804 0.04506744 44
-1.779759 -2.238006 0.03445194 43
nan nan nan 0
-0.1773561 -0.4144288 -0.1074166 42
-0.9520303 -2.242879 -0.3330342 53
-0.9781057 -2.250472 -0.228634 85
-0.9628471 -2.23622 -0.1536235 60
-1.212224 -2.242081 -0.1754375 47
-1.480353 -2.224947 -0.1988628 43
-1.776085 -2.21004 -0.2283737 30
-0.9551904 -2.258933 -0.09818174 143
-1.198341 -2.242048 -0.1166915 43
-1.472176 -2.235028 -0.1381669 72
-1.764815 -2.218558 -0.1626429 16
-0.9620448 -2.252376 -0.0420603 92
-1.212162 -2.248302 -0.05837514 44
-1.48249 -2.237193 -0.07708289 46
-1.782238 -2.227732 -0.09726005 28
-1.744025 -2.196292 -0.5014691 31
-1.776744 -2.20527 -0.3142024 19
-1.784122 -2.219055 0.1127703 56
-0.9813728 -2.283512 0.1423125 16
-1.819872 -2.23881 0.2314513 84
-0.846427 -1.942615 0.2553163 9
-1.800056 -2.213732 0.5128476 50
-0.8571686 -1.95086 0.5603432 5
-0.9540327 -2.228956 0.01373654 53
-1.217981 -2.245925 0 44
-1.484253 -2.231327 -0.01382294 43
-1.791758 -2.228415 -0.0329755 39
-0.9603317 -2.246912 0.07092775 52
-1.209846 -2.238186 0.05814303 44
-1.479862 -2.233827 0.04515295 44
-1.793826 -2.239572 0.03457411 43
nan nan nan 0
-0.1788016 -0.4138072 -0.1074166 41
-0.9617943 -2.244098 -0.3337222 52
-0.9879457 -2.251606 -0.2291054 90
-0.9726264 -2.237426 -0.1539436 63
-1.220043 -2.237836 -0.1754375 47
-1.49089 -2.223905 -0.1992394 44
-1.790074 -2.211561 -0.2291879 33
-0.9630697 -2.255585 -0.09818174 144
-1.208527 -2.242249 -0.1169244 44
-1.482733 -2.234034 -0.1384286 70
-1.775677 -2.216274 -0.1629333 16
-0.9699013 -2.249004 -0.0420603 92
-1.220003 -2.244057 -0.05837514 44
-1.493068 -2.236159 -0.07722861 45
-1.796289 -2.229267 -0.09760556 22
-1.757841 -2.197863 -0.5032537 30
-1.790708 -2.206758 -0.3153206 19
-1.795008 -2.21669 0.112971 55
-0.9913145 -2.284656 0.142603 32
-1.834005 -2.240144 0.232262 83
-0.8452556 -1.921458 0.2528789 10
-1.817145 -2.218834 0.5155374 47
-0.8367092 -1.885982 0.5422259 4
-0.9637802 -2.230206 0.01376534 50
-1.225813 -2.24166 0 42
-1.494819 -2.230284 -0.01384912 42
-1.805833 -2.229906 -0.03309243 39
-0.9701386 -2.24814 0.0710752 49
-1.220041 -2.23834 0.05825909 45
-1.490429 -2.232804 0.04523847 43
-1.807925 -2.241068 0.03469628 43
nan nan nan 0
-0.180245 -0.4131805 -0.1074166 43
-0.9696218 -2.240727 -0.3337222 57
-0.9978057 -2.2527 -0.2295768 85
-0.9804306 -2.234017 -0.1539436 62
-1.230247 -2.237936 -0.1757863 47
-1.501438 -2.222817 -0.199616 43
-1.804096 -2.213012 -0.2300021 31
-0.9729046 -2.256802 -0.09838501 144
-1.216346 -2.238017 -0.1169244 43
-1.4933 -2.232994 -0.1386903 72
-1.786544 -2.213941 -0.1632238 16
-0.9797312 -2.250193 -0.04214756 90
-1.230229 -2.244169 -0.0584912 45
-1.50645 -2.239223 -0.07752004 45
-1.807216 -2.226857 -0.09777831 23
-1.771689 -2.199365 -0.5050383 32
-1.801552 -2.204336 -0.3158797 19
-1.809065 -2.218142 0.1133723 57
-0.9992835 -2.281182 0.142603 29
-1.848169 -2.241405 0.2330727 80
-0.8519576 -1.918496 0.2528789 7
-1.831154 -2.220054 0.5173306 51
-0.8138446 -1.816858 0.5228145 4
-0.9735482 -2.231416 0.01379413 52
-1.236042 -2.241748 0 44
-1.505396 -2.229195 -0.0138753 43
-1.81994 -2.231325 -0.03320937 39
-0.9779801 -2.244739 0.0710752 51
-1.227847 -2.234068 0.05825909 45
-1.501007 -2.231735 0.04532399 44
-1.818897 -2.238618 0.03475737 41
nan nan nan 0
-0.1816862 -0.4125488 -0.1074166 37
-0.9794098 -2.241872 -0.3344103 51
-1.007685 -2.253751 -0.2300483 86
-0.9902339 -2.235147 -0.1542636 62
-1.240467 -2.237993 -0.1761351 47
-1.514804 -2.225802 -0.2003693 44
-1.81815 -2.214391 -0.2308162 28
-0.9807764 -2.253392 -0.09838501 143
-1.226548 -2.23814 -0.1171573 46
-1.503878 -2.231907 -0.138952 71
-1.800572 -2.215426 -0.1638046 16
-0.9895813 -2.25134 -0.04223482 93
-1.24047 -2.244238 -0.05860725 44
-1.517064 -2.238086 -0.07766575 45
-1.821318 -2.228261 -0.09812382 29
-1.782462 -2.196982 -0.5059306 32
-1.815566 -2.205694 -0.3169979 21
-1.819976 -2.215668 0.113573 57
-1.00724 -2.27768 0.142603 42
-1.859173 -2.238768 0.233478 79
-0.846538 -1.888308 0.2492228 3
-1.848344 -2.224981 0.5200203 46
-0.8201817 -1.814006 0.5228145 4
-0.9833362 -2.232584 0.01382293 53
-1.246286 -2.241791 0 43
-1.515984 -2.228058 -0.01390148 42
-1.830899 -2.228817 -0.03326784 34
-0.9878116 -2.245892 0.07122266 47
-1.238057 -2.234142 0.05837514 44
-1.511595 -2.230618 0.04540951 43
-1.833047 -2.239982 0.03487954 43
nan nan nan 0
-0.1831251 -0.4119121 -0.1074166 38
-0.9872295 -2.238439 -0.3344103 59
-1.015546 -2.25022 -0.2300483 90
-1.000057 -2.236237 -0.1545836 60
-1.250701 -2.238005 -0.1764839 46
-1.525387 -2.224611 -0.2007459 43
-1.832235 -2.2157 -0.2316304 29
-0.9906356 -2.254533 -0.09858829 144
-1.236766 -2.238218 -0.1173902 43
-1.517275 -2.234902 -0.1394753 67
-1.814632 -2.216841 -0.1643855 15
-0.9994514 -2.252446 -0.04232208 92
-1.250726 -2.244262 -0.05872331 44
-1.527689 -2.236902 -0.07781146 38
-1.835451 -2.229594 -0.09846932 30
-1.79636 -2.198354 -0.5077152 27
-1.829611 -2.206981 -0.318116 17
-1.834082 -2.216988 0.1139743 65
-1.015185 -2.27415 0.142603 48
-1.873386 -2.239898 0.2342887 78
-0.8226092 -1.817442 0.2400826 3
-1.862427 -2.226049 0.5218135 53
-0.8185344 -1.793536 0.5176381 5
-0.9931443 -2.233712 0.01385173 51
-1.256545 -2.241791 0 43
-1.529412 -2.230997 -0.01395384 43
-1.841862 -2.226258 -0.0333263 33
-0.9976627 -2.247002 0.07137012 51
-1.248283 -2.234172 0.0584912 44
-1.525015 -2.233582 0.04558054 43
-1.844042 -2.237422 0.03494062 43
nan nan nan 0
-0.1826383 -0.4068316 -0.1061528 40
-0.9970411 -2.239508 -0.3350984 51
-1.025449 -2.251196 -0.2305197 81
-1.0099 -2.237285 -0.1549037 65
-1.258506 -2.233625 -0.1764839 46
-1.53598 -2.223372 -0.2011226 43
-1.843154 -2.213114 -0.2320375 27
-1.000515 -2.255633 -0.09879155 143
-1.246998 -2.238252 -0.1176231 43
-1.527888 -2.233711 -0.139737 71
-1.828725 -2.218184 -0.1649664 17
-1.007308 -2.248944 -0.04232208 93
-1.260998 -2.244242 -0.05883936 44
-1.538324 -2.235672 -0.07795718 9
-1.846419 -2.227015 -0.09864208 30
-1.81029 -2.199656 -0.5094998 27
-1.843687 -2.208197 -0.3192342 22
-1.848221 -2.218237 0.1143756 60
-1.025157 -2.275148 0.1428934 49
-1.887629 -2.240955 0.2350994 76
-0.8125472 -1.778404 0.2352078 9
-1.87654 -2.227045 0.5236067 58
-0.8187631 -1.777492 0.5137558 7
-1.002972 -2.234797 0.01388053 51
-1.264363 -2.237391 0 44
-1.540034 -2.229757 -0.01398002 43
-1.856037 -2.227485 -0.03344323 32
-1.0055 -2.243506 0.07137012 50
-1.258524 -2.234158 0.05860725 45
-1.535638 -2.232362 0.04566605 43
-1.858241 -2.238654 0.03506279 42
nan nan nan 0
-0.1840573 -0.4061916 -0.1061528 37
-1.006872 -2.240536 -0.3357865 57
-1.033301 -2.247603 -0.2305197 85
-1.019762 -2.238291 -0.1552237 65
-1.268756 -2.233557 -0.1768326 46
-1.549434 -2.226177 -0.2018758 44
-1.857288 -2.214291 -0.2328516 27
-1.008382 -2.252126 -0.09879155 145
-1.257246 -2.238242 -0.1178561 43
-1.538512 -2.232474 -0.1399987 80
-1.842848 -2.219456 -0.1655472 17
-1.017201 -2.249974 -0.04240934 92
-1.268824 -2.239827 -0.05883936 44
-1.546118 -2.230288 -0.07795718 6
-1.860602 -2.228215 -0.09898759 26
-1.82425 -2.200887 -0.5112844 27
-1.854589 -2.205544 -0.3197932 20
-1.86239 -2.219414 0.1147769 62
-1.033093 -2.271556 0.1428934 69
-1.901903 -2.241941 0.23591 74
-0.7774323 -1.685311 0.2230209 6
-1.887493 -2.224225 0.5245032 59
-0.8209142 -1.765853 0.5111676 8
-1.01282 -2.235842 0.01390933 50
-1.274637 -2.23731 0 44
-1.553525 -2.232572 -0.01403238 43
-1.870244 -2.228641 -0.03356017 33
-1.015375 -2.244541 0.07151759 49
-1.26878 -2.2341 0.05872331 44
-1.546272 -2.231096 0.04575158 43
-1.872472 -2.239813 0.03518496 41
nan nan nan 0
-0.185474 -0.4055466 -0.1061528 37
-1.016723 -2.241523 -0.3364746 59
-1.043225 -2.248502 -0.2309911 89
-1.029644 -2.239256 -0.1555438 59
-1.27902 -2.233445 -0.1771814 46
-1.560061 -2.224835 -0.2022525 43
-1.868229 -2.211594 -0.2332587 31
-1.018284 -2.25315 -0.09899484 143
-1.269968 -2.242536 -0.1183219 44
-1.549146 -2.23119 -0.1402604 72
-1.860212 -2.22448 -0.1664185 15
-1.027114 -2.250962 -0.04249661 91
-1.279111 -2.239727 -0.05895542 44
-1.556759 -2.228973 -0.07810289 6
-1.874815 -2.229343 -0.09933309 28
-1.8414 -2.205819 -0.5139612 28
-1.868713 -2.206628 -0.3209114 19
-1.873358 -2.216709 0.1149776 60
-1.043088 -2.272477 0.1431838 58
-1.916206 -2.242854 0.2367207 77
-0.8207797 -1.763678 0.2339891 14
-1.901651 -2.225089 0.5262964 40
-0.8311524 -1.771733 0.5137558 10
-1.020618 -2.232293 0.01390933 54
-1.284926 -2.237185 0 44
-1.567055 -2.23532 -0.01408474 43
-1.88448 -2.229723 -0.0336771 34
-1.025269 -2.245533 0.07166504 48
-1.279052 -2.233998 0.05883936 45
-1.559779 -2.233879 0.04592261 44
-1.883506 -2.237082 0.03524605 42
nan nan nan 0
-0.1868885 -0.4048967 -0.1061528 38
-1.026592 -2.242468 -0.3371627 66
-1.051068 -2.244847 -0.2309911 85
-1.039545 -2.240179 -0.1558638 58
-1.2893 -2.233288 -0.1775302 47
-1.570697 -2.223447 -0.2026291 42
-1.882411 -2.212638 -0.2340729 28
-1.028206 -2.254132 -0.09919812 145
-1.280261 -2.242428 -0.1185548 44
-1.559789 -2.229858 -0.140522 68
-1.867965 -2.217973 -0.1664185 15
-1.037046 -2.251909 -0.04258387 92
-1.291903 -2.243916 -0.05918752 43
-1.567408 -2.227611 -0.07824861 5
-1.889059 -2.2304 -0.0996786 28
-1.855435 -2.206898 -0.5157458 31
-1.882867 -2.20764 -0.3220295 22
-1.887575 -2.217753 0.1153789 60
-1.053102 -2.273355 0.1434743 53
-1.927281 -2.239923 0.2371261 75
-0.7744976 -1.648358 0.2187555 7
-1.912623 -2.22216 0.527193 43
-0.85788 -1.812527 0.5266967 13
-1.030489 -2.233261 0.01393812 51
-1.29523 -2.237015 0 43
-1.577735 -2.233918 -0.01411092 44
-1.898747 -2.230734 -0.03379404 37
-1.035182 -2.246485 0.0718125 50
-1.286842 -2.229519 0.05883936 44
-1.570447 -2.232508 0.04600813 44
-1.897784 -2.238109 0.03536822 41
nan nan nan 0
-0.1883007 -0.4042419 -0.1061528 36
-1.034414 -2.238871 -0.3371627 61
-1.061014 -2.245669 -0.2314625 81
-1.047358 -2.236537 -0.1558638 62
-1.299593 -2.233087 -0.177879 47
-1.581343 -2.22201 -0.2030057 43
-1.896622 -2.21361 -0.2348871 27
-1.038147 -2.255072 -0.09940138 142
-1.290569 -2.242276 -0.1187877 44
-1.570443 -2.22848 -0.1407837 62
-1.878932 -2.21524 -0.166709 17
-1.044901 -2.248275 -0.04258387 91
-1.299728 -2.239393 -0.05918752 44
-1.578068 -2.226202 -0.07839432 5
-1.900083 -2.227588 -0.09985135 28
-1.872685 -2.211654 -0.5184227 36
-1.893806 -2.204817 -0.3225886 17
-1.901822 -2.218725 0.1157802 62
-1.063135 -2.274192 0.1437647 71
-1.94163 -2.240701 0.2379368 77
-0.7781337 -1.641154 0.2181461 9
-1.920368 -2.21547 0.527193 42
-0.8849025 -1.853157 0.5396377 15
-1.040378 -2.234188 0.01396692 50
-1.305548 -2.2368 0 44
-1.591326 -2.236542 -0.01416328 45
-1.913044 -2.231673 -0.03391097 39
-1.043018 -2.242858 0.0718125 51
-1.297127 -2.229336 0.05895542 45
-1.584016 -2.235167 0.04617916 44
-1.912092 -2.239063 0.03549039 43
nan nan nan 0
-0.1917114 -0.4079867 -0.1074166 37
-1.044305 -2.239739 -0.3378508 70
-1.07098 -2.246449 -0.2319339 86
-1.057281 -2.237383 -0.1561839 66
-1.309901 -2.23284 -0.1782278 46
-1.591997 -2.220526 -0.2033824 42
-1.910863 -2.21451 -0.2357012 30
-1.046013 -2.251434 -0.09940138 151
-1.300891 -2.242079 -0.1190206 43
-1.581105 -2.227054 -0.1410454 65
-1.889902 -2.212456 -0.1669994 17
-1.054855 -2.249145 -0.04267113 92
-1.310058 -2.239158 -0.05930357 43
-1.588736 -2.224745 -0.07854003 5
-1.914373 -2.228511 -0.1001969 23
-1.886792 -2.212579 -0.5202073 32
-1.908007 -2.205696 -0.3237068 18
-1.916098 -2.219624 0.1161815 64
-1.071067 -2.270467 0.1437647 70
-1.952723 -2.237659 0.2383421 74
-0.788115 -1.647394 0.2193648 12
-1.937816 -2.219851 0.5298828 44
-0.9038776 -1.876194 0.5474023 17
-1.048171 -2.230543 0.01396692 50
-1.31588 -2.23654 0 43
-1.602039 -2.235035 -0.01418946 44
-1.924097 -2.22876 -0.03396944 36
-1.052953 -2.243733 0.07195996 52
-1.307427 -2.229108 0.05907147 44
-1.594716 -2.23369 0.04626467 44
-1.923163 -2.23616 0.03555147 41
nan nan nan 0
-0.1931344 -0.407315 -0.1074166 35
-1.054216 -2.240566 -0.3385389 78
-1.078815 -2.242697 -0.2319339 84
-1.065084 -2.233679 -0.1561839 68
-1.317688 -2.228254 -0.1782278 47
-1.602661 -2.218996 -0.203759 42
-1.925134 -2.215337 -0.2365154 28
-1.055976 -2.252298 -0.09960467 146
-1.311228 -2.241838 -0.1192536 43
-1.591777 -2.22558 -0.1413071 62
-1.900875 -2.209624 -0.1672898 15
-1.064828 -2.249972 -0.04275839 91
-1.320403 -2.238879 -0.05941963 43
-1.596492 -2.219186 -0.07854003 5
-1.928693 -2.229361 -0.1005424 31
-1.900927 -2.213432 -0.5219919 30
-1.918965 -2.202762 -0.3242659 19
-1.933689 -2.224215 0.1167835 68
-1.081122 -2.271226 0.1440551 66
-1.967116 -2.238303 0.2391528 73
-0.8324586 -1.725193 0.230333 14
-1.952063 -2.220449 0.5316759 44
-0.9146221 -1.881725 0.5499905 22
-1.058082 -2.231393 0.01399572 52
-1.326227 -2.236236 0 44
-1.61569 -2.237533 -0.01424182 44
-1.93844 -2.229564 -0.03408638 39
-1.060779 -2.240044 0.07195996 52
-1.320282 -2.23314 0.05930357 46
-1.608346 -2.236224 0.04643571 42
-1.937517 -2.236979 0.03567364 42
nan nan nan 0
-0.194555 -0.4066384 -0.1074166 31
-1.06203 -2.236873 -0.3385389 75
-1.088801 -2.2434 -0.2324053 86
-1.075029 -2.234448 -0.1565039 64
-1.328009 -2.227927 -0.1785766 46
-1.616269 -2.221447 -0.2045123 42
-1.939433 -2.216091 -0.2373296 32
-1.065958 -2.253119 -0.09980793 149
-1.321579 -2.241552 -0.1194865 44
-1.605379 -2.228109 -0.1418304 58
-1.915128 -2.210508 -0.1678707 18
-1.07482 -2.250757 -0.04284566 92
-1.330761 -2.238555 -0.05953569 43
-1.607165 -2.217644 -0.07868575 7
-1.943043 -2.230138 -0.1008879 27
-1.911867 -2.210498 -0.5228841 32
-1.93321 -2.203508 -0.325384 17
-1.948037 -2.224957 0.1171848 61
-1.091194 -2.271943 0.1443456 60
-1.978227 -2.235148 0.2395581 76
-0.8903139 -1.829509 0.2449574 27
-1.966337 -2.220976 0.5334691 47
-0.9106067 -1.856813 0.54352 23
-1.068013 -2.232201 0.01402452 46
-1.336587 -2.235886 0 44
-1.626434 -2.235921 -0.014268 44
-1.949511 -2.226539 -0.03414484 41
-1.070736 -2.240841 0.07210742 50
-1.330624 -2.232814 0.05941963 45
-1.619078 -2.234643 0.04652123 43
-1.9519 -2.237726 0.03579581 42
nan nan nan 0
-0.1959732 -0.4059568 -0.1074166 31
-1.071962 -2.237623 -0.3392269 75
-1.098805 -2.244061 -0.2328767 85
-1.084991 -2.235176 -0.156824 61
-1.338343 -2.227555 -0.1789254 46
-1.626964 -2.219811 -0.2048889 42
-1.950459 -2.21304 -0.2377366 28
-1.073816 -2.249384 -0.09980793 147
-1.329395 -2.236925 -0.1194865 44
-1.616082 -2.226531 -0.1420921 65
-1.929409 -2.21132 -0.1684516 18
-1.08267 -2.246992 -0.04284566 89
-1.341133 -2.238186 -0.05965174 42
-1.614896 -2.212021 -0.07868575 7
-1.957421 -2.230842 -0.1012334 29
-1.926048 -2.211219 -0.5246688 30
-1.947484 -2.204181 -0.3265022 18
-1.962414 -2.225626 0.1175861 60
-1.101285 -2.272617 0.144636 67
-1.992664 -2.235657 0.2403688 74
-0.9162744 -1.866535 0.2504415 9
-1.977358 -2.217763 0.5343657 48
-0.9192136 -1.857958 0.5448141 23
-1.077962 -2.232967 0.01405331 53
-1.346961 -2.235492 0 43
-1.637187 -2.234261 -0.01429418 44
-1.963898 -2.227208 -0.03426177 36
-1.078552 -2.23709 0.07210742 49
-1.340981 -2.232443 0.05953569 45
-1.632768 -2.23705 0.04669226 45
-1.963006 -2.234649 0.0358569 42
nan nan nan 0
-0.1973891 -0.4052702 -0.1074166 32
-1.081911 -2.238331 -0.339915 78
-1.108827 -2.244679 -0.2333481 89
-1.094972 -2.23586 -0.157144 61
-1.348691 -2.227138 -0.1792741 45
-1.637667 -2.218127 -0.2052655 42
-1.964802 -2.21366 -0.2385508 29
-1.083819 -2.250128 -0.1000112 145
-1.339759 -2.236558 -0.1197194 44
-1.629744 -2.228934 -0.1426155 67
-1.94372 -2.212059 -0.1690324 23
-1.092683 -2.2477 -0.04293292 89
-1.351519 -2.237771 -0.05976779 43
-1.625571 -2.210394 -0.07883146 7
-1.971827 -2.231472 -0.1015789 29
-1.943507 -2.21556 -0.5273457 32
-1.961786 -2.204781 -0.3276203 18
-1.976819 -2.226221 0.1179875 64
-1.111394 -2.273247 0.1449264 73
-2.007127 -2.236093 0.2411795 69
-0.918402 -1.854419 0.2492228 11
-1.991674 -2.218155 0.5361589 49
-0.9321311 -1.867718 0.5486963 19
-1.08575 -2.229191 0.01405331 53
-1.357348 -2.235051 0 43
-1.647948 -2.232553 -0.01432036 43
-1.974987 -2.224072 -0.03432024 35
-1.08853 -2.237811 0.07225488 47
-1.351351 -2.232026 0.05965174 45
-1.643531 -2.235363 0.04677778 44
-1.977433 -2.235261 0.03597907 42
nan nan nan 0
-0.1988026 -0.4045787 -0.1074166 31
-1.089718 -2.234541 -0.339915 67
-1.118866 -2.245255 -0.2338195 85
-1.10497 -2.236503 -0.1574641 64
-1.356458 -2.222417 -0.1792741 47
-1.651356 -2.220394 -0.2060188 43
-1.975845 -2.210497 -0.2389579 33
-1.093841 -2.250829 -0.1002145 148
-1.350136 -2.236145 -0.1199523 43
-1.643442 -2.231268 -0.1431388 65
-1.958059 -2.212725 -0.1696133 20
-1.102713 -2.248365 -0.04302018 89
-1.361918 -2.237312 -0.05988385 43
-1.639232 -2.212734 -0.07912289 8
-1.986262 -2.23203 -0.1019244 30
-1.964284 -2.223488 -0.5309148 24
-1.976115 -2.205308 -0.3287385 20
-1.987916 -2.223025 0.1181881 61
-1.121521 -2.273836 0.1452169 67
-2.021618 -2.236454 0.2419902 69
-0.9270762 -1.855647 0.2498321 4
-1.999405 -2.21119 0.5361589 41
-0.945128 -1.87741 0.5525786 8
-1.095719 -2.229879 0.01408211 53
-1.367749 -2.234566 0 44
-1.658717 -2.230798 -0.01434654 44
-1.989418 -2.224606 -0.03443718 38
-1.096335 -2.233998 0.07225488 51
-1.361735 -2.231565 0.05976779 45
-1.654302 -2.233628 0.0468633 44
-1.991888 -2.235799 0.03610124 41
nan nan nan 0
-0.2002136 -0.4038823 -0.1074166 26
-1.099687 -2.235172 -0.3406031 72
-1.128923 -2.245788 -0.2342909 80
-1.114987 -2.237103 -0.1577841 63
-1.366818 -2.221919 -0.1796229 45
-1.662089 -2.218604 -0.2063954 42
-1.990231 -2.210982 -0.2397721 34
-1.10388 -2.251488 -0.1004178 149
-1.360527 -2.235687 -0.1201852 43
-1.657175 -2.233534 -0.1436622 72
-1.969098 -2.209597 -0.1699037 24
-1.110555 -2.244502 -0.04302018 89
-1.372331 -2.236806 -0.0599999 43
-1.65293 -2.215006 -0.07941432 7
-2.000725 -2.232513 -0.1022699 30
-1.98514 -2.231297 -0.534484 6
-1.990473 -2.205762 -0.3298567 21
-2.002363 -2.223485 0.1185894 62
-1.131665 -2.274381 0.1455073 71
-2.036136 -2.236742 0.2428009 64
-0.9335479 -1.8524 0.2498321 4
-2.013749 -2.211458 0.5379521 44
nan nan nan 0
-1.105707 -2.230526 0.01411091 56
-1.378163 -2.234036 0 43
-1.672494 -2.232994 -0.0143989 43
-2.003876 -2.225066 -0.03455411 36
-1.106334 -2.234641 0.07240234 50
-1.372132 -2.231057 0.05988385 45
-1.668072 -2.23585 0.04703433 44
-2.006371 -2.236263 0.03622341 39
nan nan nan 0
-0.2016222 -0.403181 -0.1074166 26
-1.109675 -2.235761 -0.3412912 69
-1.138998 -2.246278 -0.2347624 90
-1.125021 -2.23766 -0.1581042 65
-1.377191 -2.221375 -0.1799717 45
-1.675835 -2.220744 -0.2071487 43
-2.004645 -2.211393 -0.2405862 31
-1.116142 -2.256587 -0.1008243 149
-1.370931 -2.235184 -0.1204182 45
-1.667954 -2.231733 -0.1439239 68
-1.983481 -2.210128 -0.1704846 20
-1.120606 -2.24509 -0.04310744 89
-1.382756 -2.236256 -0.06011595 43
-1.666663 -2.217209 -0.07970575 7
-2.015214 -2.232923 -0.1026154 30
-2.009364 -2.242646 -0.5389455 5
-2.004857 -2.206142 -0.3309748 20
-2.016839 -2.223871 0.1189908 60
-1.141827 -2.274883 0.1457977 71
-2.05068 -2.236955 0.2436116 71
nan nan nan 0
-2.03145 -2.215272 0.5406418 49
-0.9625939 -1.879374 0.5551668 3
-1.115712 -2.231129 0.01413971 52
-1.38859 -2.233459 0 43
-1.683292 -2.231132 -0.01442508 44
-2.021727 -2.22915 -0.03472951 39
-1.11635 -2.235242 0.0725498 50
-1.382542 -2.230505 0.0599999 45
-1.678872 -2.234008 0.04711984 44
-2.020882 -2.236654 0.03634558 41
nan nan nan 0
-0.2009054 -0.3981278 -0.1061528 24
-1.11968 -2.236307 -0.3419793 67
-1.149089 -2.246725 -0.2352338 83
-1.135072 -2.238174 -0.1584242 64
-1.387576 -2.220786 -0.1803205 46
-1.686597 -2.218848 -0.2075253 42
-2.019085 -2.21173 -0.2414004 32
-1.126233 -2.257152 -0.1010276 149
-1.381348 -2.234635 -0.1206511 43
-1.681745 -2.233872 -0.1444472 69
-1.994537 -2.206888 -0.170775 19
-1.130674 -2.245635 -0.0431947 88
-1.393194 -2.23566 -0.06023201 43
-1.677412 -2.21536 -0.07985147 6
-2.029732 -2.233258 -0.1029609 30
-2.020482 -2.239265 -0.5398377 5
-2.019268 -2.206449 -0.332093 17
-2.031341 -2.224183 0.1193921 60
-1.152006 -2.275341 0.1460882 62
-2.06525 -2.237094 0.2444223 70
-1.313702 -2.566595 0.3491557 49
-2.049203 -2.21899 0.5433316 40
nan nan nan 0
-1.125736 -2.23169 0.01416851 52
-1.399029 -2.232837 0 44
-1.694098 -2.229221 -0.01445126 43
-2.036253 -2.22945 -0.03484645 37
-1.126385 -2.2358 0.07269725 57
-1.392964 -2.229906 0.06011595 45
-1.6927 -2.236103 0.04729088 43
-2.035419 -2.23697 0.03646775 40
nan nan nan 0
-0.2022939 -0.3974241 -0.1061528 23
-1.127479 -2.232385 -0.3419793 61
-1.159198 -2.247128 -0.2357052 86
-1.142878 -2.234198 -0.1584242 67
-1.40063 -2.224374 -0.181018 46
-1.700399 -2.22086 -0.2082786 43
-2.030173 -2.208331 -0.2418075 31
-1.136341 -2.257675 -0.1012309 150
-1.391778 -2.234041 -0.120884 43
-1.695571 -2.235941 -0.1449706 76
-2.008961 -2.207283 -0.1713559 23
-1.14076 -2.246137 -0.04328196 90
-1.403645 -2.235018 -0.06034806 43
-1.691202 -2.217435 -0.0801429 7
-2.044276 -2.23352 -0.1033064 33
-2.024971 -2.228563 -0.5389455 6
-2.033705 -2.206682 -0.3332111 18
-2.042481 -2.22075 0.1195927 60
-1.162202 -2.275756 0.1463786 62
-2.079847 -2.237158 0.245233 69
-1.345337 -2.606133 0.3552491 52
-2.067006 -2.222611 0.5460213 46
nan nan nan 0
-1.135776 -2.232208 0.0141973 52
-1.409482 -2.23217 0 43
-1.707952 -2.231231 -0.01450362 43
-2.050805 -2.229676 -0.03496338 34
-1.134182 -2.231854 0.07269725 52
-1.4034 -2.229263 0.06023201 45
-1.703529 -2.234154 0.0473764 43
-2.049984 -2.237212 0.03658992 40
nan nan nan 0
-0.2036799 -0.3967155 -0.1061528 21
-1.137503 -2.232853 -0.3426674 65
-1.169323 -2.247489 -0.2361766 87
-1.152948 -2.234634 -0.1587443 68
-1.411055 -2.223684 -0.1813668 45
-1.714236 -2.222803 -0.2090319 42
-2.044654 -2.208532 -0.2426216 32
-1.146467 -2.258154 -0.1014341 148
-1.40222 -2.233401 -0.1211169 43
-1.706399 -2.233975 -0.1452323 73
-2.026792 -2.211278 -0.1722272 20
-1.150863 -2.246595 -0.04336923 91
-1.416779 -2.238556 -0.06058017 43
-1.701979 -2.21548 -0.0802886 7
-2.062239 -2.237375 -0.1038247 35
-2.036066 -2.225105 -0.5398377 6
-2.048169 -2.206841 -0.3343293 18
-2.057024 -2.220925 0.1199941 62
-1.170139 -2.271686 0.1463786 63
-2.094469 -2.237148 0.2460436 66
-1.358994 -2.610233 0.3564678 78
-2.084859 -2.226134 0.5487111 48
nan nan nan 0
-1.145834 -2.232684 0.0142261 51
-1.419946 -2.231457 0 43
-1.718786 -2.229213 -0.0145298 43
-2.065384 -2.229828 -0.03508032 41
-1.144236 -2.232334 0.07284471 50
-1.413847 -2.228573 0.06034806 45
-1.714365 -2.232157 0.04746191 43
-2.064574 -2.237379 0.03671209 39
nan nan nan 0
-0.2028951 -0.3916776 -0.1048891 17
-1.14529 -2.228869 -0.3426674 64
-1.179465 -2.247806 -0.236648 85
-1.163036 -2.235027 -0.1590643 66
-1.421493 -2.222949 -0.1817156 45
-1.725046 -2.220741 -0.2094085 44
-2.059161 -2.208659 -0.2434358 29
-1.154342 -2.254138 -0.1014341 148
-1.412675 -2.232715 -0.1213498 42
-1.720281 -2.235916 -0.1457556 68
-2.041282 -2.211514 -0.1728081 19
-1.160983 -2.247011 -0.04345649 86
-1.427269 -2.237813 -0.06069623 44
-1.715824 -2.217427 -0.08058003 7
-2.076849 -2.237476 -0.1041702 32
-2.04382 -2.217984 -0.5398377 7
-2.062659 -2.206925 -0.3354475 22
-2.071592 -2.221026 0.1203954 54
-1.180353 -2.272021 0.146669 57
-2.109116 -2.237063 0.2468543 68
-1.365798 -2.601075 0.3558584 87
-2.09938 -2.225988 0.5505043 49
-1.387164 -2.62207 0.7842217 80
-1.155909 -2.233116 0.0142549 55
-1.430423 -2.230697 0 43
-1.732695 -2.231093 -0.01458216 42
-2.079988 -2.229904 -0.03519725 37
-1.154306 -2.232771 0.07299217 50
-1.424307 -2.227838 0.06046412 45
-1.728268 -2.234064 0.04763295 42
-2.079191 -2.237472 0.03683425 38
nan nan nan 0
-0.2042611 -0.390967 -0.1048891 16
-1.155333 -2.229259 -0.3433554 60
-1.189623 -2.248079 -0.2371194 88
-1.173139 -2.235378 -0.1593844 67
-1.434642 -2.226363 -0.1824132 45
-1.738937 -2.222555 -0.2101618 43
-2.073693 -2.208711 -0.24425 29
-1.164486 -2.254539 -0.1016374 147
-1.423142 -2.231984 -0.1215827 42
-1.731137 -2.233842 -0.1460173 73
-2.055799 -2.211675 -0.1733889 20
-1.17112 -2.247383 -0.04354375 88
-1.437772 -2.237024 -0.06081228 44
-1.729704 -2.219304 -0.08087146 8
-2.094903 -2.241146 -0.1046884 31
-2.054903 -2.214437 -0.5407301 5
-2.077174 -2.206935 -0.3365656 17
-2.086186 -2.221052 0.1207967 58
-1.190584 -2.272314 0.1469595 71
-2.127226 -2.24051 0.2480704 64
-1.372554 -2.591902 0.3552491 96
-2.113926 -2.225767 0.5522974 50
-1.405372 -2.634272 0.7893981 90
-1.163697 -2.229067 0.0142549 51
-1.443622 -2.234093 0 43
-1.746639 -2.232904 -0.01463452 43
-2.094619 -2.229906 -0.03531419 35
-1.164394 -2.233165 0.07313964 52
-1.437484 -2.231261 0.06069623 45
-1.739131 -2.231959 0.04771847 42
-2.093834 -2.237489 0.03695643 40
nan nan nan 0
-0.2056245 -0.3902516 -0.1048891 16
-1.163107 -2.225213 -0.3433554 64
-1.199798 -2.24831 -0.2375908 82
-1.180935 -2.231269 -0.1593844 63
-1.445118 -2.225526 -0.182762 44
-1.749774 -2.220385 -0.2105384 41
-2.088251 -2.208689 -0.2450641 32
-1.172349 -2.25046 -0.1016374 150
-1.433621 -2.231206 -0.1218157 42
-1.741999 -2.23172 -0.146279 73
-2.070342 -2.211761 -0.1739698 24
-1.181274 -2.247712 -0.04363101 90
-1.448286 -2.236189 -0.06092833 43
-1.743618 -2.221111 -0.08116289 7
-2.109576 -2.241085 -0.1050339 30
-2.065985 -2.210839 -0.5416223 6
-2.088289 -2.203271 -0.3371247 24
-2.104245 -2.224626 0.1213987 61
-1.198509 -2.268144 0.1469595 73
-2.141935 -2.240263 0.248881 63
-1.381593 -2.587095 0.3552491 85
-2.128495 -2.225471 0.5540906 47
-1.409997 -2.620836 0.7868099 91
-1.173791 -2.229421 0.0142837 49
-1.454137 -2.233232 0 42
-1.757519 -2.230719 -0.0146607 42
-2.112716 -2.233459 -0.03548959 41
-1.174498 -2.233516 0.07328709 54
-1.447982 -2.230424 0.06081228 44
-1.753089 -2.233737 0.0478895 43
-2.108502 -2.237432 0.0370786 39
nan nan nan 0
-0.2069855 -0.3895315 -0.1048891 14
-1.173167 -2.225525 -0.3440436 61
-1.209989 -2.248496 -0.2380622 88
-1.191057 -2.23154 -0.1597044 68
-1.455606 -2.224644 -0.1831107 46
-1.763718 -2.22207 -0.2112917 42
-2.106277 -2.212194 -0.2462854 29
-1.182511 -2.250782 -0.1018407 149
-1.446824 -2.234578 -0.1222815 43
-1.755955 -2.233472 -0.1468024 70
-2.084911 -2.211774 -0.1745507 20
-1.191445 -2.247997 -0.04371827 88
-1.461541 -2.239496 -0.06116044 44
-1.760668 -2.226766 -0.08160004 6
-2.124274 -2.240948 -0.1053795 32
-2.080446 -2.210768 -0.5434069 7
-2.102842 -2.203144 -0.3382428 27
-2.118902 -2.22449 0.1218 61
-1.208756 -2.268357 0.1472499 74
-2.156668 -2.23994 0.2496917 65
-1.38827 -2.577883 0.3546398 87
-2.143088 -2.225101 0.5558838 49
-1.426024 -2.628645 0.7906922 84
-1.183901 -2.229731 0.01431249 52
-1.467404 -2.236508 0 44
-1.771516 -2.2324 -0.01471306 42
-2.127409 -2.233299 -0.03560652 41
-1.184619 -2.233823 0.07343455 51
-1.458492 -2.229541 0.06092833 45
-1.767081 -2.235444 0.04806053 43
-2.123195 -2.2373 0.03720077 38
nan nan nan 0
-0.2061154 -0.3845128 -0.1036254 14
-1.183244 -2.225795 -0.3447316 63
-1.220195 -2.248638 -0.2385336 86
-1.198839 -2.227369 -0.1597044 67
-1.466106 -2.223715 -0.1834595 45
-1.777696 -2.223684 -0.212045 43
-2.120897 -2.21201 -0.2470995 29
-1.19269 -2.25106 -0.102044 147
-1.457341 -2.233699 -0.1225144 42
-1.766843 -2.231242 -0.147064 65
-2.096061 -2.208097 -0.1748411 25
-1.201631 -2.248238 -0.04380554 88
-1.472093 -2.238559 -0.06127649 45
-1.774662 -2.228422 -0.08189147 9
-2.135541 -2.237128 -0.1055522 30
-2.09493 -2.210622 -0.5451915 8
-2.117419 -2.202942 -0.339361 19
-2.133584 -2.224279 0.1222013 55
-1.21902 -2.268526 0.1475403 65
-2.171425 -2.239541 0.2505024 65
-1.39726 -2.573021 0.3546398 92
-2.154274 -2.221131 0.5567804 42
-1.435191 -2.623652 0.7906922 64
-1.194027 -2.229998 0.01434129 59
-1.477956 -2.235545 0 43
-1.782422 -2.230106 -0.01473924 42
-2.138659 -2.229461 -0.03566499 37
-1.197104 -2.2385 0.07372947 52
-1.471762 -2.232787 0.06116044 45
-1.777989 -2.233171 0.04814605 42
-2.137912 -2.237092 0.03732293 38
nan nan nan 0
-0.2074564 -0.383791 -0.1036254 12
-1.193337 -2.226021 -0.3454197 65
-1.230417 -2.248737 -0.239005 88
-1.208978 -2.227561 -0.1600245 67
-1.476617 -2.22274 -0.1838083 46
-1.788577 -2.221347 -0.2124216 43
-2.139009 -2.21533 -0.2483208 30
-1.202885 -2.251295 -0.1022472 148
-1.46787 -2.232774 -0.1227473 44
-1.780852 -2.232864 -0.1475874 55
-2.110667 -2.207971 -0.175422 20
-1.211834 -2.248436 -0.0438928 88
-1.482657 -2.237576 -0.06139255 43
-1.791818 -2.233904 -0.08232861 18
-2.150275 -2.236853 -0.1058977 30
-2.10944 -2.210402 -0.5469761 9
-2.13202 -2.202666 -0.3404791 20
-2.151767 -2.227579 0.1228033 56
-1.226932 -2.264257 0.1475403 72
-2.186205 -2.239066 0.2513131 63
-1.406233 -2.568128 0.3546398 89
-2.1689 -2.220623 0.5585735 49
-1.448991 -2.627092 0.7932803 55
-1.20417 -2.230222 0.01437009 54
-1.491289 -2.238698 0 43
-1.796471 -2.231657 -0.0147916 43
-2.153388 -2.229162 -0.03578192 41
-1.207273 -2.238711 0.07387692 49
-1.482309 -2.231802 0.06127649 44
-1.792034 -2.234747 0.04831709 42
-2.156127 -2.240405 0.03750619 39
nan nan nan 0
-0.2087948 -0.3830645 -0.1036254 13
-1.203445 -2.226204 -0.3461078 63
-1.240655 -2.248792 -0.2394765 89
-1.219132 -2.227709 -0.1603445 67
-1.487138 -2.221719 -0.1841571 45
-1.799463 -2.21896 -0.2127982 42
-2.157171 -2.218549 -0.249542 29
-1.210736 -2.247082 -0.1022472 147
-1.47841 -2.231802 -0.1229802 43
-1.791765 -2.230525 -0.1478491 68
-2.125298 -2.20777 -0.1760028 22
-1.222053 -2.24859 -0.04398006 88
-1.493231 -2.236546 -0.0615086 44
-1.805892 -2.235407 -0.08262004 43
-2.165034 -2.236502 -0.1062432 30
-2.123973 -2.210109 -0.5487607 8
-2.146645 -2.202314 -0.3415973 22
-2.16651 -2.227204 0.1232046 61
-1.237212 -2.264345 0.1478308 65
-2.201009 -2.238516 0.2521238 60
-1.41758 -2.567553 0.3552491 91
-2.18355 -2.22004 0.5603667 46
-1.460492 -2.626243 0.7945744 42
-1.214328 -2.230401 0.01439889 53
-1.501878 -2.237633 0 44
-1.810553 -2.233136 -0.01484396 42
-2.171634 -2.232364 -0.03595733 39
-1.217458 -2.238879 0.07402439 50
-1.492868 -2.230771 0.06139255 44
-1.80611 -2.236253 0.04848812 42
-2.170906 -2.240033 0.03762836 41
nan nan nan 0
-0.2078573 -0.3780631 -0.1023617 11
-1.21357 -2.226343 -0.3467959 64
-1.248497 -2.244447 -0.2394765 86
-1.229303 -2.227814 -0.1606646 66
-1.497671 -2.220652 -0.1845059 46
-1.813511 -2.220384 -0.2135515 41
-2.171888 -2.218115 -0.2503562 30
-1.220948 -2.247237 -0.1024505 150
-1.491731 -2.23494 -0.1234461 45
-1.805826 -2.232017 -0.1483724 63
-2.139953 -2.207494 -0.1765837 22
-1.229895 -2.24431 -0.04398006 89
-1.506603 -2.239618 -0.06174071 45
-1.819997 -2.236839 -0.08291147 43
-2.179816 -2.236075 -0.1065887 28
-2.141957 -2.213269 -0.5514376 8
-2.16478 -2.205426 -0.3432746 18
-2.184778 -2.230316 0.1238066 62
-1.245108 -2.260013 0.1478308 76
-2.215835 -2.237889 0.2529345 60
-1.426534 -2.562589 0.3552491 90
-2.198222 -2.219382 0.5621599 40
-1.47436 -2.629562 0.7971627 47
-1.224503 -2.230537 0.01442768 52
-1.512478 -2.23652 0 43
-1.824667 -2.234544 -0.01489632 44
-2.186423 -2.231901 -0.03607426 37
-1.227659 -2.239003 0.07417184 56
-1.503437 -2.229692 0.0615086 44
-1.817062 -2.233812 0.04857363 42
-2.185708 -2.239586 0.03775053 40
nan nan nan 0
-0.2068874 -0.373073 -0.1010979 10
-1.22371 -2.226438 -0.347484 64
-1.258751 -2.244422 -0.2399479 84
-1.239488 -2.227875 -0.1609846 67
-1.508214 -2.219537 -0.1848546 47
-1.82759 -2.221737 -0.2143048 42
-2.190133 -2.221146 -0.2515775 29
-1.231176 -2.247348 -0.1026538 149
-1.502308 -2.233866 -0.123679 44
-1.816763 -2.229568 -0.1486341 53
-2.154631 -2.207142 -0.1771646 18
-1.24013 -2.244384 -0.04406732 91
-1.517214 -2.238486 -0.06185677 44
-1.834135 -2.2382 -0.0832029 43
-2.191115 -2.232012 -0.1067615 28
-2.163428 -2.219849 -0.5550067 5
-2.179463 -2.204911 -0.3443927 21
-2.199579 -2.229778 0.1242079 58
-1.255405 -2.260022 0.1481212 64
-2.230683 -2.237186 0.2537452 62
-1.43547 -2.557594 0.3552491 95
-2.212916 -2.218648 0.5639531 39
-1.490638 -2.637025 0.8010449 41
-1.234693 -2.230629 0.01445648 51
-1.523088 -2.235361 0 43
-1.838812 -2.23588 -0.01494868 43
-2.201235 -2.231362 -0.0361912 39
-1.237875 -2.239084 0.0743193 48
-1.516823 -2.232704 0.06174071 44
-1.83119 -2.235186 0.04874467 44
-2.197023 -2.235503 0.03781162 40
nan nan nan 0
-0.2081884 -0.3723485 -0.1010979 10
-1.231474 -2.222153 -0.347484 63
-1.269019 -2.244352 -0.2404193 87
-1.24969 -2.227891 -0.1613047 63
-1.518767 -2.218377 -0.1852034 46
-1.838518 -2.219181 -0.2146814 42
-2.204908 -2.220548 -0.2523916 25
-1.239013 -2.243037 -0.1026538 152
-1.515694 -2.236882 -0.1241448 44
-1.827704 -2.227071 -0.1488958 56
-2.169333 -2.206714 -0.1777454 20
-1.25038 -2.244414 -0.04415458 90
-1.53065 -2.241436 -0.06208887 44
-1.84512 -2.235636 -0.08334861 42
-2.205931 -2.231445 -0.107107 31
-2.789065 -2.839749 -0.7147274 17
-2.197681 -2.207835 -0.34607 18
-2.214404 -2.229162 0.1246092 64
-1.265716 -2.259986 0.1484116 68
-2.249091 -2.239917 0.2549612 66
-1.444389 -2.552567 0.3552491 94
-2.227631 -2.217838 0.5657462 48
-1.499834 -2.631806 0.8010449 20
-1.244899 -2.230677 0.01448528 53
-1.533709 -2.234155 0 43
-1.849798 -2.233297 -0.01497486 43
-2.219599 -2.234287 -0.0363666 40
-1.245683 -2.234749 0.0743193 58
-1.527428 -2.231523 0.06185677 43
-1.845349 -2.236489 0.0489157 43
-2.211858 -2.234915 0.03793379 40
nan nan nan 0
-0.2071689 -0.3673734 -0.09983423 9
-1.241629 -2.22217 -0.3481721 69
-1.279302 -2.244238 -0.2408907 89
-1.259906 -2.227864 -0.1616247 62
-1.529331 -2.217169 -0.1855522 46
-1.852647 -2.220402 -0.2154347 41
-2.223236 -2.223391 -0.2536129 27
-1.249256 -2.243069 -0.1028571 149
-1.526305 -2.235704 -0.1243777 45
-1.841834 -2.228371 -0.1494192 53
-2.187577 -2.209752 -0.1786168 18
-1.260646 -2.2444 -0.04424185 90
-1.541296 -2.240199 -0.06220492 44
-1.859307 -2.236865 -0.08364004 43
-2.217239 -2.227267 -0.1072797 27
-2.812817 -2.843969 -0.7182965 7
-2.212422 -2.207156 -0.3471881 22
-2.22925 -2.228471 0.1250105 60
-1.276042 -2.259906 0.1487021 69
-2.263995 -2.239048 0.2557719 63
-1.453291 -2.54751 0.3552491 96
-2.245872 -2.220405 0.568436 40
-2.463709 -4.2949 1.316095 26
-1.255121 -2.23068 0.01451408 50
-1.547181 -2.237016 0 43
-1.863992 -2.234501 -0.01502722 43
-2.234469 -2.233582 -0.03648353 39
-1.255916 -2.234749 0.07446676 53
-1.538043 -2.230294 0.06197282 44
-1.859539 -2.23772 0.04908673 42
-2.226717 -2.234251 0.03805596 40
nan nan nan 0
-0.20845 -0.366648 -0.09983423 9
-1.2518 -2.222142 -0.3488601 60
-1.289599 -2.24408 -0.2413621 83
-1.270137 -2.227792 -0.1619448 67
-1.542749 -2.220013 -0.1862498 46
-1.863596 -2.217736 -0.2158113 41
-2.238068 -2.222627 -0.254427 26
-1.259515 -2.243055 -0.1030603 151
-1.539755 -2.238597 -0.1248436 44
-1.852798 -2.225764 -0.1496808 52
-2.205867 -2.212689 -0.179488 18
-1.270927 -2.244341 -0.04432911 88
-1.554796 -2.243026 -0.06243704 44
-1.873525 -2.238022 -0.08393147 43
-2.232088 -2.226559 -0.1076252 23
-2.815775 -2.82717 -0.7165119 11
-2.230721 -2.209892 -0.3488653 17
-2.244119 -2.227703 0.1254119 55
-1.286383 -2.259781 0.1489925 67
-2.282483 -2.241589 0.2569879 60
-1.462174 -2.542421 0.3552491 78
-2.264158 -2.222871 0.5711257 41
-2.466619 -4.265357 1.309624 40
-1.265357 -2.23064 0.01454287 53
-1.557836 -2.235706 0 43
-1.878218 -2.235633 -0.01507958 44
-2.249361 -2.232801 -0.03660046 39
-1.266163 -2.234706 0.07461422 51
-1.548668 -2.229019 0.06208887 45
-1.87376 -2.238879 0.04925777 43
-2.245145 -2.237034 0.03823921 39
nan nan nan 0
-0.2073811 -0.3616883 -0.0985705 8
-1.261986 -2.222071 -0.3495483 63
-1.299911 -2.243877 -0.2418335 83
-1.282861 -2.232008 -0.1625849 65
-1.553347 -2.218702 -0.1865986 46
-1.877773 -2.218825 -0.2165646 41
-2.256476 -2.22528 -0.2556483 25
-1.269789 -2.242998 -0.1032636 153
-1.550402 -2.237316 -0.1250765 44
-1.863766 -2.223107 -0.1499425 50
-2.220662 -2.212009 -0.1800689 19
-1.281223 -2.244238 -0.04441637 88
-1.568334 -2.245785 -0.06266914 43
-1.88455 -2.235287 -0.08407719 42
-2.254071 -2.232797 -0.1083163 34
-2.815161 -2.806917 -0.7138351 9
-2.245517 -2.209048 -0.3499835 21
-2.262573 -2.230359 0.1260138 54
-1.296739 -2.259611 0.1492829 70
-2.297441 -2.240554 0.2577986 57
-1.473521 -2.5416 0.3558584 85
-2.282488 -2.225236 0.5738155 45
-2.479065 -4.252546 1.30833 27
-1.273136 -2.226209 0.01454287 53
-1.5685 -2.234349 0 44
-1.889242 -2.232878 -0.01510576 44
-2.264275 -2.231943 -0.0367174 34
-1.276425 -2.234617 0.07476167 55
-1.562167 -2.231794 0.06232098 46
-1.884788 -2.236145 0.04934329 43
-2.26006 -2.236204 0.03836138 38
nan nan nan 0
-0.20628 -0.3567405 -0.09730678 8
-1.272186 -2.221955 -0.3502363 64
-1.307736 -2.239326 -0.2418335 85
-1.290644 -2.227516 -0.1625849 68
-1.566826 -2.221422 -0.1872961 47
-1.89198 -2.219841 -0.2173178 41
-2.271363 -2.224351 -0.2564625 18
-1.280077 -2.242896 -0.1034669 151
-1.563915 -2.240085 -0.1255423 44
-1.877962 -2.224215 -0.1504659 49
-2.239035 -2.214757 -0.1809402 18
-1.291533 -2.24409 -0.04450363 88
-1.581911 -2.248477 -0.06290125 37
-1.898815 -2.236311 -0.08436861 42
-2.272557 -2.235409 -0.1088345 26
-2.81794 -2.790159 -0.7120505 9
-2.260335 -2.208128 -0.3511017 23
-2.277497 -2.229425 0.1264151 58
-1.307109 -2.259397 0.1495734 71
-2.316007 -2.242902 0.2590146 61
-1.482384 -2.536441 0.3558584 96
-2.300862 -2.227501 0.5765053 39
-2.469469 -4.202201 1.295389 10
-1.283387 -2.226089 0.01457167 53
-1.582059 -2.237029 0 45
-1.903515 -2.233877 -0.01515812 43
-2.282788 -2.234499 -0.0368928 40
-1.286702 -2.234485 0.07490914 57
-1.572825 -2.230415 0.06243704 45
-1.899057 -2.237171 0.04951432 43
-2.278568 -2.238796 0.03854464 38
nan nan nan 0
-0.205147 -0.3518049 -0.09604306 9
-1.2824 -2.221795 -0.3509244 66
-1.318061 -2.239042 -0.2423049 89
-1.30092 -2.227311 -0.1629049 64
-1.577458 -2.220007 -0.1876449 47
-1.906217 -2.220786 -0.2180711 42
-2.286271 -2.223345 -0.2572766 19
-1.292863 -2.247086 -0.1038734 151
-1.577465 -2.242787 -0.1260082 43
-1.888951 -2.221447 -0.1507275 49
-2.257452 -2.217403 -0.1818115 17
-1.301858 -2.243897 -0.04459089 88
-1.595526 -2.251101 -0.06313336 42
-1.913111 -2.237262 -0.08466004 42
-2.291087 -2.23792 -0.1093528 29
-2.817125 -2.769973 -0.7093736 8
-2.275174 -2.207131 -0.3522198 17
-2.296031 -2.23189 0.1270171 64
-1.314988 -2.254821 0.1495734 67
-2.331018 -2.2417 0.2598253 52
-1.49374 -2.535532 0.3564678 96
-2.322832 -2.233067 0.5800916 51
-1.651189 -2.78402 0.856691 4
-1.293652 -2.225924 0.01460047 53
-1.592756 -2.235567 0 44
-1.91456 -2.231012 -0.01518429 43
-2.297756 -2.233475 -0.03700973 37
-1.296994 -2.234308 0.0750566 50
-1.586385 -2.233065 0.06266914 45
-1.910106 -2.234327 0.04959984 43
-2.297122 -2.241285 0.03872789 39
nan nan nan 0
-0.2015903 -0.3426765 -0.0935156 8
-1.29263 -2.221591 -0.3516125 65
-1.328401 -2.238713 -0.2427763 81
-1.311209 -2.227062 -0.163225 69
-1.588098 -2.218544 -0.1879937 48
-1.920484 -2.221658 -0.2188244 42
-2.30479 -2.225717 -0.2584979 21
-1.303196 -2.246886 -0.1040767 151
-1.591054 -2.245422 -0.126474 40
-1.903194 -2.222421 -0.1512509 49
-2.272337 -2.216468 -0.1823924 17
-1.312198 -2.24366 -0.04467816 87
-1.609178 -2.253658 -0.06336547 43
-1.924172 -2.234356 -0.08480575 43
-2.309663 -2.240328 -0.109871 25
-2.819727 -2.753258 -0.707589 9
-2.293618 -2.209499 -0.3538971 22
-2.314609 -2.234252 0.1276191 53
-1.325371 -2.254525 0.1498638 72
-2.349659 -2.243856 0.2610414 58
-1.505108 -2.534573 0.3570772 95
-2.341304 -2.235116 0.5827814 58
-1.660897 -2.778239 0.856691 5
-1.303932 -2.225714 0.01462927 55
-1.603463 -2.234057 0 45
-1.928879 -2.231877 -0.01523665 43
-2.316348 -2.235839 -0.03718514 35
-1.3073 -2.234086 0.07520406 49
-1.597077 -2.231581 0.06278519 45
-1.924421 -2.235219 0.04977087 42
-2.312124 -2.240199 0.03885006 39
nan nan nan 0
-0.2003788 -0.337774 -0.09225187 8
-1.302873 -2.221343 -0.3523006 69
-1.338754 -2.23834 -0.2432477 87
-1.321513 -2.226767 -0.163545 67
-1.598747 -2.217035 -0.1883425 47
-1.931503 -2.218699 -0.219201 43
-2.319751 -2.224544 -0.2593121 20
-1.313543 -2.246642 -0.10428 149
-1.601781 -2.243921 -0.1267069 40
-1.914204 -2.219544 -0.1515126 49
-2.287243 -2.215456 -0.1829733 17
-1.322552 -2.243378 -0.04476542 86
-1.622867 -2.256147 -0.06359757 43
-1.938514 -2.235173 -0.08509718 44
-2.328284 -2.242634 -0.1103893 24
-2.822248 -2.736558 -0.7058044 9
-2.308509 -2.208336 -0.3550152 21
-2.333231 -2.236512 0.1282211 62
-1.335768 -2.254184 0.1501542 72
-2.364722 -2.242487 0.2618521 59
-1.516487 -2.533567 0.3576865 92
-2.356243 -2.233686 0.5845746 47
-1.645725 -2.731018 0.8437501 6
-1.31676 -2.22977 0.01468686 48
-1.614178 -2.2325 0 44
-1.939943 -2.2289 -0.01526283 43
-2.331368 -2.234647 -0.03730207 38
-1.31762 -2.233819 0.07535151 50
-1.607777 -2.23005 0.06290125 45
-1.938766 -2.236038 0.0499419 43
-2.330755 -2.242496 0.03903332 38
nan nan nan 0
-0.1991356 -0.3328842 -0.09098815 9
-1.31313 -2.22105 -0.3529887 66
-1.34912 -2.237921 -0.2437191 87
-1.331831 -2.226428 -0.1638651 69
-1.612334 -2.219516 -0.18904 48
-1.945815 -2.219436 -0.2199543 42
-2.334732 -2.223294 -0.2601262 23
-1.323905 -2.246352 -0.1044833 153
-1.615431 -2.246431 -0.1271728 42
-1.928493 -2.220384 -0.152036 48
-2.302169 -2.214367 -0.1835541 17
-1.332919 -2.243051 -0.04485268 85
-1.633663 -2.254518 -0.06371363 43
-1.952884 -2.235917 -0.08538861 43
-2.343332 -2.241389 -0.1107348 27
-2.824686 -2.719874 -0.7040198 9
-2.32342 -2.207096 -0.3561334 19
-2.348273 -2.235231 0.1286224 50
-1.346179 -2.253799 0.1504447 64
-2.383437 -2.244449 0.2630681 55
-1.527878 -2.532512 0.3582958 90
-2.374789 -2.235543 0.5872643 46
-1.640245 -2.700465 0.8359855 8
-1.327083 -2.229462 0.01471566 54
-1.627843 -2.234939 0 44
-1.954308 -2.22963 -0.01531519 43
-2.350036 -2.236818 -0.03747747 37
-1.32541 -2.229206 0.07535151 55
-1.621421 -2.232517 0.06313336 46
-1.94985 -2.233021 0.05002742 43
-2.34581 -2.241242 0.03915549 40
nan nan nan 0
-0.1978608 -0.3280073 -0.08972443 8
-1.323401 -2.220712 -0.3536768 69
-1.3595 -2.237457 -0.2441905 84
-1.342162 -2.226044 -0.1641851 67
-1.623015 -2.217901 -0.1893888 48
-1.960155 -2.220101 -0.2207075 42
-2.353359 -2.225384 -0.2613475 19
-1.331738 -2.241717 -0.1044833 150
-1.626189 -2.244825 -0.1274057 42
-1.942811 -2.221151 -0.1525593 48
-2.3135 -2.209759 -0.1838446 18
-1.343301 -2.242679 -0.04493995 85
-1.647412 -2.256881 -0.06394573 41
-1.967284 -2.236588 -0.08568004 43
-2.362028 -2.243501 -0.1112531 28
-2.827042 -2.703207 -0.7022352 9
-2.341971 -2.209181 -0.3578106 18
-2.366971 -2.237298 0.1292244 54
-1.356604 -2.253368 0.1507351 74
-2.398549 -2.242911 0.2638788 50
-1.536709 -2.527163 0.3582958 88
-2.389776 -2.233946 0.5890575 49
-1.639603 -2.67823 0.8308091 9
-1.337421 -2.229109 0.01474446 52
-1.63859 -2.233277 0 43
-1.96539 -2.226542 -0.01534137 43
-2.368748 -2.238886 -0.03765288 36
-1.335743 -2.228858 0.07549898 56
-1.632153 -2.23088 0.06324941 45
-1.960936 -2.229953 0.05011294 43
-2.364517 -2.243345 0.03933875 39
nan nan nan 0
-0.1990045 -0.3273146 -0.08972443 8
-1.333686 -2.22033 -0.3543649 68
-1.369893 -2.236948 -0.244662 87
-1.352507 -2.225615 -0.1645052 69
-1.633704 -2.216239 -0.1897376 49
-1.974523 -2.220693 -0.2214608 43
-2.36839 -2.223966 -0.2621616 26
-1.342112 -2.241347 -0.1046865 150
-1.636957 -2.243171 -0.1276386 41
-1.953855 -2.218101 -0.152821 47
-2.328454 -2.208528 -0.1844254 17
-1.353696 -2.242261 -0.0450272 85
-1.658239 -2.255145 -0.06406179 41
-1.981712 -2.237185 -0.08597147 43
-2.377127 -2.242088 -0.1115986 28
-2.829317 -2.686557 -0.7004507 9
-2.356932 -2.207774 -0.3589288 18
-2.382063 -2.235847 0.1296257 50
-1.367042 -2.252891 0.1510255 65
-2.413679 -2.241294 0.2646894 55
-1.548106 -2.526019 0.3589052 71
-2.404781 -2.232271 0.5908507 49
-1.638824 -2.656033 0.8256327 7
-1.347772 -2.228711 0.01477326 50
-1.652314 -2.235589 0 43
-1.979798 -2.227137 -0.01539373 43
-2.383851 -2.237435 -0.03776981 39
-1.34609 -2.228466 0.07564644 57
-1.642893 -2.229195 0.06336547 45
-1.975341 -2.230576 0.05028397 42
-2.379623 -2.241923 0.03946091 39
nan nan nan 0
-0.2001459 -0.326618 -0.08972443 8
-1.343984 -2.219903 -0.3550529 65
-1.3803 -2.236393 -0.2451334 90
-1.362865 -2.225141 -0.1648252 64
-1.644401 -2.214529 -0.1900864 49
-1.98892 -2.221211 -0.2222141 42
-2.38709 -2.225862 -0.2633829 27
-1.3525 -2.240931 -0.1048898 150
-1.647732 -2.24147 -0.1278715 42
-1.968217 -2.218734 -0.1533443 47
-2.343427 -2.20722 -0.1850063 17
-1.364104 -2.241798 -0.04511447 85
-1.669073 -2.253362 -0.06417784 39
-1.992838 -2.233982 -0.08611719 43
-2.395897 -2.244006 -0.1121168 25
-2.831509 -2.669924 -0.698666 8
-2.371912 -2.206289 -0.3600469 21
-2.400834 -2.23772 0.1302277 52
-1.380088 -2.256633 0.1516064 72
-2.428827 -2.239599 0.2655001 60
-1.562115 -2.529054 0.3601239 52
-2.416182 -2.227191 0.5917473 44
-1.640455 -2.63798 0.8217505 9
-1.355543 -2.223993 0.01477326 57
-1.663091 -2.23382 0 43
-1.994234 -2.227659 -0.01544609 42
-2.402635 -2.239308 -0.03794521 36
-1.35645 -2.228028 0.07579389 53
-1.656618 -2.231478 0.06359757 45
-1.989775 -2.231126 0.05045501 42
-2.398403 -2.243832 0.03964417 39
nan nan nan 0
-0.1988055 -0.3217633 -0.08846071 8
-1.354296 -2.219431 -0.3557411 80
-1.393339 -2.240026 -0.2460762 86
-1.373236 -2.224621 -0.1651453 66
-1.655107 -2.212771 -0.1904352 49
-2.003344 -2.221656 -0.2229674 42
-2.405832 -2.227654 -0.2646042 27
-1.365489 -2.244744 -0.1052964 152
-1.658516 -2.239721 -0.1281044 41
-1.982607 -2.219293 -0.1538677 48
-2.362071 -2.209237 -0.1858776 17
-1.374526 -2.24129 -0.04520173 91
-1.679915 -2.25153 -0.0642939 40
-2.007308 -2.234444 -0.08640862 42
-2.411045 -2.242423 -0.1124623 22
-2.840812 -2.660024 -0.698666 8
-2.390566 -2.208091 -0.3617242 21
-2.415975 -2.2361 0.130629 62
-1.390568 -2.256057 0.1518968 67
-2.440311 -2.234466 0.2659055 63
-1.573549 -2.527804 0.3607332 62
-2.43121 -2.225373 0.5935404 49
-1.641979 -2.619947 0.8178681 10
-1.365906 -2.223513 0.01480206 56
-1.673876 -2.232004 0 44
-2.008699 -2.228108 -0.01549845 43
-2.417787 -2.237688 -0.03806214 38
-1.366824 -2.227545 0.07594135 52
-1.667388 -2.229686 0.06371363 45
-2.000893 -2.227885 0.05054053 43
-2.413558 -2.242241 0.03976634 39
nan nan nan 0
-0.1999274 -0.3210674 -0.08846071 8
-1.36462 -2.218914 -0.3564291 64
-1.403786 -2.239371 -0.2465476 91
-1.386247 -2.228298 -0.1657854 66
-1.665819 -2.210966 -0.1907839 48
-2.017795 -2.222027 -0.2237206 42
-2.420942 -2.225976 -0.2654183 32
-1.375919 -2.244228 -0.1054996 152
-1.669307 -2.237923 -0.1283373 43
-1.993684 -2.216069 -0.1541294 48
-2.377095 -2.20776 -0.1864585 18
-1.38496 -2.240736 -0.04528899 88
-1.687764 -2.245653 -0.0642939 39
-2.021806 -2.234832 -0.08670004 43
-2.426211 -2.240762 -0.1128078 27
-2.853687 -2.653437 -0.6995583 10
-2.405594 -2.206438 -0.3628423 18
-2.434818 -2.237777 0.131231 66
-1.401059 -2.255434 0.1521873 67
-2.455482 -2.232627 0.2667162 63
-1.587623 -2.530713 0.3619519 71
-2.446254 -2.223477 0.5953336 50
-1.64597 -2.606024 0.81528 8
-1.376282 -2.222989 0.01483085 54
-1.687679 -2.23413 0 43
-2.02319 -2.228482 -0.01555081 44
-2.432957 -2.235989 -0.03817908 45
-1.37983 -2.231273 0.07623627 49
-1.68117 -2.231842 0.06394573 45
-2.015369 -2.228298 0.05071156 43
-2.42873 -2.24057 0.03988851 40
nan nan nan 0
-0.1985388 -0.3162309 -0.08719698 7
-1.372357 -2.214138 -0.3564291 66
-1.414244 -2.238671 -0.247019 93
-1.396659 -2.227678 -0.1661054 70
-1.679553 -2.213088 -0.1914815 49
-2.032273 -2.222325 -0.2244739 41
-2.439755 -2.227573 -0.2666396 30
-1.386361 -2.243667 -0.1057029 154
-1.680107 -2.236078 -0.1285703 44
-2.008116 -2.216493 -0.1546527 49
-2.395812 -2.209583 -0.1873298 16
-1.395408 -2.240137 -0.04537625 88
