# .PCD v0.7 - Point Cloud Data file format
VERSION 0.7
FIELDS x y z intensity
SIZE 4 4 4 4
TYPE F F F F
COUNT 1 1 1 1
WIDTH 1562
HEIGHT 1
VIEWPOINT 0 0 0 1 0 0 0
POINTS 1562
DATA ascii
-22.79363 -7.589219 -1.118468 11
-21.739 -5.056636 -1.167615 8
-3.865387 -0.5410998 -0.2247957 61
-7.135461 -3.096596 -0.1350816 17
-30.58911 -10.06117 -0.7466912 16
-32.98209 -7.573975 -0.9854662 9
-3.84629 -0.527585 -0.1328472 96
-3.814756 -0.5373794 -0.6915277 8
-3.865859 -0.5166066 -0.4344045 8
-3.836854 -0.5168132 0.1539054 97
-41.55658 -17.95134 2.63162 41
-3.844914 -0.4969279 0.3121147 96
-44.69622 -19.05878 5.961238 18
-5.357083 -0.6891475 0.9772795 17
-62.56421 -26.44826 18.1898 6
nan nan nan 0
nan nan nan 0
-58.46172 -13.31622 -0.3137389 17
-3.834717 -0.5164658 -0.04478587 94
-42.81319 -18.60069 1.376087 9
-113.7854 -37.29871 2.779144 10
-62.5698 -14.37812 1.097525 10
-3.843634 -0.5250559 0.04691328 80
nan nan nan 0
nan nan nan 0
-6.986419 -3.021627 -1.052085 8
-7.052642 -2.977886 -0.7212578 7
-6.994913 -2.982127 -0.4851942 8
-16.51424 -5.344878 -1.210972 7
nan nan nan 0
-3.932738 -0.5164178 -0.3207816 10
-7.208045 -3.129524 -0.3181251 5
-22.81998 -7.509608 -1.118468 13
-21.78085 -4.98629 -1.168923 8
-3.862306 -0.5269358 -0.2245053 58
-7.058988 -3.034099 -0.1334236 38
-31.08516 -10.10425 -0.7579485 23
-33.03758 -7.465407 -0.9863404 5
-3.848109 -0.5141557 -0.1328472 95
-3.816609 -0.5240602 -0.6915277 8
-3.867639 -0.503109 -0.4344045 8
-3.838634 -0.503417 0.1539054 98
-41.72454 -17.85135 2.6383 35
-3.846625 -0.4835037 0.3121147 97
-44.64818 -18.85437 5.946005 24
-5.354574 -0.6698381 0.976383 18
-62.86554 -26.31738 18.25063 7
nan nan nan 0
-59.10449 -19.05413 0 8
nan nan nan 0
-3.831538 -0.5024339 -0.0447274 93
-73.41439 -31.59592 2.356984 5
-109.83 -35.57798 2.679454 4
-61.92231 -14.00197 1.085296 34
-3.840486 -0.5109833 0.0468522 80
nan nan nan 0
-0.3132541 -0.1309682 -0.07835092 10
-7.078839 -3.032382 -1.064471 12
-7.136453 -2.984023 -0.7288004 7
-7.069617 -2.984909 -0.4896749 8
-16.5518 -5.29328 -1.212367 7
-4.644742 -1.02494 -0.3562958 13
-3.924629 -0.5014377 -0.3199674 10
-12.77969 -5.500339 -0.5644941 13
-22.85081 -7.431451 -1.118701 11
nan nan nan 0
-3.854224 -0.5121493 -0.2239244 64
-7.405221 -3.152622 -0.1397938 4
-31.49621 -10.11646 -0.7671167 18
nan nan nan 0
-3.844924 -0.5000826 -0.1326745 96
-3.818415 -0.5107345 -0.6915277 8
-3.869371 -0.4896054 -0.4344045 9
-3.840368 -0.4900145 0.1539054 99
-41.8923 -17.75039 2.64498 42
-3.843342 -0.4694766 0.3117093 96
-47.81324 -19.99496 6.358533 9
-5.35688 -0.651143 0.976383 17
-63.14885 -26.17732 18.30627 4
-44.69008 -19.01901 0.2795112 11
-59.40408 -18.92206 0 7
-3.900845 -0.8616474 -0.02070824 34
-3.833269 -0.4890563 -0.0447274 85
-73.40929 -31.29046 2.353297 7
nan nan nan 0
nan nan nan 0
-3.842246 -0.4975744 0.0468522 80
nan nan nan 0
nan nan nan 0
-7.134959 -3.027029 -1.071352 10
-7.206597 -2.983888 -0.7349287 7
-7.149027 -2.989133 -0.4944756 8
-16.5892 -5.241483 -1.213763 9
-4.550835 -0.9876145 -0.3487631 17
-3.911517 -0.4859132 -0.3187462 10
-7.257288 -3.090892 -0.3193448 4
-22.8671 -7.348583 -1.118235 13
nan nan nan 0
-3.851037 -0.4980591 -0.223634 70
nan nan nan 0
-31.73144 -10.06997 -0.771991 19
-3.876333 -0.8491881 -0.1145315 39
-3.846646 -0.4866582 -0.1326745 94
-3.815295 -0.4967741 -0.6906354 9
-3.875989 -0.4766953 -0.4349635 8
-3.842055 -0.4766062 0.1539054 96
-41.50296 -17.41473 2.616518 36
-3.844957 -0.4560579 0.3117093 97
-44.46694 -18.41307 5.90457 24
-5.354235 -0.6318688 0.9754864 17
nan nan nan 0
-59.21362 -24.95806 0.3698786 7
-59.5747 -18.74761 0 9
-3.903829 -0.8480257 -0.02070824 44
-3.834953 -0.4756727 -0.0447274 80
-44.7092 -18.8706 1.430647 18
-78.21035 -24.73267 1.903517 5
-3.916359 -0.858511 0.06790047 38
-3.84396 -0.4841594 0.0468522 76
nan nan nan 0
-0.3186049 -0.1306893 -0.07961464 9
-7.20482 -3.027084 -1.080297 8
-7.304453 -2.994648 -0.7438855 8
-7.228551 -2.992838 -0.4992764 9
-16.62644 -5.18949 -1.215158 8
-3.983706 -0.8502412 -0.3046969 48
-3.898344 -0.4704863 -0.317525 9
-7.272634 -3.067485 -0.319548 46
-22.93545 -7.282325 -1.120331 11
-3.917221 -0.8551819 -0.2080354 50
-3.847799 -0.4839973 -0.2233436 54
-7.602304 -3.174158 -0.1431097 3
-32.13366 -10.07432 -0.7809272 18
-3.898818 -0.8398528 -0.1151143 47
-3.84336 -0.4726251 -0.1325017 90
-3.817006 -0.4834532 -0.6906354 8
-3.882564 -0.4637449 -0.4355226 11
-3.838735 -0.4626013 0.1537048 8
-41.61419 -17.29082 2.619712 35
-3.846526 -0.4426337 0.3117093 95
-47.6578 -19.54015 6.319535 12
-5.356408 -0.6131752 0.9754864 19
nan nan nan 0
nan nan nan 0
-60.35596 -18.7622 0 9
-3.906765 -0.8343937 -0.02070824 48
-3.841555 -0.4628744 -0.04478587 77
-73.42769 -30.69431 2.346956 5
nan nan nan 0
-3.914445 -0.8437837 0.06781495 44
-3.85059 -0.4713393 0.04691328 50
nan nan nan 0
nan nan nan 0
-7.256482 -3.019067 -1.08649 8
-7.370194 -2.991635 -0.7495424 9
-7.312803 -2.997921 -0.5043972 9
-16.65875 -5.135831 -1.216204 8
-3.937849 -0.8261175 -0.3009306 47
-3.885111 -0.4551573 -0.3163037 12
nan nan nan 0
-22.97503 -7.206706 -1.12103 11
-3.9153 -0.8404573 -0.2077737 82
-3.844509 -0.4699643 -0.2230531 58
-7.631812 -3.155254 -0.1434588 20
-32.67953 -10.12034 -0.7933449 19
-3.891947 -0.824172 -0.1148229 50
-3.849949 -0.459792 -0.1326745 91
-3.81867 -0.4701265 -0.6906354 9
-3.884159 -0.4501894 -0.4355226 8
-3.840326 -0.4491988 0.1537048 5
-42.3713 -17.43231 2.663568 31
-3.843094 -0.428659 0.311304 96
nan nan nan 0
-5.358515 -0.5944741 0.9754864 18
nan nan nan 0
-59.03524 -24.39889 0.36769 5
-59.4508 -18.25346 0 15
-3.894973 -0.8176762 -0.0206297 52
-3.843147 -0.4494621 -0.04478587 7
-73.2804 -30.33266 2.338846 7
-72.58257 -22.39665 1.762628 23
-3.892911 -0.8249432 0.06738736 48
-3.857177 -0.4584786 0.04697437 6
nan nan nan 0
nan nan nan 0
-7.353954 -3.029621 -1.099563 10
-7.459091 -2.997494 -0.7575564 8
-7.392556 -3.000571 -0.5091979 8
-16.69566 -5.083464 -1.217599 8
-3.896756 -0.8033286 -0.2975409 48
-3.881724 -0.4410375 -0.3158966 16
-7.487712 -3.096969 -0.3280855 9
-22.9905 -7.123507 -1.120564 14
-3.898666 -0.8226701 -0.206727 96
-3.851084 -0.4571231 -0.2233436 56
-7.716786 -3.158947 -0.144855 19
-32.78637 -10.02814 -0.7950858 16
-3.889906 -0.8095655 -0.1146772 54
-3.856496 -0.4469186 -0.1328472 61
-3.815402 -0.4562165 -0.6897431 8
-3.885707 -0.4366285 -0.4355226 12
-3.836905 -0.4352348 0.1535041 5
-42.3718 -17.25982 2.659792 38
-3.844567 -0.4152415 0.311304 95
-47.89436 -19.24769 6.33294 15
-5.360558 -0.5757658 0.9754864 18
nan nan nan 0
-59.71697 -24.437 0.3714049 7
-59.45195 -18.02696 0 12
-3.883112 -0.8010514 -0.02055116 52
nan nan nan 0
-66.01922 -27.05692 2.103944 17
-59.44422 -18.1152 1.441854 87
-3.890872 -0.8103322 0.06730185 49
-3.863722 -0.4455777 0.04703545 4
nan nan nan 0
-0.319956 -0.1273458 -0.07961464 9
-7.419497 -3.026416 -1.10782 9
-7.654469 -3.045155 -0.7764128 11
-7.477044 -3.004565 -0.5143187 8
-16.72763 -5.029464 -1.218645 8
-3.889762 -0.7877471 -0.2967876 55
-3.878286 -0.4269469 -0.3154896 19
-7.600158 -3.112536 -0.3325576 28
-23.07254 -7.060756 -1.123359 12
-3.891735 -0.8070329 -0.2062037 97
-3.857616 -0.4442416 -0.223634 59
-7.723133 -3.13011 -0.1447677 37
-33.10349 -9.99892 -0.8019329 12
-3.878017 -0.7929853 -0.1142401 54
-3.838166 -0.4312504 -0.1321562 3
-3.816972 -0.4428955 -0.6897431 8
-3.882267 -0.4225315 -0.4349635 15
-3.833435 -0.4213002 0.1533034 9
-42.44568 -17.11741 2.660664 44
-3.841035 -0.4013084 0.3108986 96
-48.68519 -19.36848 6.428608 21
-5.362535 -0.5570505 0.9754864 16
nan nan nan 0
-60.42747 -24.48191 0.3752926 16
-59.47141 -17.80642 0 13
-3.876083 -0.7855104 -0.0204988 55
nan nan nan 0
-66.02527 -26.79059 2.101142 14
-59.49752 -17.90471 1.441622 89
-3.878983 -0.7937452 0.06704529 49
-3.865254 -0.4320881 0.04703545 3
nan nan nan 0
nan nan nan 0
-7.517241 -3.035793 -1.120894 6
-7.725247 -3.042166 -0.7825412 11
-7.566284 -3.009852 -0.5197595 9
-16.76421 -4.976723 -1.220041 8
-3.887598 -0.7731945 -0.296411 55
-3.874796 -0.4128856 -0.3150825 17
-7.661891 -3.106673 -0.3347936 10
-23.13529 -6.991736 -1.125223 11
-3.884742 -0.791454 -0.2056803 100
-3.864104 -0.4313203 -0.2239244 59
-24.84998 -9.983708 -0.4667646 5
-33.28668 -9.927602 -0.8055305 8
-3.86606 -0.7764981 -0.1138029 64
nan nan nan 0
-3.813605 -0.4290258 -0.6888508 9
-3.883718 -0.4089773 -0.4349635 12
-3.834882 -0.4079164 0.1533034 14
-42.60252 -17.00802 2.666763 39
-3.842413 -0.3878982 0.3108986 97
-49.14498 -19.35302 6.480402 16
-5.364447 -0.5383283 0.9754864 18
nan nan nan 0
nan nan nan 0
-59.47087 -17.58029 0 15
-3.864088 -0.7690543 -0.02042026 66
-3.822781 -0.4065841 -0.04449353 3
-66.04883 -26.53201 2.098931 5
-59.50695 -17.68125 1.440346 90
-3.871926 -0.7782342 0.06687427 60
-3.856796 -0.4175307 0.04691328 5
nan nan nan 0
-0.3118836 -0.1214423 -0.07708719 10
-7.624336 -3.048208 -1.135344 8
-7.96302 -3.1039 -0.8056403 19
-7.641726 -3.009059 -0.5242402 7
-16.79106 -4.920981 -1.220738 8
-3.880486 -0.7577134 -0.2956577 64
-3.876214 -0.3993576 -0.3150825 18
-7.728309 -3.102279 -0.3372329 12
-23.20263 -6.923793 -1.127319 13
-3.877688 -0.7759339 -0.2051569 102
-3.865586 -0.4178294 -0.2239244 56
-28.95831 -11.518 -0.5432934 15
-33.58486 -9.889019 -0.8119135 8
-3.85894 -0.7610687 -0.1135115 77
-3.860964 -0.4065097 -0.1328472 3
-3.815079 -0.4157113 -0.6888508 9
-3.880178 -0.3949221 -0.4344045 11
-3.831312 -0.3940237 0.1531028 12
nan nan nan 0
-3.843743 -0.3744833 0.3108986 96
-49.29084 -19.212 6.490761 17
-5.3565 -0.5186618 0.9736932 14
nan nan nan 0
-60.79209 -24.13696 0.3765021 12
-59.49348 -17.36138 0 13
-3.856934 -0.7536482 -0.0203679 72
-3.814229 -0.3922289 -0.0443766 5
-73.45064 -29.20866 2.331031 6
-59.50595 -17.45513 1.438837 98
-3.869714 -0.763748 0.06678875 64
-3.853256 -0.4035515 0.0468522 6
nan nan nan 0
nan nan nan 0
-7.68557 -3.041656 -1.142913 5
-8.038808 -3.101206 -0.81224 27
-7.735846 -3.015035 -0.530001 8
-16.81771 -4.865113 -1.221436 8
-3.878209 -0.7432274 -0.2952811 59
-3.872625 -0.3853383 -0.3146754 25
-7.827278 -3.110395 -0.3410951 11
-23.27936 -6.858289 -1.129881 11
-3.870573 -0.7604727 -0.2046336 100
-3.867022 -0.4043334 -0.2239244 55
-29.35184 -11.55609 -0.5499253 27
-33.98397 -9.877778 -0.8207337 8
-3.851758 -0.7456986 -0.1132201 81
-3.852415 -0.3920321 -0.1325017 5
-3.811614 -0.4018825 -0.6879585 9
-3.881533 -0.3813753 -0.4344045 9
-3.832664 -0.3806475 0.1531028 11
nan nan nan 0
-3.840065 -0.3606053 0.3104933 97
-49.57984 -19.12558 6.52001 13
-5.343584 -0.4986056 0.9710035 6
nan nan nan 0
nan nan nan 0
-59.48164 -17.13284 0 8
-3.844809 -0.737362 -0.02028936 77
-3.84543 -0.3818344 -0.0447274 7
nan nan nan 0
-59.5233 -17.2348 1.437793 98
-3.872357 -0.7502355 0.06678875 62
-3.849666 -0.3896021 0.04679111 7
nan nan nan 0
-0.3261923 -0.1246681 -0.08087836 10
-7.779121 -3.04738 -1.155298 7
-8.035636 -3.067792 -0.8108257 22
-7.853372 -3.029385 -0.5373622 6
-16.83459 -4.806378 -1.221436 9
-3.870979 -0.7278476 -0.2945278 64
-3.868985 -0.371349 -0.3142683 23
-7.90316 -3.1087 -0.343941 8
-23.33193 -6.785358 -1.131279 11
-3.863398 -0.7450705 -0.2041102 102
-3.863442 -0.3903376 -0.223634 56
-28.34401 -11.04497 -0.5302914 16
-34.45066 -9.883169 -0.8311785 8
-3.839607 -0.7294573 -0.1127829 81
-3.848787 -0.3781008 -0.132329 7
-3.812993 -0.388575 -0.6879585 9
-3.882841 -0.3678239 -0.4344045 9
-3.833969 -0.3672667 0.1531028 13
nan nan nan 0
-3.8413 -0.3471987 0.3104933 96
nan nan nan 0
-5.330592 -0.4786459 0.9683138 7
nan nan nan 0
-54.51949 -21.20644 0.3367036 27
-62.18628 -17.67711 0 6
-3.862102 -0.7267036 -0.0203679 74
-3.841762 -0.3679394 -0.04466894 7
nan nan nan 0
nan nan nan 0
-3.879863 -0.7376455 0.06687427 59
-3.84105 -0.3752035 0.04666894 7
nan nan nan 0
-0.3221297 -0.1217424 -0.07961464 9
-7.858957 -3.047107 -1.16562 9
-8.004397 -3.023866 -0.806583 16
-7.97109 -3.04295 -0.5447233 5
-16.85127 -4.747586 -1.221436 9
-3.868593 -0.7134293 -0.2941512 68
-3.870258 -0.3578415 -0.3142683 27
nan nan nan 0
-23.38908 -6.713522 -1.132909 12
-3.861069 -0.7306541 -0.2038485 102
-3.859812 -0.3763718 -0.2233436 54
nan nan nan 0
-35.02363 -9.915383 -0.8441765 8
-3.832302 -0.7142234 -0.1124915 85
-3.830182 -0.362807 -0.1316379 8
-3.814326 -0.3752628 -0.6879585 8
-3.884101 -0.354268 -0.4344045 9
-3.835228 -0.3538814 0.1531028 9
nan nan nan 0
-3.837523 -0.333364 0.3100879 96
nan nan nan 0
-5.322428 -0.4592004 0.9665205 17
nan nan nan 0
nan nan nan 0
nan nan nan 0
-3.874449 -0.7150283 -0.02042026 79
-3.838043 -0.3540747 -0.04461047 7
nan nan nan 0
nan nan nan 0
-3.882415 -0.7240977 0.06687427 57
-3.842336 -0.3617934 0.04666894 8
nan nan nan 0
-0.3360586 -0.1259291 -0.08340581 8
-7.888035 -3.026764 -1.168372 10
-12.83032 -4.799192 -1.29355 7
-17.44574 -6.596947 -1.193783 9
-16.86293 -4.687397 -1.221087 9
-3.87106 -0.699921 -0.2941512 70
-3.871483 -0.3443296 -0.3142683 29
nan nan nan 0
-23.38834 -6.62503 -1.131744 13
-3.863595 -0.717172 -0.2038485 102
-3.851162 -0.3619758 -0.2227627 53
-27.2762 -10.40989 -0.5089121 12
-35.54427 -9.928922 -0.855898 8
-3.849522 -0.7035306 -0.1129286 85
-3.836401 -0.3498817 -0.1318107 7
-3.815613 -0.361946 -0.6879585 8
-3.885314 -0.3407078 -0.4344045 8
-3.83644 -0.3404918 0.1531028 13
nan nan nan 0
-3.838663 -0.3199666 0.3100879 97
nan nan nan 0
-5.328901 -0.4410194 0.9674171 18
nan nan nan 0
nan nan nan 0
-60.07222 -16.62372 0 5
-3.886762 -0.7032755 -0.02047262 50
-3.834275 -0.3402404 -0.044552 8
-101.9278 -38.89604 3.217701 13
nan nan nan 0
-3.889837 -0.7114385 0.06695978 47
-3.843576 -0.348379 0.04666894 8
nan nan nan 0
-0.331988 -0.1230004 -0.08214208 9
-8.995564 -3.416584 -1.331449 22
-12.84233 -4.752648 -1.293079 11
-17.4967 -6.54651 -1.195703 10
-16.87438 -4.627187 -1.220738 10
-3.873479 -0.6864042 -0.2941512 66
-3.872662 -0.3308135 -0.3142683 24
-24.99261 -9.542743 -1.08691 16
-23.46424 -6.558143 -1.134306 11
-3.866075 -0.7036811 -0.2038485 102
-3.852402 -0.3485306 -0.2227627 55
-31.93276 -12.06051 -0.595127 12
-36.13289 -9.957539 -0.8692442 9
-3.861795 -0.691847 -0.1132201 85
-3.832621 -0.3360586 -0.1316379 8
-3.816853 -0.3486249 -0.6879585 9
-3.88648 -0.3271435 -0.4344045 7
-3.832627 -0.3266809 0.1529021 13
-74.56434 -27.97649 4.631547 15
-3.839757 -0.3065652 0.3100879 97
nan nan nan 0
-5.3206 -0.4216487 0.9656239 18
nan nan nan 0
nan nan nan 0
-62.11715 -16.95647 0 8
-3.899041 -0.6914455 -0.02052498 61
-3.830457 -0.3264367 -0.04449353 8
-101.9461 -38.49586 3.214015 15
-60.10521 -16.49732 1.446149 6
-3.897218 -0.6987363 0.06704529 49
-3.844768 -0.3349602 0.04666894 8
nan nan nan 0
-0.3369296 -0.12358 -0.08340581 10
-9.016703 -3.388653 -1.332825 21
-12.85417 -4.706078 -1.292607 11
-17.51944 -6.485395 -1.195703 11
-16.88562 -4.566953 -1.220389 8
-3.875852 -0.6728791 -0.2941512 62
-3.873793 -0.3172933 -0.3142683 36
-25.00708 -9.448378 -1.086097 16
-23.5255 -6.48682 -1.13617 13
-3.873424 -0.6910564 -0.2041102 99
-3.848622 -0.3346555 -0.2224723 54
-32.05427 -11.97873 -0.5966104 15
-36.60154 -9.949378 -0.879689 9
-3.874032 -0.6800863 -0.1135115 48
-3.833771 -0.3226782 -0.1316379 8
-3.818047 -0.3352995 -0.6879585 8
-3.887598 -0.3135751 -0.4344045 8
-3.833744 -0.3133005 0.1529021 17
-74.75044 -27.74905 4.637065 13
-3.835834 -0.2927881 0.3096826 96
nan nan nan 0
-5.33185 -0.4038062 0.9674171 16
nan nan nan 0
nan nan nan 0
nan nan nan 0
-3.891577 -0.6761239 -0.02047262 76
-3.831573 -0.3130639 -0.04449353 8
-102.0705 -38.13627 3.21372 12
-73.88451 -20.00276 1.776206 6
-3.894709 -0.6842653 0.06695978 57
-3.845914 -0.3215374 0.04666894 9
nan nan nan 0
-0.3102373 -0.1120626 -0.07582346 9
-9.033117 -3.358887 -1.333513 14
-12.88455 -4.66627 -1.294021 12
-17.54198 -6.424201 -1.195703 10
-16.89182 -4.505412 -1.219692 10
-3.878177 -0.6593457 -0.2941512 50
-3.874876 -0.3037694 -0.3142683 31
-24.9744 -9.336522 -1.083251 16
-23.48053 -6.386305 -1.132909 11
-3.880731 -0.6783891 -0.2043719 65
-3.849766 -0.3212193 -0.2224723 54
nan nan nan 0
-36.76641 -9.856511 -0.8828225 10
-3.876382 -0.6665592 -0.1135115 87
-3.829892 -0.3088992 -0.1314652 9
-3.819194 -0.3219699 -0.6879585 8
-3.888669 -0.300003 -0.4344045 8
-3.829833 -0.2995339 0.1527015 14
nan nan nan 0
-3.836833 -0.2793968 0.3096826 97
nan nan nan 0
-5.352854 -0.3865886 0.9710035 7
nan nan nan 0
nan nan nan 0
nan nan nan 0
-3.884055 -0.6608628 -0.02042026 74
-3.827658 -0.2993046 -0.04443507 8
-102.1608 -37.76415 3.212393 6
nan nan nan 0
-3.887219 -0.6689744 0.06678875 57
-3.851997 -0.308503 0.04673003 9
nan nan nan 0
-0.3196791 -0.1143943 -0.07835092 9
-9.040141 -3.325622 -1.332825 13
-12.89139 -4.617906 -1.293079 11
-17.57836 -6.368031 -1.196663 9
-16.89297 -4.442614 -1.218645 9
-3.880455 -0.6458043 -0.2941512 85
-3.875913 -0.2902416 -0.3142683 34
-25.02558 -9.256226 -1.084065 18
-23.49786 -6.303009 -1.132676 11
-3.883076 -0.6648387 -0.2043719 101
-3.850865 -0.3077791 -0.2224723 55
-30.88831 -11.29767 -0.5733988 7
-36.69911 -9.701279 -0.8803854 7
-3.873756 -0.6521966 -0.1133658 87
-3.830947 -0.2955285 -0.1314652 9
-3.820295 -0.3086365 -0.6879585 7
-3.889692 -0.2864272 -0.4344045 9
-3.830855 -0.2861635 0.1527015 15
-74.05566 -26.90432 4.582173 11
-3.837785 -0.2660021 0.3096826 95
nan nan nan 0
-5.388525 -0.3702253 0.9772795 9
nan nan nan 0
nan nan nan 0
nan nan nan 0
-3.881406 -0.6464817 -0.02039408 68
-3.82868 -0.2859418 -0.04443507 9
-102.0948 -37.33521 3.2062 15
-74.13837 -19.51701 1.778991 7
-3.8846 -0.6545729 0.06670323 67
-3.853051 -0.2950552 0.04673003 9
nan nan nan 0
-0.3200765 -0.1132777 -0.07835092 10
-9.060999 -3.297439 -1.334201 12
-12.90743 -4.572878 -1.293079 12
-17.61458 -6.311686 -1.197623 9
-16.89389 -4.379863 -1.217599 9
-3.882685 -0.6322551 -0.2941512 82
-3.871932 -0.2763628 -0.3138612 34
-25.1328 -9.196297 -1.087317 15
-23.52937 -6.223503 -1.133142 13
-3.885373 -0.6512802 -0.2043719 101
-3.856893 -0.2947086 -0.2227627 58
-32.36598 -11.71048 -0.6001009 6
-36.90205 -9.617246 -0.8844473 9
-3.871078 -0.6378605 -0.1132201 83
-3.831955 -0.2821542 -0.1314652 7
-3.821349 -0.2952993 -0.6879585 7
-3.885711 -0.2725073 -0.4338454 9
-3.826847 -0.272442 0.1525008 16
-74.21959 -26.67098 4.58653 9
-3.83869 -0.252604 0.3096826 97
nan nan nan 0
-5.379966 -0.3507839 0.9754864 19
nan nan nan 0
nan nan nan 0
nan nan nan 0
-3.873769 -0.6313252 -0.02034172 69
-3.824667 -0.2722276 -0.0443766 8
-102.1352 -36.9463 3.203398 13
-74.49634 -19.33345 1.785954 9
-3.881928 -0.6401978 0.06661771 52
-3.854057 -0.2816037 0.04673003 9
nan nan nan 0
nan nan nan 0
-9.081773 -3.26915 -1.335577 12
-12.92332 -4.527794 -1.293079 12
-17.6412 -6.25183 -1.197943 10
-16.89941 -4.318395 -1.216902 9
-3.879945 -0.6179165 -0.2937745 81
-3.872873 -0.2628455 -0.3138612 35
-25.17414 -9.111914 -1.087723 15
-23.4543 -6.116119 -1.128484 94
-3.887623 -0.6377137 -0.2043719 103
-3.857898 -0.2812438 -0.2227627 55
-28.18951 -10.08747 -0.5219142 6
-36.87729 -9.473446 -0.8830546 10
-3.868346 -0.623551 -0.1130743 85
-3.832917 -0.2687765 -0.1314652 7
-3.822356 -0.2819585 -0.6879585 7
-3.886639 -0.258942 -0.4338454 7
-3.827775 -0.2590821 0.1525008 18
nan nan nan 0
-3.839548 -0.239203 0.3096826 96
nan nan nan 0
-5.371338 -0.3314067 0.9736932 12
nan nan nan 0
nan nan nan 0
nan nan nan 0
-3.871011 -0.6170145 -0.02031554 71
-3.825594 -0.2588753 -0.0443766 8
-75.38051 -26.96931 2.360965 5
-72.38416 -18.51579 1.73373 15
-3.879204 -0.6258493 0.06653219 60
-3.855017 -0.2681488 0.04673003 8
nan nan nan 0
nan nan nan 0
-9.111787 -3.244083 -1.338329 11
-12.93434 -4.481025 -1.292607 13
-17.66763 -6.191864 -1.198263 9
-16.88053 -4.250849 -1.21446 10
-3.877151 -0.6036047 -0.2933979 81
-3.868793 -0.2490122 -0.3134541 37
-25.26223 -9.044202 -1.090163 17
-23.57225 -6.059086 -1.133142 111
-3.889825 -0.6241395 -0.2043719 101
-3.858856 -0.2677754 -0.2227627 54
-34.05391 -12.05329 -0.6298573 17
-37.0022 -9.367977 -0.8852597 8
-3.865562 -0.6092683 -0.1129286 83
-3.833832 -0.2553955 -0.1314652 9
-3.823317 -0.2686143 -0.6879585 7
-3.88256 -0.2450676 -0.4332863 9
-3.828655 -0.2457191 0.1525008 34
-74.11202 -26.04954 4.568523 11
-3.840359 -0.225799 0.3096826 97
nan nan nan 0
-5.36264 -0.312094 0.9719001 18
nan nan nan 0
nan nan nan 0
nan nan nan 0
-3.8682 -0.602731 -0.02028936 68
-3.826474 -0.2455199 -0.0443766 10
-102.1174 -36.13565 3.194845 14
-72.56467 -18.29234 1.736515 18
-3.876426 -0.6115277 0.06644668 53
-3.855929 -0.2546907 0.04673003 7
nan nan nan 0
nan nan nan 0
-9.137066 -3.2172 -1.340394 12
-12.94049 -4.432618 -1.291664 12
-17.6797 -6.126884 -1.197623 10
-16.91463 -4.196706 -1.215855 9
-3.879235 -0.5900672 -0.2933979 84
-3.869639 -0.2355061 -0.3134541 38
-25.33603 -8.970983 -1.091992 15
-23.61746 -5.982902 -1.134306 117
-3.887047 -0.609786 -0.2041102 103
-3.854786 -0.2539827 -0.2224723 60
-31.9112 -11.16932 -0.5894549 11
-37.04923 -9.242389 -0.8856078 9
-3.862725 -0.5950127 -0.1127829 89
-3.839688 -0.242319 -0.1316379 10
-3.824232 -0.2552668 -0.6879585 6
-3.883392 -0.2315134 -0.4332863 9
-3.82949 -0.2323531 0.1525008 21
-74.38166 -25.85297 4.579559 8
-3.836148 -0.2121245 0.3092773 98
nan nan nan 0
-5.373521 -0.2938999 0.9736932 19
nan nan nan 0
-54.21627 -18.93788 0.3305409 22
nan nan nan 0
-3.870281 -0.5892248 -0.02028936 74
-3.827308 -0.2321615 -0.0443766 8
-102.158 -35.74926 3.192191 11
-72.66205 -18.04736 1.737328 15
-3.873596 -0.5972331 0.06636116 57
-3.856795 -0.2412294 0.04673003 9
nan nan nan 0
-0.3125161 -0.1055409 -0.07582346 9
-9.16227 -3.19018 -1.342458 11
-12.95117 -4.385822 -1.291193 13
-17.69154 -6.061895 -1.196983 10
-16.93886 -4.140007 -1.216553 10
-3.876338 -0.5757925 -0.2930213 88
-3.875413 -0.2222753 -0.3138612 42
-25.41434 -8.899008 -1.094025 14
nan nan nan 0
-3.889151 -0.596214 -0.2041102 104
-3.85565 -0.2405254 -0.2224723 58
-34.77024 -12.03446 -0.6415504 14
-37.15894 -9.132098 -0.8874647 8
-3.859836 -0.5807843 -0.1126372 75
-3.84051 -0.2289146 -0.1316379 9
-3.825099 -0.2419161 -0.6879585 6
-3.884176 -0.2179565 -0.4332863 10
-3.830278 -0.2189843 0.1525008 36
-74.4384 -25.58181 4.577526 16
-3.836865 -0.1987326 0.3092773 97
nan nan nan 0
-5.374514 -0.275141 0.9736932 19
nan nan nan 0
-54.42855 -18.79913 0.3314336 9
nan nan nan 0
-3.867368 -0.5749784 -0.02026318 69
-3.828095 -0.2188003 -0.0443766 9
-102.1736 -35.35485 3.1888 11
-77.54116 -18.97222 1.852453 6
-3.875657 -0.583708 0.06636116 60
-3.852622 -0.2274774 0.04666894 9
nan nan nan 0
nan nan nan 0
-9.187395 -3.163022 -1.344522 13
-12.95696 -4.337423 -1.29025 13
-17.69842 -5.995296 -1.196023 13
-16.96291 -4.083189 -1.21725 9
-3.878325 -0.5622581 -0.2930213 84
-3.876165 -0.2087462 -0.3138612 49
-25.49717 -8.828234 -1.096261 14
-23.68291 -5.823842 -1.135471 12
-3.886271 -0.5818975 -0.2038485 104
-3.851482 -0.2267787 -0.2221818 59
-34.92555 -11.95188 -0.6436448 32
-37.24403 -9.015273 -0.8887413 8
-3.86184 -0.5673074 -0.1126372 89
-3.841286 -0.2155073 -0.1316379 8
-3.825921 -0.2285626 -0.6879585 6
-3.884913 -0.2043968 -0.4332863 10
-3.831018 -0.2056128 0.1525008 21
-75.64261 -25.70087 4.646069 15
-3.837535 -0.1853382 0.3092773 96
nan nan nan 0
-5.370528 -0.2561496 0.9727966 18
nan nan nan 0
nan nan nan 0
-60.45533 -14.47867 0 35
-3.864403 -0.5607595 -0.020237 71
-3.828835 -0.2054364 -0.0443766 9
-102.1781 -34.95752 3.185113 6
nan nan nan 0
-3.872725 -0.5694507 0.06627565 59
-3.8484 -0.2137575 0.04660786 9
nan nan nan 0
-0.3360784 -0.1113392 -0.08214208 10
-9.212442 -3.135729 -1.346586 15
-12.96257 -4.289038 -1.289307 13
-17.68612 -5.922381 -1.193783 72
-16.98676 -4.026254 -1.217948 8
-3.875327 -0.5480212 -0.2926446 81
-3.87687 -0.1952146 -0.3138612 51
-25.52311 -8.737557 -1.096058 13
nan nan nan 0
-3.883337 -0.5676084 -0.2035869 104
-3.847266 -0.2130641 -0.2218914 55
-35.15173 -11.89241 -0.6470479 37
-37.25096 -8.879416 -0.888161 9
-3.858849 -0.5531168 -0.1124915 89
-3.842015 -0.2020974 -0.1316379 10
-3.831607 -0.2154757 -0.6888508 6
-3.885603 -0.1908347 -0.4332863 11
-3.836703 -0.1924819 0.1527015 33
nan nan nan 0
-3.838159 -0.1719416 0.3092773 97
nan nan nan 0
-16.33047 -0.7101362 2.972185 28
nan nan nan 0
-54.80479 -18.50188 0.3329311 18
-60.76342 -14.32838 0 13
-3.861386 -0.5465684 -0.02021082 77
-3.829529 -0.1920701 -0.0443766 12
nan nan nan 0
-77.47231 -18.3831 1.847695 9
-3.874689 -0.555929 0.06627565 62
-3.849123 -0.2003227 0.04660786 10
nan nan nan 0
-0.3273207 -0.1070043 -0.07961464 10
-9.237411 -3.108298 -1.348651 12
-12.968 -4.240666 -1.288364 13
-17.75879 -5.877871 -1.197303 100
-16.99586 -3.965801 -1.217599 9
-3.877216 -0.5344903 -0.2926446 93
-3.882506 -0.1819066 -0.3142683 51
-25.59604 -8.662835 -1.097887 13
-23.791 -5.674592 -1.138732 10
-3.885295 -0.5540496 -0.2035869 105
-3.847986 -0.1996334 -0.2218914 58
-34.95599 -11.69032 -0.6426849 25
-37.29146 -8.751615 -0.8883931 8
-3.860756 -0.5396435 -0.1124915 79
-3.842697 -0.188685 -0.1316379 10
-3.827423 -0.2018473 -0.6879585 7
-3.886245 -0.1772702 -0.4332863 12
-3.837352 -0.1790882 0.1527015 32
nan nan nan 0
-3.838736 -0.1585428 0.3092773 97
nan nan nan 0
-16.31319 -0.6523486 2.968599 29
nan nan nan 0
-54.81212 -18.29146 0.3325855 46
-60.73514 -14.0981 0 13
-3.86327 -0.5330863 -0.02021082 72
-3.830176 -0.1787013 -0.0443766 11
nan nan nan 0
-61.85755 -14.44964 1.473885 33
-3.871655 -0.5417098 0.06619013 59
-3.844805 -0.1866501 0.04654677 10
nan nan nan 0
-0.3231146 -0.1042965 -0.07835092 9
-9.2623 -3.080732 -1.350715 12
-12.97799 -4.193841 -1.287893 12
-17.78868 -5.81895 -1.197943 100
-17.0096 -3.90645 -1.217599 9
-3.874116 -0.520292 -0.292268 86
-3.883118 -0.168353 -0.3142683 51
-25.64033 -8.578195 -1.098497 14
-23.85929 -5.602933 -1.141061 10
-3.882259 -0.5397987 -0.2033252 104
-3.843674 -0.1859659 -0.2216009 62
-35.12473 -11.61061 -0.6450409 29
-37.351 -8.628142 -0.8890895 10
-3.857664 -0.5254915 -0.1123458 79
-3.843332 -0.1752703 -0.1316379 16
-3.818276 -0.1880155 -0.686174 7
-3.886841 -0.1637037 -0.4332863 11
-3.837953 -0.1656922 0.1527015 38
nan nan nan 0
-3.834286 -0.1449613 0.3088719 98
nan nan nan 0
-16.31537 -0.595401 2.968599 31
nan nan nan 0
nan nan nan 0
-60.73036 -13.87376 0 9
-3.860152 -0.5189338 -0.02018464 71
-3.835772 -0.1655389 -0.04443507 12
-113.804 -37.60912 3.535181 7
nan nan nan 0
-3.873522 -0.5281919 0.06619013 55
-3.845433 -0.1732281 0.04654677 11
nan nan nan 0
nan nan nan 0
-9.287108 -3.05303 -1.352779 11
-12.98781 -4.146998 -1.287422 14
-17.82788 -5.762965 -1.199223 99
-17.04259 -3.851452 -1.218994 3
-3.875909 -0.5067656 -0.292268 95
-3.883682 -0.1547974 -0.3142683 58
-25.70806 -8.501197 -1.100123 13
-23.95169 -5.536493 -1.144555 9
-3.88412 -0.5262437 -0.2033252 102
-3.849286 -0.1727647 -0.2218914 56
-35.26959 -11.5221 -0.6469607 35
-37.29316 -8.477761 -0.8870005 6
-3.85452 -0.5113676 -0.1122001 75
-3.84392 -0.1618536 -0.1316379 11
-3.863143 -0.1766483 -0.6942046 10
-3.887388 -0.150135 -0.4332863 10
-3.838508 -0.1522943 0.1527015 40
-184.3258 -59.77864 11.2726 6
-3.834768 -0.1315763 0.3088719 98
nan nan nan 0
-5.37358 -0.1811404 0.9727966 17
nan nan nan 0
-60.69508 -19.78545 0.3674596 10
nan nan nan 0
-3.86194 -0.5054562 -0.02018464 68
-3.836326 -0.1521486 -0.04443507 34
-113.8633 -37.18837 3.532969 6
-61.92766 -14.01083 1.473189 6
-3.870386 -0.5140116 0.06610461 57
-3.85101 -0.1600046 0.04660786 13
nan nan nan 0
-0.3421887 -0.1081686 -0.08340581 10
-9.307128 -3.023659 -1.354155 13
-13.0022 -4.101637 -1.287422 15
-17.89066 -5.714375 -1.202104 34
nan nan nan 0
-3.872708 -0.4926065 -0.2918914 88
-3.884198 -0.1412399 -0.3142683 50
-25.72808 -8.408302 -1.099717 13
nan nan nan 0
-3.880983 -0.5120315 -0.2030635 103
-3.849866 -0.1593271 -0.2218914 61
-35.6426 -11.50647 -0.653069 31
nan nan nan 0
-3.851325 -0.497272 -0.1120543 91
-3.844462 -0.1484348 -0.1316379 9
-3.907977 -0.1649702 -0.7022352 14
-3.892854 -0.1367319 -0.4338454 10
-3.834024 -0.138721 0.1525008 44
-185.0658 -59.30549 11.30513 6
-3.835204 -0.1181896 0.3088719 99
nan nan nan 0
-5.384014 -0.1626687 0.9745898 18
nan nan nan 0
nan nan nan 0
-3.866907 -0.8532631 0 44
-3.85872 -0.4913432 -0.02015846 71
-3.836834 -0.1387564 -0.04443507 73
-109.9497 -35.48569 3.407629 6
-3.879333 -0.8616081 0.09133447 42
-3.867198 -0.4998596 0.0660191 60
-3.851545 -0.1465611 0.04660786 16
nan nan nan 0
-0.3195952 -0.09939057 -0.07708719 9
-9.327053 -2.994185 -1.355532 14
-13.01644 -4.056226 -1.287422 13
-17.87243 -5.639867 -1.199543 8
-3.966681 -0.8660145 -0.2811186 41
-3.874404 -0.4790852 -0.2918914 93
-3.884667 -0.1276806 -0.3142683 55
-25.73351 -8.31076 -1.0987 12
-3.948256 -0.8819931 -0.1867995 19
-3.877794 -0.4978477 -0.2028018 107
-3.850399 -0.1458876 -0.2218914 63
nan nan nan 0
-3.871648 -0.8500674 -0.09110236 45
-3.848077 -0.483205 -0.1119086 79
-3.844957 -0.1350142 -0.1316379 14
-3.928194 -0.1520626 -0.7058044 9
-3.893308 -0.1231425 -0.4338454 11
-3.834485 -0.1253369 0.1525008 48
-72.62854 -22.99153 4.430276 16
-3.835593 -0.1048016 0.3088719 100
nan nan nan 0
-5.374715 -0.1436216 0.9727966 17
nan nan nan 0
-72.43753 -23.0562 0.437611 10
-3.894291 -0.845073 0 47
-3.860412 -0.4778708 -0.02015846 72
-3.842292 -0.1255187 -0.04449353 21
-87.50341 -27.90317 2.708673 5
-3.911615 -0.8544762 0.09203079 45
-3.86892 -0.4863575 0.0660191 55
-3.852033 -0.1331158 0.04660786 23
nan nan nan 0
nan nan nan 0
-9.342168 -2.963109 -1.35622 14
-13.03052 -4.010766 -1.287422 14
-17.85867 -5.567041 -1.197303 8
-3.940423 -0.8458693 -0.2790259 57
-3.876053 -0.4655581 -0.2918914 95
-3.88509 -0.1141199 -0.3142683 60
-25.77664 -8.225442 -1.09931 15
-3.9318 -0.863909 -0.1858679 41
-3.874552 -0.4836923 -0.2025401 103
-3.850884 -0.1324463 -0.2218914 59
nan nan nan 0
-3.894134 -0.8407765 -0.09156658 48
-3.849741 -0.4697698 -0.1119086 73
-3.845405 -0.121592 -0.1316379 18
-3.928701 -0.1383497 -0.7058044 8
-3.893714 -0.1095516 -0.4338454 10
-3.834898 -0.1119513 0.1525008 58
-72.90844 -22.80046 4.442474 24
-3.835936 -0.09141219 0.3088719 103
nan nan nan 0
-5.375183 -0.1248595 0.9727966 17
nan nan nan 0
-72.40787 -22.76871 0.4369486 10
-3.902107 -0.8325197 0 51
-3.862056 -0.4643925 -0.02015846 64
-3.837709 -0.1119671 -0.04443507 4
nan nan nan 0
-3.899914 -0.8376607 0.09168263 49
-3.865631 -0.4722455 0.06593358 47
-3.852474 -0.1196689 0.04660786 25
nan nan nan 0
-0.315677 -0.09567249 -0.07582346 10
-9.352455 -2.930481 -1.35622 15
-13.04444 -3.965256 -1.287422 14
-17.92091 -5.517896 -1.200184 7
-3.904312 -0.8238541 -0.2762356 83
-3.877654 -0.4520253 -0.2918914 90
-3.880483 -0.1004359 -0.3138612 58
-25.78614 -8.129402 -1.098497 14
-3.920147 -0.8470076 -0.1851691 48
-3.876217 -0.4701647 -0.2025401 105
-3.851323 -0.1190034 -0.2218914 61
nan nan nan 0
-3.901934 -0.8282184 -0.09168263 52
-3.856321 -0.4569145 -0.1120543 70
-3.845805 -0.1081683 -0.1316379 45
-3.938995 -0.1249339 -0.707589 8
-3.89904 -0.09607463 -0.4344045 9
-3.835266 -0.09856429 0.1525008 74
nan nan nan 0
-3.836232 -0.07802172 0.3088719 107
nan nan nan 0
-5.385423 -0.1062796 0.9745898 17
nan nan nan 0
-72.41528 -22.49356 0.4365167 14
-3.880524 -0.8137515 0 53
-3.858688 -0.4503313 -0.02013228 36
-3.838077 -0.09857028 -0.04443507 3
-72.23962 -22.48041 2.231054 25
-3.883252 -0.8199022 0.09121841 63
-3.867256 -0.458749 0.06593358 22
-3.84787 -0.1060896 0.04654677 35
nan nan nan 0
-0.3298374 -0.09897518 -0.07961464 10
-9.367357 -2.899284 -1.356908 15
-13.0582 -3.919698 -1.287422 11
-17.95438 -5.459666 -1.201144 8
-3.902281 -0.8092057 -0.2758868 96
-3.874254 -0.4379295 -0.2915147 95
-3.880809 -0.08688989 -0.3138612 59
-25.79528 -8.033397 -1.097684 17
-3.90354 -0.8291581 -0.1842375 58
-3.872876 -0.4560496 -0.2022785 104
-3.846725 -0.1054293 -0.2216009 61
-37.2237 -11.44576 -0.6790731 26
-3.88523 -0.8105009 -0.09121841 65
-3.862857 -0.444019 -0.1122001 47
-3.851155 -0.09485921 -0.1318107 37
-3.909899 -0.1103902 -0.7022352 7
-3.889417 -0.08226789 -0.4332863 10
-3.830592 -0.08507236 0.1523001 93
-73.10403 -22.30257 4.444798 11
-3.841464 -0.06470683 0.3092773 112
nan nan nan 0
-5.371006 -0.0872562 0.9719001 17
nan nan nan 0
-59.46811 -18.24351 0.3580427 33
-3.883341 -0.8002009 0 61
-3.860236 -0.4368593 -0.02013228 13
-3.838398 -0.0851723 -0.04443507 3
-59.43369 -18.26695 1.833357 62
-3.886091 -0.8063422 0.09121841 66
-3.863867 -0.4446776 0.06584806 11
-3.848217 -0.09265741 0.04654677 47
nan nan nan 0
nan nan nan 0
-9.382155 -2.868018 -1.357596 15
-13.07181 -3.874093 -1.287422 13
-17.99244 -5.402706 -1.202424 8
-3.89042 -0.7925858 -0.2748405 99
-3.875759 -0.4244032 -0.2915147 88
-3.881089 -0.0733428 -0.3138612 60
-25.78019 -7.930077 -1.095855 25
-3.901521 -0.814504 -0.1840045 68
-3.874444 -0.4425279 -0.2022785 104
-3.84707 -0.09200106 -0.2216009 59
-36.20152 -10.99312 -0.6597009 7
-3.878243 -0.7949219 -0.0909863 68
-3.869351 -0.4310835 -0.1123458 11
-3.851463 -0.08141559 -0.1318107 23
-3.885669 -0.09616621 -0.6977738 7
-3.899616 -0.06885208 -0.4344045 7
-3.830865 -0.07170058 0.1523001 92
-72.50756 -21.84418 4.403847 7
-3.841666 -0.05129723 0.3092773 229
-4.079343 -1.202822 0.5173354 11
-5.371278 -0.06850737 0.9719001 17
nan nan nan 0
-59.51707 -18.03146 0.3579563 30
-3.87631 -0.7846521 0 56
-3.856767 -0.4228392 -0.0201061 15
-3.853668 -0.07203242 -0.04461047 4
-59.45405 -18.04631 1.83203 87
-3.879087 -0.7907706 0.0909863 60
-3.865396 -0.4311874 0.06584806 12
-3.843518 -0.07912808 0.04648569 105
nan nan nan 0
-0.3166616 -0.09236154 -0.07582346 10
-9.401591 -2.838119 -1.358972 15
-13.08525 -3.82844 -1.287422 15
-18.03989 -5.348385 -1.204344 9
-3.883383 -0.7770393 -0.2741429 99
-3.877217 -0.4108717 -0.2915147 93
-3.876339 -0.05972525 -0.3134541 56
-25.78382 -7.832774 -1.094838 115
-3.889664 -0.7978622 -0.1833058 76
-3.875965 -0.4290009 -0.2022785 104
-3.847367 -0.07857172 -0.2216009 58
-36.21095 -10.85807 -0.6591774 9
-3.871194 -0.7794018 -0.0907542 71
-3.875802 -0.418108 -0.1124915 6
-3.851723 -0.06797098 -0.1318107 24
-3.861387 -0.0821127 -0.6933123 9
-4.098562 -0.0577716 -0.4567676 15
-3.821101 -0.05819016 0.1518988 102
-73.37756 -21.82726 4.452059 16
-3.841821 -0.037887 0.3092773 241
-3.92633 -1.14261 0.4972269 36
-5.38624 -0.04987874 0.9745898 18
nan nan nan 0
-59.49822 -17.79923 0.3574668 28
-3.874121 -0.7701393 0 65
-3.858219 -0.409374 -0.0201061 14
-3.853896 -0.05858017 -0.04461047 13
-59.45923 -17.82144 1.83026 99
-3.876923 -0.7762415 0.09087025 60
-3.861907 -0.4171574 0.06576254 13
-3.838773 -0.06563269 0.0464246 110
nan nan nan 0
-0.316982 -0.09125562 -0.07582346 9
-9.416186 -2.806701 -1.35966 15
-13.09853 -3.78274 -1.287422 14
-18.09676 -5.296606 -1.206905 10
-3.881178 -0.7625154 -0.2737941 100
-3.873667 -0.3968296 -0.2911381 90
-3.876523 -0.04619394 -0.3134541 60
nan nan nan 0
-3.88753 -0.7832909 -0.1830729 81
-3.877439 -0.4154686 -0.2022785 104
-3.852609 -0.06521896 -0.2218914 62
-37.72498 -11.16892 -0.6860541 31
-3.864085 -0.7639405 -0.0905221 71
-3.867295 -0.4035437 -0.1122001 7
-3.851937 -0.05452555 -0.1318107 29
-3.846893 -0.06839132 -0.6906354 8
-4.098739 -0.04346459 -0.4567676 15
-3.816286 -0.04480023 0.1516982 108
-71.58072 -21.02092 4.338499 16
-3.841931 -0.02447631 0.3092773 121
-4.14009 -1.189452 0.5240381 30
-16.22272 -0.08214237 2.94977 21
nan nan nan 0
-59.50724 -17.57586 0.35715 29
-3.866972 -0.7546913 0 63
-3.859625 -0.3959038 -0.0201061 12
-3.894073 -0.04553907 -0.04507821 7
-59.48275 -17.60243 1.829081 91
-3.874705 -0.7617372 0.0907542 65
-3.863339 -0.4036742 0.06576254 13
-3.843977 -0.05229355 0.04648569 65
nan nan nan 0
nan nan nan 0
-9.430676 -2.775216 -1.360348 15
-13.10687 -3.735629 -1.28695 14
-18.15349 -5.244494 -1.209465 9
-3.874021 -0.7470697 -0.2730966 100
-3.875029 -0.3833056 -0.2911381 90
-3.876661 -0.03266206 -0.3134541 64
nan nan nan 0
-3.880442 -0.7677724 -0.182607 76
-3.873899 -0.4014189 -0.2020168 103
-3.852814 -0.05177044 -0.2218914 60
nan nan nan 0
-3.861821 -0.7494931 -0.09040604 75
-3.863708 -0.3895428 -0.1120543 7
-3.852104 -0.04107944 -0.1318107 15
-3.827431 -0.05470859 -0.6870663 13
-4.113771 -0.02924291 -0.4584448 10
-3.806427 -0.03141062 0.1512969 108
-71.44273 -20.70976 4.32572 11
-3.841993 -0.01106532 0.3092773 106
-4.153763 -1.177712 0.5252569 11
-16.21799 -0.025508 2.948874 36
-4.070229 -1.140224 1.121981 9
-59.48663 -17.34423 0.3566604 33
-3.869583 -0.7411885 0 65
-3.860983 -0.3824288 -0.0201061 13
-3.874209 -0.03180981 -0.04484434 8
-59.46707 -17.37226 1.826721 92
-3.882248 -0.7491568 0.09087025 67
-3.864725 -0.3901862 0.06576254 13
-3.849136 -0.03891888 0.04654677 38
nan nan nan 0
nan nan nan 0
-9.445061 -2.743664 -1.361036 15
-13.11983 -3.689855 -1.28695 14
-18.21486 -5.19342 -1.212345 9
-3.871705 -0.7326128 -0.2727478 100
-3.876343 -0.3697769 -0.2911381 88
-3.876751 -0.01912979 -0.3134541 60
nan nan nan 0
-3.873294 -0.7523131 -0.1821412 85
-3.875277 -0.387894 -0.2020168 100
-3.852971 -0.0383213 -0.2218914 62
nan nan nan 0
-3.859504 -0.7350706 -0.09028999 75
-3.865044 -0.3760536 -0.1120543 8
-3.852224 -0.02763284 -0.1318107 9
-3.80792 -0.04116256 -0.6834971 11
-4.118817 -0.01489426 -0.4590039 10
-3.811509 -0.01814009 0.1514975 103
-71.68734 -20.5097 4.336176 11
-3.837024 0.002335366 0.3088719 101
nan nan nan 0
-16.21798 0.0311035 2.948874 37
-3.953192 -1.09241 1.088334 37
-59.55162 -17.13786 0.3566892 14
-3.87706 -0.7286024 0 63
-3.862295 -0.3689491 -0.0201061 14
-3.864297 -0.01825295 -0.0447274 7
-59.49854 -17.15627 1.825837 85
-3.88975 -0.736533 0.0909863 53
-3.861087 -0.3762107 0.06567702 14
-3.849248 -0.02548265 0.04654677 15
nan nan nan 0
nan nan nan 0
-9.45934 -2.712046 -1.361724 15
-13.12784 -3.642703 -1.286479 14
-18.23769 -5.13116 -1.212666 10
-3.869335 -0.7181812 -0.272399 100
-3.872645 -0.35579 -0.2907615 91
-3.876795 -0.005597288 -0.3134541 62
nan nan nan 0
-3.870991 -0.7378506 -0.1819083 84
-3.871637 -0.3738867 -0.2017551 98
-3.853081 -0.02487169 -0.2218914 63
nan nan nan 0
-3.86696 -0.7225145 -0.09040604 74
-3.861356 -0.3620955 -0.1119086 8
-3.852297 -0.0141859 -0.1318107 7
-3.81788 -0.02792858 -0.6852816 7
-4.123813 -0.0005107461 -0.459563 9
-3.811549 -0.004835327 0.1514975 105
-71.47988 -20.18066 4.319331 13
-3.836993 0.01572907 0.3088719 99
nan nan nan 0
-16.21285 0.08768632 2.947977 36
-4.120012 -1.123266 1.133627 30
-62.07359 -17.62949 0.3714337 24
-3.884496 -0.7159731 0 61
-3.863559 -0.355465 -0.0201061 15
-3.859338 -0.004764793 -0.04466894 12
nan nan nan 0
-3.897212 -0.723866 0.09110236 70
-3.862377 -0.3627308 0.06567702 14
-3.854313 -0.01205483 0.04660786 15
nan nan nan 0
nan nan nan 0
-9.473514 -2.680361 -1.362412 15
-13.14047 -3.596856 -1.286479 14
-18.2651 -5.070139 -1.213306 8
-3.871819 -0.7046703 -0.272399 101
-3.873863 -0.3422698 -0.2907615 95
-3.881774 0.007952681 -0.3138612 64
nan nan nan 0
-3.863724 -0.7224929 -0.1814424 91
-3.867946 -0.3599096 -0.2014934 97
-3.853144 -0.01142177 -0.2218914 59
nan nan nan 0
-3.879291 -0.7108182 -0.09063815 75
-3.857619 -0.3481678 -0.1117629 9
-3.852323 -0.0007387861 -0.1318107 6
-3.822874 -0.01461354 -0.686174 8
-4.123789 0.01388405 -0.459563 11
-3.821535 0.008506114 0.1518988 102
-62.34665 -17.36662 3.763441 9
-3.836915 0.02912258 0.3088719 97
nan nan nan 0
-16.20261 0.1441882 2.946184 36
-4.165869 -1.120215 1.145274 28
-62.04809 -17.38841 0.3709154 127
-3.886972 -0.7024093 0 47
-3.864776 -0.3419765 -0.0201061 14
-3.854331 0.008688515 -0.04461047 10
-62.2488 -17.47978 1.906497 34
-3.899715 -0.7102578 0.09110236 50
-3.85864 -0.3487985 0.06559151 15
-3.854332 0.001399303 0.04660786 39
nan nan nan 0
-0.3185264 -0.08570962 -0.07582346 10
-9.482813 -2.647275 -1.362412 15
-13.15775 -3.552264 -1.28695 13
-18.29231 -5.008989 -1.213946 9
-3.874254 -0.6911509 -0.272399 100
-3.870067 -0.3283265 -0.2903849 91
-3.881722 0.02150255 -0.3138612 62
-26.15861 -7.351952 -1.103986 15
-3.856398 -0.7071949 -0.1809766 86
-3.869179 -0.3464057 -0.2014934 96
-3.848169 0.002018699 -0.2216009 63
-38.7813 -10.7493 -0.7017612 34
-3.891587 -0.6990447 -0.09087025 65
-3.858811 -0.3347 -0.1117629 9
-3.852302 0.01270834 -0.1318107 6
-3.827821 -0.001263974 -0.6870663 6
-4.128684 0.02831943 -0.4601221 10
-51.66168 0.3641888 2.073409 151
-60.05812 -16.50325 3.621709 6
-3.836789 0.04251573 0.3088719 97
nan nan nan 0
-16.19217 0.2006197 2.944391 27
nan nan nan 0
-62.11804 -17.17438 0.3709729 133
-3.894323 -0.6897113 0 57
-3.865947 -0.3284838 -0.0201061 15
-3.854277 0.02214259 -0.04461047 5
-63.58577 -17.6161 1.945573 18
-3.892329 -0.6948791 0.09087025 65
-3.859834 -0.3353272 0.06559151 15
-3.854304 0.01485342 0.04660786 28
nan nan nan 0
-0.3188236 -0.08459724 -0.07582346 10
-9.482448 -2.611523 -1.361036 15
-13.17488 -3.507596 -1.287422 13
-18.3145 -4.946409 -1.214266 9
-3.881557 -0.678484 -0.2727478 98
-3.871189 -0.3148155 -0.2903849 93
-3.881624 0.03505216 -0.3138612 65
-26.22263 -7.271285 -1.105612 13
-3.878505 -0.697274 -0.1819083 81
-3.86539 -0.332472 -0.2012317 96
-3.85313 0.01547831 -0.2218914 60
-38.5148 -10.53076 -0.6962637 32
-3.908772 -0.6880629 -0.09121841 62
-3.864937 -0.3216404 -0.1119086 8
-3.847238 0.02611431 -0.1316379 6
-3.832722 0.01211995 -0.6879585 7
-4.12856 0.04273105 -0.4601221 11
-51.6551 0.5444663 2.073208 152
-72.87242 -19.75235 4.390777 9
-3.836618 0.05590836 0.3088719 98
nan nan nan 0
-5.376014 0.08157405 0.9727966 16
nan nan nan 0
nan nan nan 0
-3.896707 -0.6761133 0 60
-3.872053 -0.3153907 -0.02013228 15
-3.854177 0.03559639 -0.04461047 9
nan nan nan 0
-3.889807 -0.6804245 0.0907542 73
-3.860981 -0.3218518 0.06559151 16
-3.849229 0.02826373 0.04654677 25
nan nan nan 0
-0.3330906 -0.08740373 -0.07961464 9
-9.48195 -2.575805 -1.35966 15
-13.18705 -3.461586 -1.287422 12
-18.3413 -4.88502 -1.214906 8
-3.883901 -0.6649306 -0.2727478 99
-3.867293 -0.3009163 -0.2900082 95
-3.881478 0.04860134 -0.3138612 65
-26.2864 -7.190259 -1.107238 15
-3.885833 -0.6846002 -0.1821412 64
-3.866527 -0.3189773 -0.2012317 96
-3.863035 0.02901701 -0.2224723 59
-38.91331 -10.49393 -0.7028084 33
-3.901298 -0.6727111 -0.0909863 75
-3.866036 -0.3081473 -0.1119086 10
-3.847123 0.03954352 -0.1316379 7
-3.827737 0.02545907 -0.6870663 8
-4.128386 0.05714216 -0.4601221 11
-3.836223 0.04873582 0.1525008 82
-72.67571 -19.42694 4.374803 14
-3.836399 0.06930032 0.3088719 98
nan nan nan 0
-5.380615 0.1004363 0.9736932 17
nan nan nan 0
nan nan nan 0
-3.889185 -0.6608274 0 61
-3.873131 -0.3018728 -0.02013228 16
-3.854029 0.04904976 -0.04461047 6
nan nan nan 0
-3.887232 -0.6659958 0.09063815 71
-3.862081 -0.3083725 0.06559151 16
-3.849107 0.04169988 0.04654677 12
nan nan nan 0
-0.3473808 -0.0901116 -0.08340581 9
-9.481316 -2.540123 -1.358284 16
-13.21832 -3.420529 -1.289307 12
-18.36306 -4.822237 -1.215226 10
-3.886199 -0.6513693 -0.2727478 104
-3.86832 -0.2874151 -0.2900082 93
-3.881285 0.06214993 -0.3138612 65
-26.34992 -7.108877 -1.108864 15
-3.893121 -0.6718838 -0.1823741 85
-3.867617 -0.3054786 -0.2012317 95
-3.867902 0.0425632 -0.2227627 56
-39.23475 -10.43388 -0.7079568 37
-3.898694 -0.6582545 -0.09087025 69
-3.867088 -0.2946504 -0.1119086 11
-3.846962 0.05297225 -0.1316379 8
-3.827625 0.03882021 -0.6870663 7
-4.128161 0.07155256 -0.4601221 9
-3.841024 0.0622145 0.1527015 77
-75.19984 -19.82087 4.522635 9
-3.836134 0.08269142 0.3088719 97
nan nan nan 0
-16.17443 0.3698271 2.941701 38
nan nan nan 0
nan nan nan 0
-3.886537 -0.6464249 0 67
-3.874161 -0.2883513 -0.02013228 17
-3.853834 0.06250254 -0.04461047 10
-73.29152 -19.48185 2.236362 10
-3.879675 -0.6507642 0.09040604 72
-3.863134 -0.2948894 0.06559151 16
-3.848938 0.05513551 0.04654677 6
nan nan nan 0
-0.3290258 -0.08380213 -0.07835092 9
-9.48055 -2.504476 -1.356908 16
-13.26394 -3.382991 -1.292607 12
-18.37979 -4.758107 -1.215226 10
-3.888449 -0.6377999 -0.2727478 105
-3.8693 -0.2739104 -0.2900082 93
-3.881044 0.07569776 -0.3138612 67
-26.42285 -7.029709 -1.110897 15
-3.900367 -0.6591249 -0.182607 88
-3.868659 -0.2919763 -0.2012317 95
-3.877712 0.05622299 -0.2233436 53
-39.63843 -10.39327 -0.7145888 30
-3.891105 -0.643007 -0.09063815 76
-3.868093 -0.28115 -0.1119086 12
-3.846754 0.06640033 -0.1316379 7
-3.827466 0.05218089 -0.6870663 8
-4.122919 0.08585199 -0.459563 10
-3.840784 0.0756218 0.1527015 69
-72.60182 -18.86511 4.362315 13
-3.840804 0.09621371 0.3092773 96
nan nan nan 0
-16.17796 0.4264155 2.942598 36
nan nan nan 0
-73.5014 -19.22213 0.4373518 7
-3.883835 -0.632049 0 75
-3.870156 -0.2744747 -0.0201061 17
-3.853593 0.07595455 -0.04461047 7
-73.55728 -19.27785 2.242408 8
-3.87699 -0.6364055 0.09028999 68
-3.86414 -0.2814028 0.06559151 16
-3.848722 0.06857047 0.04654677 5
nan nan nan 0
-0.3386589 -0.08516867 -0.08087836 9
-9.47965 -2.468866 -1.355532 16
-13.30463 -3.343962 -1.295436 12
-18.39145 -4.692686 -1.214906 10
-3.885727 -0.6234306 -0.272399 105
-3.870233 -0.2604023 -0.2900082 91
-3.880756 0.08924468 -0.3138612 65
-26.49072 -6.948851 -1.112726 14
-3.897717 -0.6446885 -0.1823741 84
-3.869655 -0.2784704 -0.2012317 94
-3.877492 0.06975839 -0.2233436 56
-39.94551 -10.32494 -0.7194754 28
-3.888392 -0.6286206 -0.0905221 75
-3.869051 -0.2676461 -0.1119086 13
-3.851494 0.07993834 -0.1318107 8
-3.82726 0.06554091 -0.6870663 8
-4.122594 0.1002431 -0.459563 8
-3.845491 0.08915111 0.1529021 49
-72.14501 -18.47778 4.330948 17
-3.840444 0.10962 0.3092773 96
nan nan nan 0
-16.16654 0.4825875 2.940804 26
nan nan nan 0
-73.12263 -18.85058 0.4347024 8
-3.876143 -0.6169116 0 70
-3.87109 -0.2609637 -0.0201061 18
-3.853304 0.08940563 -0.04461047 6
-73.65315 -19.02848 2.243293 9
-3.874253 -0.6220735 0.09017393 72
-3.865099 -0.2679127 0.06559151 16
-3.853457 0.08211803 0.04660786 12
nan nan nan 0
-0.3296028 -0.08150307 -0.07835092 9
-9.483415 -2.434527 -1.354843 17
-13.34521 -3.30469 -1.298264 12
-18.39804 -4.626023 -1.214266 10
-3.882952 -0.6090879 -0.2720502 106
-3.871118 -0.2468911 -0.2900082 93
-3.880421 0.1027905 -0.3138612 65
-26.54383 -6.86385 -1.113946 14
-3.899943 -0.631079 -0.1823741 93
-3.870604 -0.264961 -0.2012317 96
-3.872234 0.08317882 -0.2230531 58
-40.48028 -10.31262 -0.7284634 19
-3.885626 -0.6142609 -0.09040604 76
-3.869961 -0.2541389 -0.1119086 13
-3.851191 0.09338208 -0.1318107 6
-3.827008 0.07890014 -0.6870663 8
-4.127185 0.1147779 -0.4601221 9
-3.845156 0.1025738 0.1529021 47
-72.00581 -18.17451 4.31875 16
-3.840038 0.123025 0.3092773 95
nan nan nan 0
-16.16967 0.5391819 2.941701 38
nan nan nan 0
-73.05714 -18.56197 0.4339249 10
-3.873332 -0.6026067 0 68
-3.866988 -0.2471329 -0.02007992 18
-3.852969 0.1028556 -0.04461047 7
-73.94675 -18.82924 2.250223 8
-3.871464 -0.6077684 0.09005788 76
-3.86601 -0.2544194 0.06559151 16
-3.853147 0.0955686 0.04660786 28
nan nan nan 0
-0.3392453 -0.08280233 -0.08087836 10
-9.482254 -2.398974 -1.353467 18
-13.38568 -3.265175 -1.301093 12
-18.40439 -4.559371 -1.213626 9
-3.885055 -0.5955302 -0.2720502 105
-3.871956 -0.2333769 -0.2900082 90
-3.880038 0.1163351 -0.3138612 68
-26.60152 -6.779796 -1.115369 13
-3.897189 -0.6166788 -0.1821412 84
-3.871505 -0.2514485 -0.2012317 90
-3.866931 0.09656339 -0.2227627 60
-40.74391 -10.2285 -0.7325647 9
-3.882806 -0.5999281 -0.09028999 75
-3.870825 -0.2406287 -0.1119086 15
-3.850842 0.1068247 -0.1318107 7
-3.82671 0.09225842 -0.6870663 9
-4.12676 0.1291837 -0.4601221 10
-3.844775 0.1159953 0.1529021 46
-72.0349 -17.91461 4.316717 10
-3.839585 0.1364285 0.3092773 97
nan nan nan 0
-16.16278 0.5954385 2.940804 24
nan nan nan 0
-73.06329 -18.29226 0.4335793 7
-3.870469 -0.5883288 0 75
-3.862836 -0.233334 -0.02005374 19
-3.857583 0.1164623 -0.04466894 7
-74.31742 -18.64766 2.259513 6
-3.868621 -0.5934904 0.08994183 82
-3.866875 -0.2409229 0.06559151 17
-3.85279 0.109018 0.04660786 28
nan nan nan 0
nan nan nan 0
-9.485766 -2.36466 -1.352779 18
-13.43087 -3.226582 -1.304392 11
-18.4105 -4.492732 -1.212986 11
-3.882177 -0.5812244 -0.2717015 107
-3.867769 -0.2195798 -0.2896316 91
-3.879609 0.1298782 -0.3138612 69
-26.63471 -6.689333 -1.115775 14
-3.894383 -0.6023055 -0.1819083 94
-3.872359 -0.2379329 -0.2012317 96
-3.861581 0.109912 -0.2224723 55
-41.03657 -10.14987 -0.7371896 7
-3.879935 -0.5856227 -0.09017393 81
-3.866652 -0.2268252 -0.1117629 14
-3.850445 0.120266 -0.1318107 7
-3.826364 0.1056156 -0.6870663 7
-4.126284 0.143588 -0.4601221 8
-3.844346 0.1294154 0.1529021 47
-72.85331 -17.8484 4.362024 14
-3.839086 0.1498303 0.3092773 97
nan nan nan 0
-16.1606 0.6518536 2.940804 27
nan nan nan 0
-72.99078 -18.00358 0.432773 11
-3.872499 -0.5748147 0 73
-3.863627 -0.2198487 -0.02005374 21
-3.857153 0.1299271 -0.04466894 9
-74.84782 -18.50331 2.273669 9
-3.870669 -0.5799827 0.08994183 77
-3.867692 -0.2274235 0.06559151 17
-3.852386 0.1224661 0.04660786 25
nan nan nan 0
-0.3304383 -0.07804707 -0.07835092 9
-9.489154 -2.330349 -1.352091 18
