# .PCD v0.7 - Point Cloud Data file format
VERSION 0.7
FIELDS x y z intensity
SIZE 4 4 4 4
TYPE F F F F
COUNT 1 1 1 1
WIDTH 1715
HEIGHT 1
VIEWPOINT 0 0 0 1 0 0 0
POINTS 1715
DATA ascii
-46.70166 61.98857 3.115632 13
-21.26313 16.16403 1.551787 33
-46.32488 62.18534 6.303905 13
-21.23395 16.30008 3.281941 15
-13.93492 18.70604 4.244442 10
nan nan nan 0
-50.05727 37.91998 0.3614697 9
-50.27899 46.12316 0 11
-47.13224 51.92227 -0.3669625 9
-45.74637 60.7205 -0.8885844 14
-49.09162 37.14823 1.81522 7
nan nan nan 0
nan nan nan 0
-46.82756 61.9083 0.947917 11
nan nan nan 0
nan nan nan 0
-10.54122 7.999445 -1.833064 10
-17.94773 13.86312 -2.143974 10
-31.89215 24.45189 -2.575114 10
-24.66604 22.73165 -2.342771 17
-20.75036 23.02649 -2.338521 9
-17.50639 23.39193 -2.383473 8
nan nan nan 0
-32.65393 29.79887 -2.059686 54
-30.77376 33.82915 -2.394631 14
-28.41786 37.57988 -2.739081 5
-51.98455 39.60852 -1.140078 16
nan nan nan 0
-47.19659 52.17581 -2.050055 11
-45.61959 60.68432 -2.623257 8
-5.609437 7.39752 -1.67662 16
-10.66302 14.28064 -2.000944 10
-46.41618 62.05919 3.111017 14
-21.15901 16.20175 1.548302 33
-46.03049 62.24249 6.293366 12
-20.95703 16.20414 3.247818 8
-13.72919 18.56469 4.201406 14
nan nan nan 0
-50.07566 38.20972 0.362564 9
-49.99281 46.18303 0 12
-47.22521 52.39102 -0.3691092 9
-45.45329 60.7717 -0.8870058 9
-21.10011 16.08687 0.7816798 59
nan nan nan 0
-51.93814 57.39793 1.32346 7
-46.54213 61.97942 0.9465122 7
nan nan nan 0
-0.2678789 0.2086185 -0.07835092 10
-10.51323 8.036193 -1.833064 10
-17.89137 13.91957 -2.143031 9
-31.82635 24.57831 -2.576714 11
-24.48417 22.72261 -2.333005 12
-20.68316 23.11364 -2.340027 10
-17.38006 23.39288 -2.377366 9
-35.72403 27.21162 -1.825611 21
-32.39893 29.77412 -2.050137 72
-30.67891 33.96231 -2.396463 14
-26.97112 35.92627 -2.61158 28
-52.02049 39.92365 -1.143918 13
nan nan nan 0
-47.31808 52.67859 -2.063315 11
-45.33577 60.74708 -2.619111 12
-5.58358 7.417055 -1.67662 17
-10.60719 14.30979 -1.999826 10
-46.12483 62.12056 3.106 12
-20.99955 16.19627 1.540751 33
-45.73923 62.30235 6.283233 14
nan nan nan 0
-13.61484 18.54508 4.186163 16
nan nan nan 0
-49.81512 38.2868 0.3616425 11
-49.70317 46.23807 0 12
-47.32882 52.87595 -0.3713607 9
-45.33626 61.05846 -0.8888768 7
-21.01608 16.13913 0.7806476 43
nan nan nan 0
-82.99506 92.36715 2.123472 7
-31.84015 42.70792 0.6503721 17
nan nan nan 0
nan nan nan 0
-10.48512 8.072842 -1.833064 10
-17.86618 14.00035 -2.14586 10
-31.74824 24.69538 -2.577354 11
-24.24071 22.65469 -2.31731 10
-20.61891 23.20433 -2.34191 13
-17.25985 23.40126 -2.372074 8
-35.30378 27.08683 -1.808943 17
-32.24715 29.84293 -2.047109 65
-30.62685 34.14354 -2.401697 12
-27.06326 36.31239 -2.632782 15
-50.63878 39.14504 -1.116518 7
nan nan nan 0
-47.39672 53.1381 -2.074827 9
-31.48266 42.49067 -1.826865 10
-5.557656 7.436501 -1.67662 15
-10.55129 14.33872 -1.998708 10
-31.64789 42.93258 2.14063 15
-20.89557 16.23274 1.537266 46
-45.44516 62.35692 6.272694 13
-21.29642 16.70527 3.318502 38
-13.60794 18.67201 4.204095 15
nan nan nan 0
-49.62581 38.41761 0.3612393 11
-49.41374 46.29164 0 12
-47.40968 53.33981 -0.3734551 9
-45.47582 61.69529 -0.8958344 4
-21.00311 16.24601 0.7822697 33
nan nan nan 0
-82.48908 92.45112 2.118768 10
-31.61355 42.71431 0.6487839 15
nan nan nan 0
nan nan nan 0
-10.45687 8.109392 -1.833064 10
-17.78204 14.03489 -2.141617 11
-31.70898 24.84298 -2.581195 10
-24.0852 22.66738 -2.309985 8
-20.55428 23.29486 -2.343794 16
-17.1398 23.40909 -2.366782 9
-35.20111 27.20379 -1.808536 39
-32.40586 30.20048 -2.063879 58
-30.54734 34.29498 -2.404837 13
-26.87104 36.31835 -2.626392 30
-57.22775 44.55755 -1.265299 8
nan nan nan 0
-47.45615 53.58009 -2.085609 9
-44.75367 60.84874 -2.609956 8
-5.531664 7.455855 -1.67662 16
-10.49531 14.36744 -1.99759 9
-31.50078 43.04681 2.14083 12
-21.34992 16.70535 1.575022 65
-45.1542 62.41422 6.262561 14
-20.7122 16.36427 3.23624 15
-13.58592 18.77919 4.217544 6
nan nan nan 0
-49.51507 38.60905 0.3614121 12
-49.12455 46.34375 0 11
-47.48788 53.80488 -0.3755495 10
-45.6292 62.35803 -0.9031428 13
-21.29721 16.59253 0.7953935 101
nan nan nan 0
-81.93711 92.48032 2.112868 9
-31.45538 42.81231 0.6486006 15
nan nan nan 0
-0.2618432 0.2084652 -0.07708719 9
-10.4285 8.145844 -1.833064 10
-17.71345 14.08139 -2.13926 14
-31.6064 24.94115 -2.579915 10
-23.95524 22.70329 -2.305102 20
-20.47284 23.36646 -2.343794 17
-17.01404 23.4083 -2.360676 7
-35.32278 27.49524 -1.819716 43
-32.18734 30.20746 -2.056658 72
-30.48698 34.46872 -2.409547 15
-26.7766 36.45618 -2.629587 20
nan nan nan 0
nan nan nan 0
-47.54609 54.06067 -2.09785 7
-44.47322 60.91175 -2.605982 23
-5.505605 7.475119 -1.67662 16
-10.43927 14.39594 -1.996471 10
-45.24279 62.28486 3.090348 13
-20.74645 16.35042 1.534652 8
-44.8634 62.47025 6.252427 14
-20.68991 16.46428 3.241724 10
-13.4916 18.78654 4.208578 8
nan nan nan 0
-49.37606 38.77856 0.3613833 10
-48.83561 46.39443 0 13
-47.59636 54.30873 -0.3779057 10
-45.44945 62.5695 -0.9039028 4
nan nan nan 0
-57.93758 54.88735 1.851989 14
-81.40246 92.52554 2.107394 9
-31.29396 42.90569 0.6483563 12
nan nan nan 0
nan nan nan 0
-10.4 8.182197 -1.833064 9
-17.64475 14.12758 -2.136903 21
-25.6084 20.35475 -2.09568 15
-23.83615 22.74889 -2.301266 23
-20.40096 23.44907 -2.344923 20
-16.91474 23.4433 -2.358233 9
-34.80193 27.28553 -1.797762 41
-32.17245 30.40539 -2.062481 61
-30.45874 34.67998 -2.416874 12
-26.74033 36.67447 -2.638591 17
-54.76141 43.25496 -1.217393 11
nan nan nan 0
-47.65296 54.56511 -2.110964 9
-44.21049 60.99784 -2.603045 8
-5.479478 7.494291 -1.67662 16
-10.38025 14.42019 -1.994794 10
-44.94913 62.33704 3.085132 13
-20.67752 16.41343 1.533781 15
-44.57275 62.52502 6.242293 12
-20.69041 16.58294 3.250865 13
-13.41167 18.81349 4.204095 10
nan nan nan 0
-49.28746 38.9879 0.3617288 7
-48.53607 46.43327 0 13
-47.67564 54.78384 -0.3800524 9
nan nan nan 0
-20.63183 16.30705 0.7747492 10
nan nan nan 0
-80.88493 92.58698 2.102349 8
-31.32576 43.26576 0.6521435 13
nan nan nan 0
-0.2603815 0.2102881 -0.07708719 9
-10.37526 8.221524 -1.833752 10
-17.62634 14.21408 -2.140674 13
-20.46098 16.38157 -1.678657 6
-23.71704 22.79394 -2.297429 22
-20.29617 23.49373 -2.342287 19
-16.80379 23.46168 -2.354163 9
-35.14565 27.75356 -1.820529 31
-32.05889 30.51062 -2.062015 63
-30.4261 34.8877 -2.42394 12
-26.7965 37.02235 -2.656888 17
-25.5993 20.36963 -0.5703446 27
nan nan nan 0
-47.80273 55.12382 -2.126118 12
-20.71095 28.78119 -1.224475 6
-5.453285 7.513372 -1.67662 16
-10.32407 14.44825 -1.993676 10
-44.66439 62.40011 3.080516 14
-20.69808 16.54783 1.539589 12
-44.27938 62.57445 6.231754 14
-20.74826 16.74855 3.269145 12
-13.31751 18.82003 4.195129 10
nan nan nan 0
-25.61195 20.409 0.188395 25
-48.27647 46.50875 0 12
-47.79468 55.30933 -0.3825395 10
-44.48487 62.14938 -0.8933203 14
nan nan nan 0
nan nan nan 0
-80.33194 92.60442 2.096363 9
-44.77296 62.29904 0.9368607 11
nan nan nan 0
nan nan nan 0
-10.3465 8.25769 -1.833752 10
-17.63072 14.31944 -2.147274 8
-20.35706 16.41532 -1.674816 12
-23.623 22.86271 -2.296034 25
-20.20755 23.55686 -2.341534 19
-16.70736 23.49988 -2.352127 10
-25.55424 20.32665 -1.326978 103
-32.1325 30.79513 -2.073661 58
-30.34336 35.03899 -2.42708 14
-26.69913 37.16026 -2.660083 16
-53.43979 42.82038 -1.194617 6
-47.95942 46.30025 -1.546767 5
-47.76329 55.46835 -2.132967 14
-20.5639 28.78825 -1.221711 16
-5.424151 7.528369 -1.675728 15
-10.26783 14.47609 -1.992558 11
-44.38554 62.47012 3.076303 14
-20.75296 16.71074 1.548012 12
-43.98908 62.62668 6.221621 13
-20.68967 16.82088 3.269145 8
-13.22912 18.83419 4.187957 11
nan nan nan 0
nan nan nan 0
-47.99899 46.56557 0 11
-47.88783 55.80975 -0.3848433 10
-44.21264 62.22684 -0.8922094 31
-20.52138 16.45382 0.7748967 8
-56.91773 55.06356 1.837714 13
-79.81245 92.657 2.091232 8
-44.48845 62.36133 0.9354557 12
nan nan nan 0
nan nan nan 0
-10.32148 8.296857 -1.83444 11
-17.63073 14.42186 -2.153403 8
-20.24928 16.44539 -1.670655 12
-23.52518 22.92763 -2.29429 26
-20.1155 23.61587 -2.340404 22
-16.60799 23.53362 -2.349685 9
-34.78727 27.86708 -1.811992 41
-31.98887 30.87242 -2.071332 53
-30.2469 35.17498 -2.429173 12
-20.52713 28.77935 -2.054528 9
-53.09546 42.8497 -1.190254 5
-47.67565 46.34892 -1.542822 33
-47.55639 55.61954 -2.132384 11
-20.43439 28.81908 -1.219983 4
-5.39784 7.547257 -1.675728 16
-10.21152 14.50372 -1.99144 10
-44.08659 62.51035 3.070684 14
-20.72553 16.80823 1.550335 15
-43.69896 62.67764 6.211487 13
nan nan nan 0
-13.1408 18.84797 4.180784 10
nan nan nan 0
nan nan nan 0
-47.72885 46.62803 0 13
nan nan nan 0
-43.98652 62.36853 -0.892034 13
-20.48716 16.54419 0.7757815 8
-56.73592 55.27237 1.838063 12
-79.28381 92.69567 2.085844 8
-44.18671 62.39791 0.9336842 13
nan nan nan 0
-0.2543806 0.2099897 -0.07582346 9
-10.29245 8.332835 -1.83444 10
-17.60717 14.50546 -2.156702 8
-20.12608 16.46228 -1.665215 13
-23.43077 22.99563 -2.292895 30
-20.03294 23.68594 -2.340404 21
-16.50574 23.56288 -2.346835 9
nan nan nan 0
-32.0206 31.11965 -2.080416 65
-30.21147 35.38288 -2.436239 13
-26.76203 37.80207 -2.692611 18
nan nan nan 0
-47.60644 46.60596 -1.545839 15
-47.71128 56.19669 -2.148121 12
-43.75708 62.18132 -2.627231 4
-5.371462 7.566053 -1.675728 15
-10.15229 14.52705 -1.989762 10
-43.7965 62.56153 3.065668 15
-20.32647 16.60267 1.524777 10
-43.40901 62.72734 6.201354 14
-20.20029 16.65871 3.210038 13
-13.05254 18.86136 4.173611 10
nan nan nan 0
-20.31281 16.53853 0.1506412 17
-47.44817 46.67863 0 13
-48.17518 56.94432 -0.3903411 4
-43.71693 62.44797 -0.8909816 9
-20.37499 16.57146 0.773717 10
nan nan nan 0
nan nan nan 0
-43.90539 62.46178 0.9323404 13
nan nan nan 0
-0.2649677 0.2199565 -0.07961464 9
-10.2633 8.368711 -1.83444 10
-17.54877 14.56048 -2.15576 10
-20.02612 16.49755 -1.661694 11
-23.28649 23.01417 -2.286617 31
-19.94373 23.74809 -2.339651 20
-16.40632 23.5958 -2.344393 8
-20.26811 16.47281 -1.061095 31
-31.92962 31.24869 -2.08158 60
-30.20402 35.62523 -2.445659 11
nan nan nan 0
-20.18649 16.52955 -0.4547224 14
-47.34379 46.6736 -1.542589 13
-47.41175 56.2406 -2.143458 12
-43.60843 62.43201 -2.631377 14
-5.342187 7.580734 -1.674836 15
-10.09586 14.55424 -1.988644 10
-43.50944 62.61555 3.060852 14
-20.21827 16.63231 1.521001 12
-43.11926 62.77578 6.19122 14
-20.1191 16.7101 3.206382 13
-12.96714 18.87843 4.167336 10
nan nan nan 0
-20.19309 16.55862 0.1501804 17
-47.15707 46.71729 0 13
nan nan nan 0
-43.41881 62.48523 -0.8893445 12
-20.23968 16.57916 0.7707679 11
-56.79318 56.10624 1.852569 19
-68.91151 81.71655 1.827839 11
-43.6213 62.52035 0.9309354 12
nan nan nan 0
nan nan nan 0
-10.23785 8.407627 -1.835128 11
-17.51312 14.63441 -2.157645 10
-20.12204 16.69476 -1.674496 8
-23.15652 23.04606 -2.281734 27
-19.82878 23.77927 -2.335884 20
-16.30971 23.63241 -2.342357 9
-20.17182 16.51182 -1.059062 68
-31.92352 31.46162 -2.088335 54
-30.05375 35.69989 -2.443566 13
-26.14629 37.48438 -2.656888 17
-20.1171 16.59038 -0.4544606 14
-47.06351 46.72236 -1.538759 12
-47.16061 56.34061 -2.140981 10
-43.34184 62.51403 -2.62844 13
-5.315693 7.599335 -1.674836 14
-10.03655 14.57711 -1.986967 10
-43.22538 62.67246 3.056237 13
-20.13318 16.6805 1.518968 12
-42.8297 62.82297 6.181086 9
-20.17106 16.87255 3.224053 7
-12.879 18.89105 4.160162 11
nan nan nan 0
-20.11974 16.61627 0.1500652 13
-46.89459 46.78275 0 13
-48.196 57.78227 -0.3937707 4
-43.13515 62.54174 -0.8879997 5
-20.14699 16.62109 0.7694408 17
-57.04351 56.74833 1.867192 6
-77.73749 92.83855 2.070622 7
-43.33733 62.57769 0.9295305 12
nan nan nan 0
-0.2521677 0.2126421 -0.07582346 9
-10.20844 8.443314 -1.835128 10
-17.47336 14.70506 -2.159059 10
-20.15172 16.83847 -1.681857 9
-23.1464 23.19737 -2.28871 28
-19.75838 23.8637 -2.337391 18
-16.22712 23.6892 -2.342357 10
-20.15262 16.6139 -1.061095 15
-31.71069 31.47084 -2.08158 61
-29.97379 35.85822 -2.447229 12
nan nan nan 0
-20.15138 16.73714 -0.4565549 8
-46.81176 46.798 -1.535858 12
-47.17768 56.76241 -2.150744 7
-43.04122 62.54556 -2.62343 14
-5.286331 7.613802 -1.673943 15
-9.979999 14.60385 -1.985849 10
-42.94144 62.72814 3.051621 14
-20.17067 16.8306 1.526229 8
-42.54313 62.87303 6.171358 7
-20.19556 17.01318 3.237459 9
-12.78818 18.89922 4.152093 10
nan nan nan 0
-20.16542 16.77271 0.1508427 7
-46.60754 46.82213 0 13
nan nan nan 0
-42.85163 62.59703 -0.886655 16
-20.16958 16.75837 0.7725374 6
-57.10994 57.21242 1.875896 7
-77.22439 92.88254 2.065577 8
-43.0535 62.63382 0.9281256 13
nan nan nan 0
nan nan nan 0
-10.17891 8.478896 -1.835128 10
-17.43711 14.77884 -2.160945 10
-20.1921 16.99222 -1.690179 8
-23.06879 23.28156 -2.289058 22
-19.74144 24.0134 -2.3453 22
-16.14713 23.74982 -2.342764 9
-20.14448 16.72562 -1.063737 12
-31.7031 31.68372 -2.088335 58
-29.99193 36.13553 -2.459005 10
-26.2401 38.18438 -2.693482 19
-20.15803 16.86189 -0.4580384 8
-46.50368 46.81573 -1.5311 13
-47.29419 57.30838 -2.165169 7
-42.69582 62.50972 -2.615656 8
-5.259721 7.632208 -1.673943 14
-9.923385 14.63037 -1.984731 10
-42.65764 62.7826 3.047006 14
-20.18441 16.96191 1.531747 9
-42.2595 62.92599 6.162035 7
-20.18147 17.12209 3.244771 5
-12.68924 18.89473 4.141334 11
nan nan nan 0
-20.17576 16.90077 0.1513611 8
-46.27158 46.8103 0 10
-48.47419 58.94764 -0.3993993 8
-42.57386 62.65938 -0.8854272 15
-20.17613 16.88318 0.7750441 8
-57.28995 57.79482 1.88843 5
-50.39803 61.04814 1.353477 8
-42.77262 62.69286 0.9267817 12
nan nan nan 0
nan nan nan 0
-10.14925 8.514376 -1.835128 10
-17.40056 14.85254 -2.162831 11
-20.20881 17.12711 -1.696579 14
-23.03636 23.41172 -2.293941 24
-19.69217 24.12466 -2.349443 16
-16.0697 23.8143 -2.343579 11
-20.18564 16.87914 -1.069022 13
-31.58879 31.79066 -2.088102 61
-29.91007 36.29395 -2.462668 12
-26.19665 38.40771 -2.702776 17
-20.17935 16.99977 -0.4598709 7
-46.23115 46.86746 -1.527502 11
-47.35043 57.78625 -2.176972 7
-42.47455 62.65424 -2.615483 16
-5.230272 7.646459 -1.673051 15
-9.866708 14.65668 -1.983613 10
-42.37678 62.83998 3.042592 14
-20.2013 17.09674 1.537556 8
-41.96774 62.96529 6.151496 14
nan nan nan 0
-12.58502 18.8816 4.128782 13
nan nan nan 0
-20.19309 17.03556 0.1519371 8
-46.23399 47.09998 0 9
-48.50529 59.40697 -0.4013628 23
-42.29897 62.7247 -0.8842579 14
-20.22028 17.04045 0.7790256 7
-57.32631 58.23668 1.896322 9
-50.09272 61.11156 1.350997 27
-42.48905 62.74656 0.9253767 14
nan nan nan 0
-0.2536477 0.2183632 -0.07708719 9
-10.11947 8.549751 -1.835128 11
-17.36371 14.92616 -2.164716 10
-20.13372 17.18459 -1.695299 5
-22.78369 23.31719 -2.276851 19
-19.66435 24.26297 -2.356222 11
-15.97262 23.84954 -2.341543 10
-20.22215 17.02993 -1.074104 13
-31.5513 31.97538 -2.092993 71
-29.81798 36.44064 -2.465547 13
nan nan nan 0
nan nan nan 0
-46.21069 47.17495 -1.532261 10
-48.71285 59.87415 -2.249247 15
-42.1998 62.71921 -2.612028 14
-5.203549 7.664669 -1.673051 15
-9.809969 14.68276 -1.982494 10
-42.09605 62.89619 3.038177 14
nan nan nan 0
-41.68996 63.02412 6.142984 16
nan nan nan 0
-12.47292 18.85566 4.11354 16
nan nan nan 0
-33.59402 28.53746 0.2536508 30
-46.29616 47.4938 0 9
-48.6912 60.06142 -0.4046353 10
-42.01304 62.77225 -0.8828547 13
nan nan nan 0
nan nan nan 0
-49.91381 61.3287 1.351938 17
-42.20842 62.8032 0.9240328 14
nan nan nan 0
-0.2528839 0.2192472 -0.07708719 9
-10.08956 8.585023 -1.835128 11
-17.32657 14.99971 -2.166602 9
nan nan nan 0
-22.68826 23.38226 -2.275456 16
-19.57016 24.31982 -2.355093 12
-15.88651 23.901 -2.341136 10
nan nan nan 0
-31.52339 32.17094 -2.098583 57
-29.77245 36.64526 -2.47235 11
nan nan nan 0
-53.08339 45.34472 -1.217916 5
-46.31063 47.60828 -1.541081 10
-48.69513 60.28098 -2.258135 25
-41.92234 62.77885 -2.6084 13
-5.174016 7.678705 -1.672159 15
-9.753167 14.70863 -1.981376 10
-41.81544 62.95119 3.033763 15
nan nan nan 0
-41.41775 63.0901 6.135283 13
nan nan nan 0
-12.43401 18.94021 4.122506 9
nan nan nan 0
-48.30923 41.32568 0.3659333 8
-46.38049 47.91377 0 10
-48.47184 60.21933 -0.4045568 11
-41.74111 62.83939 -0.8817438 14
-36.24241 30.97229 1.405431 11
nan nan nan 0
-49.61459 61.39757 1.349629 15
-41.92791 62.85864 0.922689 14
nan nan nan 0
-0.2595146 0.2263646 -0.07961464 9
-10.05577 8.616968 -1.83444 11
-17.28911 15.07318 -2.168488 10
-25.55236 22.11777 -2.165131 29
-22.59958 23.45413 -2.274759 17
-19.54738 24.46589 -2.362625 8
-15.75635 23.88559 -2.334216 6
-25.403 21.69592 -1.357673 94
-31.58507 32.45975 -2.110229 61
-29.78542 36.92385 -2.484126 11
-25.90376 38.84606 -2.714394 16
-36.13466 31.08796 -0.8313453 33
-46.38033 48.01411 -1.548972 10
-48.39372 60.33752 -2.25391 16
-41.64223 62.83316 -2.6046 12
-5.147181 7.69672 -1.672159 15
-9.699035 14.73844 -1.980817 9
-41.53495 63.005 3.029348 15
nan nan nan 0
-41.14559 63.15495 6.127581 5
nan nan nan 0
-12.34367 18.9464 4.114437 4
nan nan nan 0
-52.97586 45.63818 0.4025065 6
-46.46592 48.33851 0 10
-48.17082 60.27489 -0.4037975 10
-41.45823 62.8887 -0.880399 13
-36.07347 31.04645 1.403072 14
-88.60931 91.92078 2.963322 6
-49.29673 61.4417 1.346807 13
-41.64201 62.90456 0.9212229 14
nan nan nan 0
nan nan nan 0
-10.02563 8.652018 -1.83444 11
-17.25135 15.14657 -2.170373 10
nan nan nan 0
-22.52447 23.54008 -2.275456 22
-19.53932 24.63163 -2.372041 8
-15.64559 23.89874 -2.330145 11
nan nan nan 0
-31.58611 32.68833 -2.117915 60
-29.81553 37.22636 -2.497472 10
nan nan nan 0
-35.88612 31.09279 -0.8281167 9
-46.47198 48.44625 -1.557676 9
-48.08319 60.38097 -2.249247 14
-41.37048 62.89882 -2.601318 12
-5.117565 7.710538 -1.671266 14
-9.642098 14.76388 -1.979699 11
-41.2546 63.05762 3.024934 6
nan nan nan 0
-40.87348 63.21867 6.11988 8
nan nan nan 0
nan nan nan 0
nan nan nan 0
-35.98251 31.2204 0.2741548 6
-46.54548 48.76081 0 9
-47.87311 60.333 -0.4030645 11
nan nan nan 0
-35.90067 31.11654 1.400565 16
-88.04594 91.97677 2.955198 6
-49.01343 61.52737 1.344925 11
-41.37002 62.97014 0.9200623 10
nan nan nan 0
nan nan nan 0
-9.995369 8.686961 -1.83444 11
-17.21703 15.22318 -2.17273 10
-24.95853 21.91054 -2.127685 37
nan nan nan 0
-19.5581 24.83286 -2.384847 8
-15.5485 23.93231 -2.328109 11
-25.2698 21.88909 -1.358689 18
-31.47181 32.79838 -2.117915 58
-29.73513 37.39274 -2.501659 11
-25.61276 38.99676 -2.712361 17
-52.11213 45.46759 -1.206485 8
-46.56807 48.88686 -1.566612 10
-47.73574 60.37594 -2.242835 12
-41.09332 62.95497 -2.59769 13
-5.087915 7.724245 -1.670374 13
-9.587802 14.79328 -1.97914 10
-40.97439 63.10904 3.020519 6
nan nan nan 0
-40.59605 63.27287 6.111367 11
nan nan nan 0
-12.1633 18.95758 4.098298 25
nan nan nan 0
-52.35095 45.74045 0.4001738 12
-28.22965 29.78174 0 6
-47.57558 60.38977 -0.4023314 12
-40.89294 62.98369 -0.8777095 6
nan nan nan 0
-53.10173 55.86263 1.788508 27
-48.70222 61.57653 1.342274 12
nan nan nan 0
nan nan nan 0
nan nan nan 0
-9.961257 8.718537 -1.833752 12
-17.17866 15.29643 -2.174616 10
nan nan nan 0
-22.49651 23.84186 -2.289407 11
-19.57571 25.03453 -2.397652 9
-15.42437 23.9236 -2.322003 9
-25.1217 21.91478 -1.354827 19
-20.23812 21.24009 -1.366292 22
-29.74365 37.67266 -2.513434 11
nan nan nan 0
-35.68695 31.35906 -0.828553 5
-20.12171 21.27334 -0.6789157 8
-47.40744 60.39281 -2.237298 15
-40.82984 63.03091 -2.594926 12
-5.058231 7.737838 -1.669482 14
-9.530734 14.8183 -1.978022 10
-40.69704 63.16349 3.016305 9
nan nan nan 0
-40.32141 63.33011 6.10326 13
nan nan nan 0
-12.11818 19.03312 4.105471 14
nan nan nan 0
-52.05582 45.80402 0.3991371 17
-20.05793 21.30998 0 27
-47.28133 60.44914 -0.4016246 13
-40.6241 63.0504 -0.8766572 7
nan nan nan 0
-20.03759 21.22903 0.6768267 24
-48.40363 61.64 1.339965 12
-40.80991 63.07272 0.9173746 5
nan nan nan 0
-0.2563288 0.2299659 -0.07961464 9
-9.930762 8.753257 -1.833752 12
-17.13998 15.36959 -2.176502 10
-30.49278 27.14657 -2.61608 9
-22.42338 23.93116 -2.290454 17
-19.57992 25.22086 -2.408951 9
-15.31124 23.93112 -2.317525 9
-25.05255 22.00893 -1.355233 18
-20.1055 21.24894 -1.362332 77
-29.72902 37.92559 -2.523378 13
-25.17183 38.91474 -2.694354 18
-51.72229 45.76736 -1.204827 15
-20.06102 21.35802 -0.6793799 7
-47.12568 60.46725 -2.233947 15
-40.53123 63.05115 -2.589916 12
-5.02584 7.74719 -1.667697 13
-9.473606 14.8431 -1.976904 10
-40.41441 63.20835 3.01169 9
nan nan nan 0
-40.04954 63.39042 6.095559 11
nan nan nan 0
-11.99914 18.99212 4.087539 14
nan nan nan 0
-51.74968 45.85614 0.398014 15
nan nan nan 0
-46.98724 60.50718 -0.4009178 13
-40.34453 63.09914 -0.8753709 7
nan nan nan 0
nan nan nan 0
-48.09903 61.69425 1.337485 12
-40.52738 63.11802 0.9159696 7
nan nan nan 0
-0.2591683 0.2340413 -0.08087836 9
-9.896442 8.784582 -1.833064 12
-17.10101 15.44267 -2.178387 10
-30.40155 27.25618 -2.6164 8
-22.31592 23.98373 -2.288012 22
-19.59524 25.42332 -2.421757 9
-15.18488 23.9171 -2.311012 9
-25.06539 22.17567 -1.360112 9
nan nan nan 0
-29.59952 38.03308 -2.52364 12
nan nan nan 0
-51.34573 45.75473 -1.199766 9
-46.81736 50.1906 -1.592609 12
-46.82257 60.5128 -2.229575 14
-40.26789 63.12484 -2.587152 12
-4.996107 7.760549 -1.666805 15
-9.416423 14.86768 -1.975785 9
-40.13197 63.25201 3.007075 9
nan nan nan 0
-39.82537 63.52562 6.095153 11
nan nan nan 0
-11.90404 18.98804 4.077677 14
nan nan nan 0
-51.44752 45.91001 0.3969197 16
-46.85682 50.47963 0 8
-46.69332 60.56392 -0.4002109 14
-40.05171 63.1256 -0.8737922 8
nan nan nan 0
-20.09665 21.59159 0.683906 20
-47.80076 61.75502 1.335176 12
-40.25846 63.1832 0.9148701 8
nan nan nan 0
-0.2583498 0.2349446 -0.08087836 9
-9.862024 8.815774 -1.832376 12
-17.06174 15.51566 -2.180273 9
-30.29881 27.35544 -2.61576 9
-22.29977 24.13474 -2.294988 18
-19.5912 25.60244 -2.432303 7
-15.08006 23.93622 -2.307755 8
-25.03633 22.30623 -1.362754 13
-31.18118 33.41718 -2.129561 60
-29.57648 38.27842 -2.53306 11
-25.33391 39.7716 -2.741404 19
-51.15966 45.91031 -1.199155 6
-46.86267 50.59207 -1.600152 11
-46.53189 60.57283 -2.225787 15
-39.98584 63.1679 -2.583179 10
-4.963694 7.769646 -1.66502 14
-9.361824 14.89625 -1.975226 10
-39.86835 63.32406 3.003865 10
nan nan nan 0
-39.89554 64.13397 6.140147 8
nan nan nan 0
-11.85068 19.05036 4.08216 10
nan nan nan 0
-51.14191 45.95899 0.3957966 14
-46.89383 50.8745 0 7
-46.39957 60.61934 -0.399504 11
-39.82047 63.2481 -0.8735584 9
nan nan nan 0
-19.99741 21.63591 0.6830936 4
-47.50571 61.81844 1.332953 12
-39.98156 63.2346 0.9135873 8
nan nan nan 0
nan nan nan 0
-9.823827 8.843521 -1.831 13
-17.02583 15.59193 -2.18263 9
nan nan nan 0
-22.19853 24.19406 -2.293244 18
-19.6133 25.81757 -2.446238 10
-14.98321 23.96758 -2.30572 9
-24.9174 22.3568 -1.360518 14
-31.11526 33.58077 -2.133055 72
-29.55512 38.52801 -2.542742 13
-25.28825 40.00747 -2.751569 24
-50.86184 45.96461 -1.195926 32
-46.92606 51.01655 -1.608392 11
-46.24137 60.63155 -2.221998 11
-39.8156 63.3875 -2.586461 8
-4.933911 7.782768 -1.664128 15
-9.304514 14.9204 -1.974108 9
-39.76617 63.65352 3.012894 12
nan nan nan 0
nan nan nan 0
nan nan nan 0
-11.78152 19.08743 4.081263 9
nan nan nan 0
-50.85511 46.02317 0.3948175 14
-47.02993 51.38087 0 7
-46.11206 60.68141 -0.3988495 12
-39.73983 63.61146 -0.8766572 10
nan nan nan 0
nan nan nan 0
-47.21383 61.88452 1.330815 11
-39.78184 63.40766 0.914076 11
nan nan nan 0
-0.2567033 0.2367425 -0.08087836 9
-9.781886 8.867785 -1.828936 12
-16.98594 15.66476 -2.184515 10
-29.41515 26.93291 -2.555591 30
-22.11058 24.26772 -2.292895 17
-19.5831 25.9655 -2.453771 12
-14.89946 24.01974 -2.30572 10
-33.68506 30.43367 -1.845532 9
-31.02829 33.72226 -2.135151 62
-29.39021 38.59122 -2.540126 12
-25.10867 40.03206 -2.747213 19
-50.53469 45.99046 -1.191999 18
-47.01065 51.46791 -1.617444 11
-45.948 60.68502 -2.218064 14
-39.97994 64.14526 -2.611683 6
-4.904097 7.795778 -1.663236 14
-9.249762 14.94857 -1.973549 9
-39.93589 64.42467 3.042793 11
nan nan nan 0
-40.12866 65.52444 6.246346 8
nan nan nan 0
-11.70455 19.11165 4.077677 11
nan nan nan 0
-50.56849 46.08591 0.3938383 17
-47.1227 51.84442 0 7
-45.82468 60.74221 -0.398195 13
-39.97319 64.48497 -0.886772 11
nan nan nan 0
-51.98417 57.03265 1.790713 7
-46.91905 61.94534 1.328592 12
-39.86409 64.03426 0.9211007 9
nan nan nan 0
-0.2522763 0.2344044 -0.07961464 9
-9.739896 8.891864 -1.826871 34
-16.95305 15.74427 -2.187344 9
-29.41635 27.12336 -2.563912 23
-22.01235 24.32995 -2.2915 17
-19.39673 25.90598 -2.441719 12
-14.81552 24.0716 -2.30572 11
-33.06861 30.08716 -1.81748 12
-31.13612 34.0774 -2.150757 54
-29.50826 39.02814 -2.562107 10
-25.02679 40.2127 -2.753602 23
-50.16376 45.97406 -1.187025 9
-47.13296 51.96492 -1.627889 8
-45.66081 60.74516 -2.214421 12
-40.12634 64.88371 -2.636041 6
-4.874251 7.808673 -1.662343 13
-9.192328 14.97229 -1.972431 10
-26.39508 42.91088 2.02184 7
nan nan nan 0
-40.28783 66.30299 6.307148 16
nan nan nan 0
-11.625 19.13137 4.073194 11
nan nan nan 0
-50.27469 46.14045 0.3928016 15
-47.21617 52.31295 0 8
-45.53745 60.80175 -0.3975405 8
-26.36473 42.86164 -0.5880046 6
nan nan nan 0
-52.05647 57.51394 1.800113 9
-46.62742 62.00885 1.326454 10
-40.01864 64.78556 0.929897 9
nan nan nan 0
-0.2514565 0.2352836 -0.07961464 9
-9.697856 8.915757 -1.824807 61
-16.89799 15.80335 -2.187344 9
-29.32515 27.22927 -2.564232 18
-21.94729 24.42891 -2.293593 17
-19.24669 25.89349 -2.434186 43
-14.72621 24.11467 -2.304906 9
-32.95234 30.19229 -1.81687 11
-31.05054 34.22286 -2.153086 60
-29.5337 39.34655 -2.576237 11
-25.00165 40.4867 -2.766382 26
-49.9001 46.05396 -1.184582 7
-47.22561 52.43369 -1.637405 10
-45.37974 60.81203 -2.21107 11
-26.32945 42.90489 -1.738934 6
-4.846964 7.825641 -1.662343 14
-9.132259 14.99156 -1.970754 10
-40.33607 66.09648 3.108408 7
nan nan nan 0
-40.46777 67.12612 6.372004 14
nan nan nan 0
-11.53276 19.1297 4.064228 12
nan nan nan 0
-50.00684 46.21725 0.3919665 13
-47.30359 52.77903 0 9
-45.33389 60.97237 -0.3976191 8
-40.29546 66.03003 -0.9041367 8
nan nan nan 0
nan nan nan 0
-31.89785 42.72911 0.9114397 13
-26.30757 42.91985 0.6145762 6
nan nan nan 0
-0.2506337 0.2361599 -0.07961464 9
-9.66304 8.946192 -1.824119 73
-16.84272 15.86224 -2.187344 9
-29.09869 27.2088 -2.55271 16
-21.8486 24.49048 -2.292198 20
-19.19468 26.01267 -2.439082 88
-14.61871 24.12756 -2.301242 9
-33.06707 30.51037 -1.829067 36
-30.94761 34.34959 -2.15425 56
-29.56921 39.68163 -2.591415 12
-24.93578 40.69717 -2.774804 23
-49.69875 46.19043 -1.183622 17
-47.32555 52.91491 -1.64727 10
-31.49728 42.51646 -1.541512 8
nan nan nan 0
-4.819618 7.842512 -1.662343 14
-9.074737 15.01484 -1.969636 9
-40.39748 66.71983 3.131082 14
nan nan nan 0
-40.6399 67.94704 6.436453 13
nan nan nan 0
-11.4432 19.13184 4.056159 11
nan nan nan 0
-49.69879 46.25528 0.3908146 18
-47.40162 53.2613 0 10
-31.66454 42.89865 -0.2789721 12
-40.3832 66.69637 -0.9113282 9
nan nan nan 0
-82.60884 92.55828 2.879415 4
-31.71279 42.792 0.9104136 13
-40.32122 66.3065 0.9476728 11
nan nan nan 0
-0.2498078 0.2370334 -0.07961464 9
-9.62813 8.976492 -1.823431 42
-16.79447 15.92779 -2.188287 9
-29.01807 27.32388 -2.553991 22
-21.8159 24.62633 -2.297778 17
-19.145 26.13583 -2.444355 89
-14.52414 24.16135 -2.299613 10
-33.08482 30.74121 -1.835978 64
-30.75425 34.37552 -2.149126 58
-29.65024 40.08167 -2.610779 11
-24.91282 40.98018 -2.788164 22
-49.42771 46.26116 -1.181004 23
-47.40278 53.37503 -1.656438 11
-31.64181 43.02476 -1.555938 7
-39.7392 65.78797 -2.655735 6
-4.792213 7.859287 -1.662343 14
-9.014608 15.03364 -1.967958 9
-40.56562 67.52854 3.162385 12
nan nan nan 0
-40.80423 68.76566 6.500497 11
nan nan nan 0
-11.35628 19.13782 4.048986 11
nan nan nan 0
nan nan nan 0
-47.46706 53.71117 0 8
-31.44663 42.91615 -0.27837 7
-40.96618 68.19557 -0.9298623 13
nan nan nan 0
-82.02001 92.5468 2.870131 5
-31.55137 42.88633 0.9100715 11
-40.45881 67.05903 0.9564079 9
nan nan nan 0
-0.2489789 0.2379039 -0.07961464 9
-9.593125 9.006657 -1.822743 52
-16.72797 15.976 -2.186872 9
-29.20498 27.69277 -2.578955 25
-21.80888 24.79221 -2.306149 17
-19.09763 26.26299 -2.450004 38
-14.40399 24.15198 -2.293914 6
-32.67815 30.57665 -1.81931 51
-30.77009 34.63575 -2.158676 58
-29.62541 40.34188 -2.620985 12
-24.8985 41.28062 -2.802686 25
-49.12767 46.30312 -1.177688 23
nan nan nan 0
-44.52238 60.9852 -2.200287 6
nan nan nan 0
-4.762206 7.871757 -1.661451 15
-8.956999 15.05647 -1.96684 9
-40.71838 68.32209 3.192885 11
nan nan nan 0
-40.97093 69.59915 6.565758 11
nan nan nan 0
-11.26945 19.14343 4.041813 10
nan nan nan 0
-49.11647 46.35747 0.38877 22
-47.57941 54.21852 0 9
-45.4811 62.52741 -0.4046353 7
-40.76371 68.39829 -0.9306808 12
nan nan nan 0
-81.46199 92.56612 2.861891 6
-31.35726 42.93564 0.9087887 13
-40.61475 67.85194 0.9656928 9
nan nan nan 0
-0.251689 0.2420665 -0.08087836 9
-9.561627 9.040089 -1.822743 64
-16.66492 16.0274 -2.18593 10
-29.06121 27.74975 -2.574794 19
-21.63689 24.77052 -2.297081 17
-19.0146 26.34162 -2.451134 10
-14.34242 24.24072 -2.297578 8
-32.60394 30.72136 -1.821139 42
-30.67873 34.77666 -2.160772 54
-29.59618 40.59838 -2.630929 10
-24.86957 41.56004 -2.815755 24
-48.8497 46.36421 -1.174896 27
-47.52298 54.26873 -1.673846 6
-44.24471 61.05121 -2.197081 7
-39.73601 66.83266 -2.686658 12
-4.7347 7.888332 -1.661451 14
-8.896813 15.0748 -1.965163 10
-40.86863 69.12181 3.223586 11
nan nan nan 0
-41.21272 70.57235 6.643989 7
nan nan nan 0
-11.1852 19.15291 4.035537 10
nan nan nan 0
-48.84925 46.42876 0.3879348 12
-47.68222 54.71976 0 9
nan nan nan 0
-40.88345 69.147 -0.9389247 7
nan nan nan 0
-80.92458 92.60525 2.854347 6
-31.27468 43.13794 0.9107556 12
-40.7682 68.65102 0.9750388 9
nan nan nan 0
-0.2508425 0.2429436 -0.08087836 10
-9.526425 9.069996 -1.822055 70
-16.59815 16.07508 -2.184515 9
-28.84546 27.73691 -2.564232 21
-21.53722 24.83083 -2.295686 16
nan nan nan 0
-14.27789 24.32502 -2.300835 13
-32.46389 30.80404 -1.81931 17
-30.60323 34.93613 -2.164033 61
-29.55087 40.83492 -2.639564 10
-24.84409 41.84834 -2.829406 19
-48.58998 46.44118 -1.17254 27
-47.66783 54.81903 -1.685684 12
-31.13116 43.2726 -1.553024 10
nan nan nan 0
-4.707136 7.904811 -1.661451 14
-8.836612 15.0929 -1.963486 9
-41.03401 69.95788 3.255892 10
nan nan nan 0
-41.28334 71.26345 6.695467 15
nan nan nan 0
-11.0961 19.15353 4.027468 11
nan nan nan 0
-48.55323 46.47109 0.3868693 15
-47.77556 55.21482 0 7
nan nan nan 0
-41.50431 70.75993 -0.958862 13
nan nan nan 0
-80.38461 92.63799 2.846688 7
-44.8572 62.33061 1.312942 10
-40.93431 69.48218 0.9848124 9
nan nan nan 0
-0.2535119 0.2471373 -0.08214208 9
-9.50186 9.110046 -1.823431 66
-16.53124 16.1225 -2.183101 9
-28.74488 27.83397 -2.563912 23
-21.42437 24.87562 -2.292895 16
-18.69442 26.28276 -2.433433 5
-14.19039 24.3704 -2.300428 10
-32.35255 30.91372 -1.819106 40
-30.5401 35.11057 -2.168226 60
-20.7449 28.87719 -1.861328 6
-24.81183 42.12836 -2.842475 15
-48.31231 46.49959 -1.169747 28
-47.78654 55.34451 -1.696709 12
nan nan nan 0
-40.06586 68.47137 -2.741248 9
-4.679514 7.921194 -1.661451 14
-8.778886 15.11506 -1.962368 10
-41.19404 70.79594 3.288198 10
nan nan nan 0
-41.44149 72.11578 6.761944 10
nan nan nan 0
-11.01692 19.17082 4.022985 11
nan nan nan 0
-48.28631 46.53967 0.3860342 16
-47.86928 55.71497 0 6
-44.23833 62.17729 -0.3993469 30
-41.27214 70.93031 -0.9592128 11
-57.11546 54.99045 2.338109 7
-79.86497 92.69081 2.839724 8
-44.57542 62.39731 1.311061 11
-41.09007 70.30667 0.9944639 9
nan nan nan 0
-0.2526477 0.2480207 -0.08214208 9
-9.484259 9.156913 -1.826183 61
-16.4642 16.16965 -2.181687 9
-28.55465 27.84357 -2.555591 23
-21.29526 24.90098 -2.288361 16
-18.56519 26.2949 -2.428536 6
-14.08281 24.38095 -2.296764 10
-32.55768 31.3278 -1.836791 34
-30.5153 35.33035 -2.175213 53
-20.5599 28.83152 -1.853739 18
-24.77792 42.40868 -2.855545 14
-47.84095 46.36876 -1.162243 19
-47.87287 55.83733 -1.70669 10
-44.16367 62.30221 -2.22535 9
-40.24549 69.33257 -2.770097 8
-4.651835 7.937481 -1.661451 14
-8.718634 15.13269 -1.96069 10
-41.33374 71.61 3.3193 10
nan nan nan 0
-41.94955 73.59355 6.88679 17
nan nan nan 0
-10.91341 19.14505 4.009536 16
nan nan nan 0
-47.99798 46.58607 0.3850262 15
-47.94061 56.19363 0 11
-44.08736 62.42527 -0.3999491 10
-41.34668 71.63254 -0.966755 6
-56.94469 55.21035 2.338994 14
-79.34595 92.74114 2.832761 8
-44.27348 62.43426 1.308581 13
-41.25812 71.16337 1.004543 9
nan nan nan 0
-0.2517804 0.2489011 -0.08214208 9
-9.462894 9.200315 -1.828247 49
-16.39704 16.21652 -2.180273 9
-28.56767 28.05144 -2.565512 23
-21.25018 25.02458 -2.292895 15
-18.49617 26.39221 -2.431549 7
-13.9778 24.39536 -2.293507 9
-32.49118 31.48296 -1.839231 24
-30.36578 35.40633 -2.17335 60
-20.4476 28.88681 -1.852693 18
-24.74485 42.69358 -2.868905 9
-47.54999 46.40977 -1.159101 12
-47.83969 56.19441 -1.712492 10
-43.90566 62.39876 -2.22331 19
-40.8983 71.02731 -2.832116 11
-4.6241 7.953671 -1.661451 14
-8.658366 15.15009 -1.959013 9
-41.52038 72.51694 3.354616 11
nan nan nan 0
-41.80767 73.94343 6.905841 10
nan nan nan 0
-10.8199 19.13592 3.999674 21
nan nan nan 0
-47.72063 46.6415 0.3841047 20
-48.03181 56.70017 0 10
-43.80031 62.48052 -0.3993208 11
nan nan nan 0
-56.71944 55.37738 2.337667 8
-78.82433 92.78516 2.825682 6
-43.99773 62.50666 1.30687 13
-41.40822 72.00042 1.014317 8
nan nan nan 0
-0.25091 0.2497785 -0.08214208 9
-9.448421 9.250606 -1.831688 31
-16.33328 16.26663 -2.17933 10
-28.46958 28.15099 -2.565512 25
-21.44244 25.43034 -2.323239 15
-18.44095 26.50982 -2.436445 7
-13.86795 24.40067 -2.289436 9
-32.48479 31.69736 -1.845126 17
-30.23876 35.5083 -2.173117 58
nan nan nan 0
-24.71009 42.97876 -2.882264 7
-47.3877 46.57547 -1.159101 8
-47.53997 56.2389 -1.708779 9
-43.65611 62.50657 -2.221707 15
-40.71207 71.27811 -2.836435 9
-4.596308 7.969763 -1.661451 14
-8.595634 15.16293 -1.956777 9
-41.71104 73.44342 3.390735 10
nan nan nan 0
-41.95878 74.81919 6.973939 7
nan nan nan 0
-10.77949 19.22077 4.009536 8
nan nan nan 0
-47.43994 46.69207 0.3831544 17
-48.16512 57.2616 0 9
-43.52197 62.54684 -0.398771 12
-41.76397 73.53675 -0.9885049 13
-57.01406 56.05502 2.357868 6
-78.3098 92.83432 2.818835 7
-43.70769 62.55741 1.304732 12
-28.10228 49.25779 0.6923985 5
nan nan nan 0
-0.2465643 0.2472844 -0.08087836 10
-9.391377 9.259203 -1.826871 14
-16.26585 16.31298 -2.177916 10
-28.20847 28.08826 -2.55079 24
-21.42719 25.59299 -2.331261 16
-18.38795 26.63148 -2.441719 7
-13.7411 24.37512 -2.282516 4
-32.26347 31.70202 -1.838824 19
-30.19848 35.7128 -2.179173 57
-29.70482 42.59361 -2.719376 9
-24.66623 43.25121 -2.894753 8
-47.17509 46.69137 -1.15788 26
-47.22447 56.26284 -1.704485 9
-43.36647 62.55589 -2.218064 11
-40.59355 71.65024 -2.845591 7
-4.56846 7.985758 -1.661451 15
-8.535351 15.17984 -1.955099 9
-41.87368 74.33294 3.425048 10
nan nan nan 0
-42.38766 76.20647 7.089462 14
nan nan nan 0
-10.71472 19.26258 4.010433 9
nan nan nan 0
-47.15947 46.74124 0.3822041 13
-48.26303 57.78627 0 10
-43.23235 62.59553 -0.3981165 7
-41.87997 74.34424 -0.9973919 5
-56.93881 56.37324 2.362882 15
-77.77986 92.86187 2.811407 7
-43.42638 62.61922 1.302851 13
-27.89324 49.29031 0.6914822 8
nan nan nan 0
-0.2456997 0.2481436 -0.08087836 10
-9.351968 9.284952 -1.825495 11
-16.20181 16.36258 -2.176973 10
-28.35693 28.43384 -2.573194 31
-21.42382 25.77119 -2.340678 15
-18.34279 26.76542 -2.448121 7
-13.67781 24.46209 -2.28618 10
nan nan nan 0
-30.11218 35.8639 -2.181968 64
-29.57869 42.72989 -2.72147 11
-24.68711 43.64119 -2.915083 8
-46.90203 46.74636 -1.155175 26
-47.1078 56.52333 -1.707386 5
-43.07418 62.59983 -2.214275 8
-41.40551 73.6822 -2.920566 5
-4.540557 8.001657 -1.661451 14
-8.472637 15.19219 -1.952863 8
-42.05254 75.26373 3.461166 10
nan nan nan 0
-42.32598 76.72489 7.123916 10
nan nan nan 0
-10.64267 19.29125 4.008639 9
nan nan nan 0
-46.88276 46.79255 0.3812825 13
-48.38021 58.33925 0 8
-42.94857 62.65121 -0.3975144 11
-42.35416 75.80376 -1.01499 10
-57.03547 56.86451 2.375121 18
-77.28582 92.92912 2.805257 7
-43.13951 62.6716 1.300799 13
-27.66718 49.29145 0.6901383 8
nan nan nan 0
-0.2482807 0.2523923 -0.08214208 9
-9.305485 9.30354 -1.822743 12
-16.1411 16.41549 -2.176502 9
-28.24346 28.51847 -2.571913 30
-21.40677 25.93428 -2.3487 17
-18.23804 26.8128 -2.446615 7
-13.58751 24.50097 -2.285366 13
-32.91913 32.80089 -1.889236 86
-29.98041 35.96111 -2.181502 57
-29.59617 43.07569 -2.736909 11
-24.6958 44.01442 -2.934252 8
-46.63272 46.80356 -1.152557 30
-47.16516 56.9955 -1.71667 6
-42.79057 62.65487 -2.210924 16
-42.27674 75.85163 -3.000723 10
-4.512599 8.017458 -1.661451 14
-8.409941 15.20428 -1.950627 9
-42.24719 76.23598 3.499091 9
nan nan nan 0
nan nan nan 0
nan nan nan 0
-10.56818 19.31533 4.00595 10
nan nan nan 0
-46.60275 46.83896 0.3803322 21
-48.47822 58.87445 0 8
-42.66492 62.70567 -0.3969122 12
-42.21288 76.17418 -1.017972 8
-57.16818 57.39608 2.388982 5
-76.74772 92.94009 2.797481 7
-42.85562 62.72685 1.298832 12
-27.43903 49.28725 0.6887335 7
nan nan nan 0
-0.2473981 0.2532574 -0.08214208 9
-9.269463 9.332454 -1.822055 11
-16.08022 16.46817 -2.17603 10
-28.08075 28.55285 -2.566153 35
-21.30979 26.00113 -2.348003 15
-18.11923 26.8391 -2.443225 7
-13.4995 24.54388 -2.284958 13
nan nan nan 0
-30.00439 36.24636 -2.192449 56
-29.61723 43.43038 -2.752871 12
-24.71431 44.41005 -2.954873 7
-46.33192 46.82747 -1.149154 14
-47.23249 57.48421 -1.726419 6
-42.50711 62.70871 -2.207572 14
-42.38398 76.67225 -3.027327 8
-4.484585 8.03316 -1.661451 14
-8.347262 15.21611 -1.94839 9
-42.45242 77.24117 3.53842 10
nan nan nan 0
-42.70899 78.71374 7.280784 23
nan nan nan 0
-10.48897 19.33048 4.001467 11
nan nan nan 0
-46.28785 46.84843 0.3790939 15
-48.57307 59.41105 0 8
-42.38422 62.76305 -0.3963363 13
-26.88087 48.90506 -0.6521431 99
-57.32951 57.96126 2.404171 11
-50.06905 61.06667 1.832492 25
-42.57187 62.7809 1.296865 13
-27.21608 49.29081 0.6874506 8
nan nan nan 0
-0.2465126 0.2541194 -0.08214208 9
-9.23335 9.361229 -1.821367 12
-16.02264 16.5242 -2.17603 10
-28.0646 28.73636 -2.573834 28
-21.27557 26.14499 -2.354281 13
-17.96715 26.8152 -2.435316 8
-13.41136 24.58648 -2.284551 11
-46.31577 46.79498 -2.677333 7
-29.82694 36.28915 -2.188722 57
-29.52422 43.62034 -2.758366 9
-24.71348 44.77575 -2.973461 6
-46.25577 47.07806 -1.151335 16
-48.56097 59.52332 -1.782589 9
-42.22101 62.75718 -2.204075 15
-26.87553 49.01686 -1.931208 5
-4.456516 8.048765 -1.661451 15
-8.286979 15.23206 -1.946713 8
-42.63438 78.21798 3.576344 10
nan nan nan 0
-42.89438 79.71813 7.359826 9
nan nan nan 0
-10.40745 19.34098 3.996087 10
nan nan nan 0
-46.28513 47.17387 0.3804186 14
-48.71835 60.01501 0 12
-42.10086 62.81508 -0.3957342 11
nan nan nan 0
-57.38251 58.42129 2.414935 10
-49.97866 61.39225 1.837018 9
-42.29106 62.83787 1.294983 11
-26.91181 49.14433 0.684091 6
nan nan nan 0
-0.2456241 0.2549784 -0.08214208 10
-9.19715 9.389866 -1.820678 11
-15.96486 16.58003 -2.17603 10
-27.98496 28.85564 -2.575754 31
-21.19671 26.23462 -2.355676 17
-17.79338 26.75735 -2.424393 9
-13.3136 24.61123 -2.282516 11
-32.17458 32.73767 -1.866063 34
-29.87694 36.60973 -2.201766 56
-29.52769 43.95524 -2.773021 10
-24.73676 45.19016 -2.995243 7
-46.32858 47.48253 -1.157269 14
-48.6707 60.08477 -1.79431 17
-41.94896 62.8252 -2.201307 12
nan nan nan 0
-4.430759 8.068585 -1.662343 14
-8.224326 15.2434 -1.944477 9
-42.81005 79.19701 3.614269 10
nan nan nan 0
nan nan nan 0
nan nan nan 0
-10.32831 19.3555 3.991604 11
-17.12382 17.91406 6.62965 10
-46.35747 47.57865 0.3823768 15
-48.53053 60.21195 0 15
-41.82041 62.87007 -0.3951582 12
nan nan nan 0
nan nan nan 0
-49.65408 61.43027 1.832956 9
-42.01314 62.89781 1.293187 13
-26.78542 49.32145 0.6852516 6
nan nan nan 0
-0.2447325 0.2558342 -0.08214208 9
-9.164317 9.421912 -1.820678 11
-15.90345 16.63206 -2.175559 9
-27.96022 29.03221 -2.582795 33
-21.15807 26.37459 -2.361605 16
-17.62024 26.69862 -2.413471 9
-13.21348 24.6312 -2.280073 8
-45.88327 47.00995 -2.671235 7
-29.79928 36.77588 -2.205492 64
-29.45994 44.18684 -2.781133 8
-24.71934 45.53506 -3.012379 6
-46.41652 47.90603 -1.163639 16
-48.53585 60.34777 -1.797096 6
-41.66315 62.87126 -2.19781 14
-41.81589 77.55173 -3.044602 11
-4.402568 8.084003 -1.662343 15
-8.166382 15.26325 -1.943359 8
-42.91568 80.05931 3.646776 5
nan nan nan 0
nan nan nan 0
nan nan nan 0
-10.24918 19.36969 3.987121 12
nan nan nan 0
-46.42406 47.9809 0.3843063 12
-48.2107 60.24435 0 12
-41.5346 62.91553 -0.3945299 12
nan nan nan 0
nan nan nan 0
-49.35487 61.49797 1.829823 10
-41.70219 62.90658 1.290365 14
-26.57043 49.3354 0.6841521 8
nan nan nan 0
-0.243838 0.2566869 -0.08214208 9
-9.12793 9.450283 -1.81999 12
-15.84529 16.68747 -2.175559 9
-27.83112 29.10079 -2.580235 37
-21.01615 26.38586 -2.356025 17
-17.4805 26.68906 -2.407068 8
-13.11573 24.65517 -2.278038 3
-32.43903 33.47086 -1.894928 19
-29.7991 37.03922 -2.215042 60
-29.42123 44.4643 -2.792123 8
-24.59573 45.687 -3.016735 6
-46.49514 48.32352 -1.169835 14
nan nan nan 0
-41.37752 62.91609 -2.194313 12
-41.83942 78.24808 -3.066196 7
-4.374322 8.099322 -1.662343 14
-8.108399 15.28288 -1.942241 8
nan nan nan 0
nan nan nan 0
nan nan nan 0
nan nan nan 0
-10.1678 19.37921 3.981742 10
-17.11763 18.15966 6.676237 8
-46.52306 48.42026 0.3865237 12
-47.91924 60.31049 0 12
-41.25718 62.97229 -0.3939801 11
-43.44402 81.72914 -1.081936 5
nan nan nan 0
-49.04956 61.5565 1.826457 11
-41.4219 62.95988 1.288484 12
-26.33918 49.3176 0.6826249 8
nan nan nan 0
-0.2429405 0.2575365 -0.08214208 9
-9.094887 9.482087 -1.81999 12
-15.78695 16.74268 -2.175559 10
-27.69156 29.15796 -2.576714 14
-20.93011 26.46688 -2.356722 16
-17.3492 26.69139 -2.401795 9
-13.01796 24.67876 -2.276003 13
-32.24231 33.5011 -1.890253 31
-29.67274 37.14692 -2.215275 57
-29.47687 44.88811 -2.812273 7
nan nan nan 0
-46.57831 48.74937 -1.176205 13
-47.72206 60.19162 -1.782473 10
nan nan nan 0
-42.27756 79.73579 -3.118714 9
-4.348344 8.11888 -1.663236 14
-8.050378 15.3023 -1.941122 9
nan nan nan 0
-20.26997 21.31585 1.709203 19
nan nan nan 0
nan nan nan 0
-10.08648 19.3884 3.976362 10
-17.03432 18.19815 6.668472 8
-46.60574 48.84641 0.3886259 11
-47.62791 60.37533 0 10
-40.97716 63.0237 -0.3934041 11
-43.20275 81.96432 -1.083046 5
nan nan nan 0
-48.75066 61.62151 1.823324 10
nan nan nan 0
-26.13646 49.35179 0.6818308 7
nan nan nan 0
-0.2420401 0.258383 -0.08214208 9
-9.058315 9.510193 -1.819302 12
-15.72841 16.79768 -2.175559 11
-20.08772 21.30198 -1.875487 9
-20.85608 26.56332 -2.358815 16
-17.20998 26.68055 -2.395392 9
-12.92481 24.71081 -2.274781 12
-31.96982 33.45094 -1.881105 17
-29.68877 37.43419 -2.226222 60
-29.32273 44.99491 -2.812534 7
-24.15943 45.63701 -3.002213 6
-28.2656 29.7937 -0.7161595 5
-47.34161 60.14182 -1.77609 25
-40.83403 63.04401 -2.188775 6
nan nan nan 0
-4.319977 8.134009 -1.663236 15
-7.990024 15.31709 -1.939445 8
nan nan nan 0
-20.25028 21.44453 1.71385 25
nan nan nan 0
nan nan nan 0
-9.998454 19.38414 3.968293 11
-16.93781 18.22213 6.655532 10
-46.63786 49.22293 0.390325 6
-47.32438 60.42313 0 11
-40.69186 63.06553 -0.3927758 11
-51.27782 98.11539 -1.294171 5
-19.91805 21.00476 0.8529025 36
-48.4488 61.68124 1.820074 10
-40.89164 63.10907 1.285662 6
-25.9222 49.36304 0.6807313 7
nan nan nan 0
-0.2377841 0.2557387 -0.08087836 10
-9.025064 9.541755 -1.819302 13
-15.67307 16.85613 -2.17603 11
-27.46004 29.32145 -2.574154 34
-20.70189 26.55729 -2.351839 17
-17.08718 26.69427 -2.391249 8
-12.8316 24.7425 -2.27356 10
-20.13772 21.22146 -1.188751 96
-29.61972 37.61607 -2.23088 63
-29.32275 45.34018 -2.827712 6
nan nan nan 0
-20.07343 21.30942 -0.5103083 23
-47.10368 60.27126 -1.775045 14
-40.54347 63.07685 -2.184987 7
-45.23059 86.76443 -3.381298 5
-4.293849 8.153394 -1.664128 14
-7.931947 15.33606 -1.938327 8
nan nan nan 0
-20.07253 21.41301 1.705427 25
nan nan nan 0
nan nan nan 0
-9.90938 19.40221 3.96381 12
-16.82196 18.24383 6.638709 11
-20.02234 21.31486 0.1682078 33
-46.98806 60.5142 0 12
-40.40284 63.22141 -0.3926449 6
-50.76657 98.17832 -1.292067 8
-19.99711 21.28064 0.8604229 13
-48.08244 61.79 1.816825 10
-40.52902 63.20005 1.28361 7
-25.64092 49.39147 0.6794485 4
nan nan nan 0
-0.2368451 0.2566085 -0.08087836 10
-8.98664 9.57116 -1.818614 12
-15.61498 16.9235 -2.176973 10
-27.40841 29.49245 -2.579915 39
-20.5402 26.56915 -2.345561 18
-16.95051 26.71634 -2.387106 9
-12.71875 24.77829 -2.271932 9
nan nan nan 0
-29.5813 37.90638 -2.24043 49
-29.20543 45.59383 -2.835562 5
nan nan nan 0
nan nan nan 0
-46.87867 60.54763 -1.776902 15
-40.21657 63.19694 -2.182801 8
-44.73741 86.85115 -3.376116 9
-4.252525 8.175022 -1.664128 14
-7.847447 15.36273 -1.93665 8
nan nan nan 0
-19.99822 21.54377 1.708041 13
nan nan nan 0
nan nan nan 0
-9.781341 19.36793 3.947671 12
-16.70641 18.28433 6.625767 12
-19.94959 21.42397 0.1683806 13
-46.65344 60.62751 0 11
-40.0601 63.26759 -0.3918857 6
-50.2911 98.2655 -1.290429 7
nan nan nan 0
-47.74075 61.884 1.813691 10
-40.216 63.26942 1.281728 8
-50.62785 98.45721 1.352178 8
nan nan nan 0
-0.2355883 0.2577629 -0.08087836 9
-8.936384 9.611337 -1.817926 12
-15.54514 17.00792 -2.178387 10
-27.33672 29.69469 -2.586316 35
-20.38606 26.61852 -2.341725 14
-16.81117 26.7748 -2.385223 8
-12.60392 24.83131 -2.271525 10
nan nan nan 0
-29.51645 38.16547 -2.248116 56
-28.91795 45.58168 -2.826926 5
nan nan nan 0
-46.80207 50.54972 -1.201773 13
-46.54999 60.62431 -1.773653 13
-39.90123 63.26064 -2.17945 9
-44.34909 86.91547 -3.37197 8
-4.222534 8.190554 -1.664128 14
-7.784359 15.37809 -1.934973 8
nan nan nan 0
-19.87176 21.56554 1.703975 11
nan nan nan 0
nan nan nan 0
-9.716887 19.41685 3.950361 11
-16.60358 18.30609 6.611533 12
-19.98975 21.62543 0.1693885 23
-46.35808 60.70272 0 11
-39.7588 63.3039 -0.391205 7
-49.8492 98.28863 -1.288325 8
nan nan nan 0
-47.42718 61.92327 1.809978 11
-39.94423 63.32908 1.280103 9
-50.19629 98.50402 1.350284 8
nan nan nan 0
-0.2346419 0.2586247 -0.08087836 10
-8.897738 9.640388 -1.817238 12
-15.49273 17.07584 -2.179801 10
-27.24117 29.80942 -2.587596 33
-20.30044 26.70895 -2.34312 15
-16.7176 26.83332 -2.385223 8
-12.48806 24.81728 -2.266233 6
nan nan nan 0
-29.46519 38.37523 -2.254405 58
-28.82782 45.79222 -2.83373 6
nan nan nan 0
-47.03478 51.15805 -1.212331 8
-46.24264 60.6832 -1.770403 12
-39.70621 63.46578 -2.181489 33
-43.86726 86.71746 -3.358322 9
-4.196155 8.209626 -1.66502 14
-7.726178 15.39629 -1.933855 8
nan nan nan 0
nan nan nan 0
nan nan nan 0
nan nan nan 0
-9.655606 19.46387 3.953051 10
-16.50079 18.32088 6.596003 12
nan nan nan 0
-46.06434 60.75661 0 12
-39.62485 63.58233 -0.392069 11
-49.44068 98.3325 -1.286629 7
nan nan nan 0
-47.15023 62.00888 1.807657 10
-39.67519 63.39184 1.278564 10
-49.77099 98.51799 1.348085 8
nan nan nan 0
-0.2337378 0.2594421 -0.08087836 9
-8.860684 9.667739 -1.81655 12
-15.44636 17.1446 -2.181687 9
-27.18725 29.95975 -2.592397 41
-20.24614 26.8314 -2.347654 16
-16.61597 26.87879 -2.384094 9
-12.36577 24.78936 -2.259719 3
nan nan nan 0
-29.44309 38.62481 -2.263023 64
-26.32678 42.14469 -2.602144 28
nan nan nan 0
-46.95369 51.42899 -1.214862 14
-45.94006 60.72465 -1.766922 12
-39.52134 63.66344 -2.18353 12
-43.55085 86.84327 -3.357286 8
-4.167472 8.224223 -1.66502 13
-7.665753 15.40981 -1.932177 8
nan nan nan 0
nan nan nan 0
nan nan nan 0
nan nan nan 0
-9.587606 19.49746 3.953051 11
-16.40775 18.34598 6.584356 12
-47.06218 51.62026 0.4021033 6
-45.79485 60.84113 0 11
-39.7971 64.35815 -0.3959959 9
-49.028 98.36575 -1.284817 7
nan nan nan 0
-46.85217 62.06537 1.804523 11
-39.71477 63.9504 1.28703 10
-49.35516 98.54807 1.34613 8
nan nan nan 0
-0.2328307 0.2602565 -0.08087836 10
-8.823549 9.694948 -1.815862 12
-15.39638 17.20954 -2.183101 10
-27.0825 30.05447 -2.592397 47
-20.21217 26.98175 -2.35463 16
-16.54029 26.96638 -2.38673 8
-12.28138 24.83684 -2.260127 13
-46.99491 51.45628 -2.833854 7
-29.41357 38.86674 -2.271175 58
-26.3005 42.43156 -2.614181 13
nan nan nan 0
-47.04588 51.89255 -1.22193 12
-45.67678 60.8167 -1.764949 12
-39.95937 64.87338 -2.22025 7
-43.34753 87.19612 -3.36506 8
-4.140945 8.243117 -1.665913 14
-7.607524 15.42756 -1.931059 8
nan nan nan 0
nan nan nan 0
nan nan nan 0
nan nan nan 0
-9.515181 19.52196 3.951258 11
-16.28908 18.34176 6.562357 12
-47.08307 52.0066 0.4038312 12
-45.4924 60.88046 0 9
-39.86766 64.97826 -0.3989543 6
-48.60463 98.37493 -1.282712 7
-51.86013 57.22219 2.277356 4
-46.5513 62.11654 1.801274 11
-39.89779 64.74835 1.300285 9
-48.95972 98.61674 1.344725 7
nan nan nan 0
-0.2319208 0.2610676 -0.08087836 9
-8.789654 9.725689 -1.815862 11
-15.34614 17.27434 -2.184515 10
-27.03733 30.21574 -2.598157 36
