# .PCD v0.7 - Point Cloud Data file format
VERSION 0.7
FIELDS x y z intensity
SIZE 4 4 4 4
TYPE F F F F
COUNT 1 1 1 1
WIDTH 1610
HEIGHT 1
VIEWPOINT 0 0 0 1 0 0 0
POINTS 1610
DATA ascii
nan nan nan 0
-3.018716 -8.494225 -0.733157 33
-0.7750004 -12.61537 -0.5126591 11
nan nan nan 0
-2.828394 -11.25923 -0.606312 13
-3.599744 -10.28974 -0.6319838 17
-1.212672 -18.6674 -0.3258364 8
-2.720029 -17.18127 -0.4029393 10
-3.661975 -14.40546 -0.4321888 52
nan nan nan 0
-1.783437 -5.120101 -0.9761694 23
-2.521801 -7.07124 -0.8402959 18
nan nan nan 0
-1.801566 -26.82876 1.562243 5
nan nan nan 0
-3.062793 -42.65394 5.245865 32
nan nan nan 0
-0.7174821 -9.517336 2.546779 45
nan nan nan 0
-4.371717 -27.19073 0 9
-5.57234 -21.75738 -0.1173903 10
-7.06401 -19.8433 -0.2458546 10
nan nan nan 0
-7.077532 -44.42253 1.043441 88
-10.09854 -39.74094 0.700726 10
-12.47496 -35.24415 0.456305 31
nan nan nan 0
-0.2506052 -4.206997 -1.090594 9
-0.4356565 -6.527606 -0.9034584 26
-0.618531 -8.214698 -0.7764128 33
-0.7245607 -10.10794 -0.647459 88
nan nan nan 0
-2.365176 -9.100929 -0.7073187 38
-3.031467 -8.436749 -0.7290862 34
-0.6579477 -10.11485 -0.4108184 22
-1.954817 -12.35771 -0.581594 16
nan nan nan 0
-3.612302 -10.21125 -0.6279177 19
-1.278506 -18.67303 -0.3260109 9
-2.781583 -17.18154 -0.4031714 10
-3.740961 -14.5039 -0.4355402 98
-4.771644 -13.36488 -0.4892371 33
-1.801298 -5.113845 -0.9761694 22
-2.546469 -7.062395 -0.8402959 16
-15.21099 -42.24327 1.801717 4
-3.200535 -45.34997 2.642947 13
nan nan nan 0
-2.953799 -39.2135 4.823588 30
-3.510808 -9.594736 1.855038 43
-0.7491905 -9.495514 2.541603 41
-2.209085 -31.99287 0.1844785 27
-4.456877 -27.11609 0 8
-5.654542 -21.76199 -0.1175212 9
-7.140011 -19.83734 -0.2460884 10
-3.116054 -45.50818 1.344678 69
-7.230945 -44.3877 1.043209 81
-10.23346 -39.69093 0.7004694 8
-12.65015 -35.34631 0.4581986 30
nan nan nan 0
-0.2658846 -4.215753 -1.093122 9
-0.4584395 -6.526045 -0.9034584 29
-0.6475899 -8.217452 -0.7768842 42
-0.7631833 -10.15013 -0.6503395 65
nan nan nan 0
-2.400746 -9.10708 -0.7084486 37
-3.079647 -8.477626 -0.7335641 38
-0.7020631 -10.24208 -0.4161035 9
-1.981209 -12.24727 -0.5767028 16
-2.879406 -11.13287 -0.6005551 14
-3.69001 -10.31605 -0.6351786 15
-1.345109 -18.6884 -0.32636 9
-2.83991 -17.16187 -0.4029393 9
-3.778909 -14.4424 -0.434083 49
-4.816568 -13.34344 -0.4890643 30
-1.819138 -5.107526 -0.9761694 18
-2.572811 -7.05813 -0.8408549 19
-15.36178 -42.1993 1.802118 7
-2.913319 -39.31519 2.291522 30
-15.4713 -41.79596 3.621746 5
-3.354267 -42.55236 5.236116 46
-3.532316 -9.550135 1.848762 44
-0.7846957 -9.521723 2.549367 37
nan nan nan 0
-4.543224 -27.05106 0 9
-5.736845 -21.76629 -0.1176521 10
-7.214345 -19.82638 -0.2462638 9
-3.272023 -45.45715 1.343498 71
-7.380919 -44.3326 1.042513 92
-10.37068 -39.65013 0.700384 9
-12.84153 -35.48998 0.460642 37
nan nan nan 0
-0.2809134 -4.219626 -1.094385 10
-0.4812169 -6.524405 -0.9034584 26
-0.6754596 -8.205219 -0.7759414 46
-0.7943314 -10.09268 -0.6468189 82
nan nan nan 0
-2.408035 -9.007133 -0.7012925 34
-3.114383 -8.480855 -0.7347853 35
nan nan nan 0
-2.037786 -12.32405 -0.5806624 15
nan nan nan 0
-3.758294 -10.39228 -0.6406968 16
-1.408461 -18.65866 -0.3259237 10
-2.904796 -17.18142 -0.4036357 10
-3.815191 -14.37599 -0.4324802 52
-4.845967 -13.27961 -0.4873368 27
-1.836956 -5.101144 -0.9761694 21
-2.599154 -7.053767 -0.841414 18
-15.51071 -42.15012 1.802319 9
-3.050922 -39.30975 2.291813 12
-15.60313 -41.70436 3.618503 4
-3.498716 -42.49094 5.230023 35
-3.572531 -9.556172 1.852348 59
-0.8228582 -9.576671 2.564897 38
nan nan nan 0
-4.629172 -26.98576 0 10
-5.820537 -21.77512 -0.1178092 9
-7.28869 -19.81516 -0.2464392 9
-2.973948 -39.38528 1.164188 69
-7.531434 -44.28193 1.041932 99
-10.51158 -39.62335 0.700555 10
-13.03234 -35.62805 0.4630243 30
nan nan nan 0
-0.2972987 -4.242752 -1.100704 6
-0.503611 -6.517747 -0.9027703 29
-0.7036744 -8.197851 -0.77547 45
-0.8417441 -10.23904 -0.6564204 83
nan nan nan 0
-2.444683 -9.017921 -0.7027991 36
-3.164813 -8.525983 -0.7396703 32
-1.031038 -13.66944 -0.5561599 113
nan nan nan 0
nan nan nan 0
-3.719033 -10.17286 -0.6279177 16
-1.473583 -18.65363 -0.3259237 10
-2.957103 -17.12684 -0.4025912 10
-3.870547 -14.38189 -0.4330631 42
-4.913067 -13.31887 -0.4894098 28
-1.854751 -5.094701 -0.9761694 21
-2.625499 -7.049305 -0.8419731 17
-15.65949 -42.1004 1.802519 9
-3.668404 -45.22939 2.63801 10
-15.76448 -41.69159 3.622152 4
nan nan nan 0
-3.625019 -9.59425 1.862211 97
-0.8554266 -9.564118 2.562309 39
nan nan nan 0
-4.715582 -26.92511 0 10
-5.906979 -21.79327 -0.1180186 8
-7.364787 -19.80834 -0.2466731 9
-3.584575 -45.37341 1.341729 90
-7.685106 -44.25044 1.041816 97
-10.64074 -39.55262 0.6999564 10
-13.20693 -35.71832 0.4647958 17
nan nan nan 0
-0.3103648 -4.217562 -1.094385 8
-0.5263591 -6.515949 -0.9027703 29
-0.7314063 -8.185431 -0.7745272 43
-0.8766326 -10.2261 -0.6557803 77
nan nan nan 0
-2.476147 -9.009333 -0.7027991 39
-3.173514 -8.458906 -0.7347853 34
-1.095173 -13.87494 -0.5646974 87
nan nan nan 0
nan nan nan 0
-3.787439 -10.24876 -0.633436 18
-1.538278 -18.64339 -0.3258364 10
-3.027274 -17.17549 -0.4039838 9
-3.890451 -14.25739 -0.4297116 42
-5.02244 -13.47017 -0.4956289 28
-1.872523 -5.088196 -0.9761694 21
-2.650089 -7.040099 -0.8419731 17
-15.80284 -42.03613 1.802118 9
-3.821639 -45.1616 2.634815 12
-11.3314 -29.65892 2.579202 31
-0.9290642 -10.35026 1.271097 43
-3.662001 -9.590726 1.864004 84
-0.8919175 -9.594738 2.571367 42
nan nan nan 0
-4.799866 -26.85434 0 9
-5.977714 -21.75324 -0.1179139 9
-7.444446 -19.81059 -0.2470239 8
-3.741295 -45.34069 1.341139 79
nan nan nan 0
-10.76426 -39.46219 0.6990156 9
-13.37005 -35.77503 0.4661397 13
nan nan nan 0
-0.323624 -4.197158 -1.08933 9
-0.5486891 -6.509137 -0.9020822 27
-0.7599743 -8.182827 -0.7745272 42
-0.8995352 -10.07884 -0.6464989 97
-1.718991 -9.487009 -0.671406 28
-2.50758 -9.000634 -0.7027991 39
-3.2101 -8.466412 -0.7364137 32
-1.133387 -13.74655 -0.5596156 101
nan nan nan 0
-3.07939 -11.25532 -0.6094522 14
-3.754984 -10.05315 -0.6221091 17
-1.603773 -18.64289 -0.3259237 10
nan nan nan 0
-3.945527 -14.26299 -0.4302945 40
-5.011221 -13.29827 -0.4899281 25
-1.890273 -5.081629 -0.9761694 19
-2.676418 -7.035448 -0.8425322 17
-11.41278 -30.04405 1.289234 10
-3.979259 -45.14798 2.634815 9
-11.55697 -29.93531 2.606766 22
-0.9651876 -10.34695 1.271097 34
-3.679498 -9.536591 1.855935 48
-0.9249427 -9.586759 2.570073 37
nan nan nan 0
-4.8873 -26.80299 0 9
-6.054954 -21.73706 -0.1179401 9
-7.522434 -19.80785 -0.2473162 8
-3.896546 -45.2925 1.340107 91
-7.984057 -44.1416 1.04054 100
-10.89662 -39.4051 0.6986735 9
-13.46834 -35.65799 0.4652234 17
nan nan nan 0
-0.3371266 -4.181535 -1.085539 10
-0.5714068 -6.507182 -0.9020822 30
-0.786635 -8.160303 -0.7726415 41
-0.9516687 -10.25948 -0.6583407 90
-1.753002 -9.485856 -0.6717548 25
-2.541694 -9.001422 -0.7035524 40
-3.236063 -8.445849 -0.7355995 37
-1.18179 -13.74749 -0.5598189 101
nan nan nan 0
-3.097296 -11.16752 -0.6052653 15
-3.797115 -10.05865 -0.6232708 17
-1.668839 -18.63718 -0.3259237 10
-3.144403 -17.13919 -0.4036357 8
-3.985841 -14.21545 -0.4292745 36
-5.086093 -13.3554 -0.4926921 31
-1.906264 -5.070395 -0.9752771 22
-2.70096 -7.026062 -0.8425322 17
-11.50325 -29.96672 1.287629 33
-3.953011 -43.12562 2.51748 22
nan nan nan 0
-0.9960672 -10.28918 1.264394 37
-3.743181 -9.601583 1.871176 95
nan nan nan 0
nan nan nan 0
-4.964382 -26.69728 0 9
-6.129434 -21.71098 -0.1179139 9
-7.602285 -19.80947 -0.247667 8
nan nan nan 0
-8.139 -44.11839 1.040656 99
-11.0233 -39.32831 0.6979894 9
-11.50775 -30.15074 0.393815 6
nan nan nan 0
-0.3505241 -4.165869 -1.081748 10
-0.5941176 -6.505148 -0.9020822 26
-0.8131479 -8.137694 -0.7707559 40
-0.9860483 -10.24119 -0.6573805 97
-1.790716 -9.504189 -0.6734987 29
-2.566236 -8.968529 -0.7016692 40
-3.265524 -8.434503 -0.7355995 36
nan nan nan 0
nan nan nan 0
nan nan nan 0
-3.826858 -10.03135 -0.6223995 18
-1.733885 -18.63124 -0.3259237 9
-3.20421 -17.12811 -0.4036357 11
-4.038171 -14.21107 -0.4295659 32
-5.123699 -13.31425 -0.4918284 26
-1.930959 -5.0821 -0.9788463 20
-2.727271 -7.021222 -0.8430912 17
-11.64032 -30.01022 1.29124 8
-4.103523 -43.11156 2.51748 23
nan nan nan 0
-1.030005 -10.26589 1.261957 11
-3.755012 -9.53355 1.860418 43
-1.044294 -10.08932 2.707247 14
nan nan nan 0
-5.051026 -26.6454 0 10
-6.218938 -21.73752 -0.1181757 8
-7.680431 -19.80612 -0.2479594 10
nan nan nan 0
-8.292027 -44.08479 1.04054 98
-10.3763 -36.52925 0.6489027 18
-11.59492 -30.06374 0.3932042 11
nan nan nan 0
-0.365895 -4.17426 -1.084275 8
-0.6168212 -6.503035 -0.9020822 25
-0.8405306 -8.124903 -0.7698131 42
-1.033622 -10.35686 -0.6650617 70
-1.810725 -9.4293 -0.6686158 36
-2.590581 -8.935575 -0.6997861 42
-3.298583 -8.432332 -0.7364137 27
nan nan nan 0
nan nan nan 0
-3.162865 -11.10241 -0.6029102 14
-3.874435 -10.05053 -0.6244326 20
-1.79891 -18.62507 -0.3259237 9
nan nan nan 0
-4.06285 -14.11044 -0.4269431 34
-5.164705 -13.28232 -0.4913101 27
-1.943383 -5.061556 -0.9761694 23
-2.751763 -7.011659 -0.8430912 17
-32.79628 -83.65833 3.607447 6
nan nan nan 0
-16.52105 -41.48882 3.629042 4
-1.05104 -10.11907 1.244286 23
-3.773698 -9.483829 1.853245 46
-1.07746 -10.0664 2.702071 36
nan nan nan 0
-5.1222 -26.5147 0 9
-6.301741 -21.73969 -0.1183066 9
-7.762296 -19.81177 -0.2483687 8
nan nan nan 0
-8.440216 -44.02612 1.039844 100
nan nan nan 0
nan nan nan 0
nan nan nan 0
-0.04090118 -0.3906022 -0.09225187 45
-0.6395172 -6.500842 -0.9020822 25
-0.8630967 -8.067472 -0.7646275 54
-1.07334 -10.38793 -0.6673021 80
-1.846499 -9.437607 -0.6696621 30
-2.616132 -8.907345 -0.6982795 38
-3.324328 -8.411499 -0.7355995 31
nan nan nan 0
nan nan nan 0
-3.191902 -11.05772 -0.6010785 14
-3.90768 -10.03229 -0.6241421 19
-1.862423 -18.60376 -0.3256619 10
nan nan nan 0
-4.117681 -14.11536 -0.4275259 32
-5.20555 -13.25026 -0.4907919 32
-1.957471 -5.045571 -0.9743848 22
-2.778056 -7.006628 -0.8436503 18
-33.0973 -83.56657 3.60845 35
-4.596053 -44.95891 2.627264 31
-16.68995 -41.491 3.634312 3
-1.084774 -10.10054 1.242458 15
-3.821476 -9.507103 1.860418 76
nan nan nan 0
nan nan nan 0
-5.192523 -26.38382 0 10
-6.386043 -21.74634 -0.1184637 9
-7.836928 -19.7985 -0.2485441 6
-4.516118 -45.10936 1.33642 81
-8.592886 -43.99148 1.039727 101
-11.42194 -39.16753 0.6972198 9
-13.87693 -35.24319 0.4622913 7
nan nan nan 0
-0.04361252 -0.4049073 -0.09604306 38
-0.6622055 -6.498569 -0.9020822 27
-0.8928831 -8.079252 -0.7660418 45
-1.086379 -10.1658 -0.6532199 100
-1.882353 -9.44578 -0.6707085 31
-2.651476 -8.912494 -0.6994094 31
-3.349968 -8.39059 -0.7347853 37
nan nan nan 0
nan nan nan 0
nan nan nan 0
-3.942676 -10.01859 -0.6241421 23
-1.926323 -18.5872 -0.3254874 9
nan nan nan 0
-4.169761 -14.11049 -0.4278173 33
-5.229628 -13.17628 -0.4887188 26
-1.863479 -4.754831 -0.9190627 39
-2.802497 -6.996888 -0.8436503 18
nan nan nan 0
-4.748765 -44.90288 2.62494 37
-16.81592 -41.38632 3.630258 3
-4.645647 -42.03139 5.187368 66
-3.843521 -9.466366 1.855038 95
nan nan nan 0
-3.265288 -31.32936 0.1811956 28
-5.257084 -26.22826 0 10
-6.469043 -21.74788 -0.1185946 9
-7.920851 -19.80816 -0.2490118 9
-4.671493 -45.07344 1.33583 74
-8.744442 -43.95141 1.039495 104
-11.56851 -39.16098 0.6978184 9
-13.96475 -35.10627 0.4611307 8
nan nan nan 0
-0.04222851 -0.3758617 -0.08846071 39
-0.6848857 -6.496219 -0.9020822 30
-0.9238839 -8.100818 -0.7683988 43
-1.120767 -10.15203 -0.6525798 87
-1.908376 -9.404933 -0.668267 28
-2.671055 -8.864996 -0.6963964 35
-3.396037 -8.420429 -0.7384491 32
nan nan nan 0
nan nan nan 0
-3.236385 -10.92506 -0.5950598 14
-3.97393 -9.995489 -0.6235612 22
-1.988537 -18.55551 -0.3250511 10
-3.139984 -15.57734 -0.3680071 12
-4.249098 -14.19639 -0.4308774 36
-5.230916 -13.04665 -0.4845727 21
-1.983569 -5.008921 -0.9699234 22
-2.82877 -6.991667 -0.8442094 17
-16.86634 -41.73938 1.806533 4
nan nan nan 0
-16.96975 -41.35042 3.632285 4
-4.791212 -42.00505 5.18615 65
-3.89523 -9.498393 1.864004 117
-4.872729 -41.56022 11.20169 10
-3.384789 -31.41222 0.1817427 30
-5.352603 -26.22935 0 10
-6.552131 -21.7491 -0.1187255 9
-8.003061 -19.81283 -0.2494211 7
-4.82614 -45.03201 1.335093 95
-8.895823 -43.91082 1.039263 106
-11.708 -39.12994 0.6979894 8
-14.03872 -34.9367 0.4595425 8
nan nan nan 0
-0.04402324 -0.3805255 -0.08972443 34
-0.7075576 -6.493789 -0.9020822 28
-0.9550464 -8.122264 -0.7707559 43
-1.169692 -10.26705 -0.660261 85
-1.937162 -9.378675 -0.6668718 31
-2.722368 -8.922377 -0.7016692 35
-3.444239 -8.454664 -0.7425199 31
nan nan nan 0
nan nan nan 0
-3.297472 -10.99022 -0.5992467 13
-4.021835 -10.01397 -0.6255943 23
-2.057135 -18.58323 -0.3256619 10
-3.20137 -15.60056 -0.3688195 8
-4.334887 -14.30104 -0.4345202 39
-5.214466 -12.87549 -0.4788719 21
-1.881973 -4.705176 -0.9119242 33
-2.855042 -6.986349 -0.8447685 18
-17.00628 -41.66638 1.805931 5
-5.054862 -44.80416 2.621165 9
-16.98037 -40.96868 3.603911 101
-4.931439 -41.93386 5.179447 66
-3.964173 -9.571065 1.881039 91
-5.013722 -41.5094 11.19263 9
-3.47951 -31.26604 0.1809652 26
-5.414649 -26.06853 0 11
-6.635306 -21.75001 -0.1188564 9
-7.354018 -18.02587 -0.2272035 8
-4.981104 -44.99502 1.334503 104
-9.048038 -43.87461 1.039147 104
-11.81987 -39.0075 0.6965356 9
-14.15306 -34.86895 0.4592981 8
nan nan nan 0
-0.4396898 -4.176862 -1.086803 10
-0.7302209 -6.491279 -0.9020822 30
-0.9863696 -8.14359 -0.773113 43
-1.204364 -10.25299 -0.6596209 90
-1.961687 -9.332806 -0.6640816 35
-2.775587 -8.984269 -0.7073187 32
-3.464235 -8.419554 -0.7404845 35
nan nan nan 0
nan nan nan 0
-3.300958 -10.86398 -0.5929664 14
-4.073674 -10.04149 -0.6282082 20
-2.122556 -18.58091 -0.3257491 10
nan nan nan 0
-4.37451 -14.25238 -0.4335002 43
-5.340809 -13.05605 -0.4863003 22
-2.033271 -5.031427 -0.9770617 19
-2.879411 -6.97634 -0.8447685 18
-17.05638 -41.37582 1.795898 41
-5.212379 -44.79615 2.621745 9
-17.30228 -41.33667 3.641608 28
-5.074805 -41.89175 5.1764 69
-4.041272 -9.661518 1.90166 61
-5.153824 -41.4533 11.18228 9
-3.570973 -31.09972 0.1800725 25
-5.498378 -26.01523 0 10
-6.718568 -21.7506 -0.1189873 10
-7.37115 -17.88916 -0.2258003 12
-5.134169 -44.9426 1.333471 103
-9.198053 -43.82808 1.038799 111
-11.93836 -38.90865 0.6955095 10
-14.23106 -34.71294 0.4578932 9
nan nan nan 0
-0.4553002 -4.184922 -1.08933 10
-0.7528752 -6.48869 -0.9020822 25
-1.011727 -8.115399 -0.7707559 43
-1.224628 -10.11992 -0.6512997 93
-1.992168 -9.316146 -0.6633841 36
-2.792038 -8.926944 -0.7035524 35
-3.499349 -8.421211 -0.7417057 30
-1.411024 -12.354 -0.5043249 7
nan nan nan 0
nan nan nan 0
-4.135229 -10.09186 -0.6322743 17
-2.188569 -18.58332 -0.3259237 11
-3.326818 -15.65606 -0.3706764 11
-4.436104 -14.2752 -0.4346659 47
-5.344334 -12.93574 -0.4824997 27
-2.048958 -5.019746 -0.9761694 18
-2.905661 -6.970832 -0.8453276 18
-17.20647 -41.32987 1.7965 101
-5.36456 -44.74299 2.619712 11
nan nan nan 0
-5.215482 -41.82946 5.170916 74
-4.067307 -9.629232 1.898074 43
-5.293596 -41.39673 11.17192 10
-3.673055 -31.03244 0.1797557 24
-5.577597 -25.9421 0 10
-6.801913 -21.75088 -0.1191182 10
-8.279297 -19.8941 -0.2515259 7
-5.288097 -44.89958 1.332734 103
-9.348899 -43.78593 1.038567 108
-12.05333 -38.7999 0.6943122 9
-14.32536 -34.59839 0.457038 8
nan nan nan 0
-0.4688388 -4.17369 -1.086803 9
-0.7755204 -6.486023 -0.9020822 29
-1.040049 -8.111817 -0.7707559 41
-1.251962 -10.05121 -0.647139 75
-2.034208 -9.353001 -0.666523 31
-2.814146 -8.888625 -0.7012925 36
-3.511343 -8.367599 -0.738042 38
nan nan nan 0
nan nan nan 0
nan nan nan 0
-4.151322 -10.03126 -0.6293699 17
-2.253424 -18.57556 -0.3259237 9
-3.33184 -15.41471 -0.3652218 26
-4.478405 -14.23579 -0.4339373 43
-5.426048 -13.00462 -0.485782 24
nan nan nan 0
-2.931907 -6.965225 -0.8458866 18
-4.536628 -10.80113 0.46894 39
-5.513378 -44.66454 2.616227 11
-4.573616 -10.72685 0.9452616 22
-5.357049 -41.77654 5.166651 76
-4.091233 -9.592358 1.893591 43
-5.433035 -41.33969 11.16157 11
-3.768669 -30.91521 0.179151 31
-5.656374 -25.86875 0 11
-6.885344 -21.75083 -0.1192491 10
-7.569513 -18.01239 -0.2280221 7
-5.441787 -44.85604 1.331997 105
-9.497441 -43.73349 1.038103 110
-12.1692 -38.69559 0.6932005 9
-14.40166 -34.44209 0.455633 9
nan nan nan 0
-0.4839551 -4.176835 -1.088067 10
-0.7975551 -6.478361 -0.9013941 29
-1.067063 -8.098266 -0.7698131 42
-1.288934 -10.06163 -0.6480992 71
-2.072224 -9.370195 -0.668267 29
-2.880173 -8.987946 -0.7099552 31
-3.5269 -8.32318 -0.7351924 37
-1.669241 -13.76731 -0.5626647 109
nan nan nan 0
nan nan nan 0
-4.190166 -10.02591 -0.6299508 21
-2.318251 -18.56758 -0.3259237 10
-3.318057 -15.09541 -0.3579105 17
-4.518968 -14.1915 -0.4330631 38
-5.510251 -13.07768 -0.4892371 20
-2.080162 -4.99624 -0.9743848 18
-2.958149 -6.959519 -0.8464457 19
-4.589926 -10.82201 0.4705452 16
-5.667997 -44.63512 2.615646 10
-4.60314 -10.69251 0.9436402 43
-5.497661 -41.71823 5.161776 72
-4.12664 -9.582536 1.894488 44
-5.572786 -41.28697 11.15251 11
-3.881532 -30.94155 0.1793813 32
-5.734705 -25.79515 0 10
-6.968856 -21.75047 -0.11938 9
-4.571868 -10.77933 -0.1364624 24
-5.595238 -44.81198 1.331259 109
nan nan nan 0
-12.27538 -38.56237 0.6915756 10
-14.44009 -34.19818 0.4530675 6
nan nan nan 0
-0.5002327 -4.189533 -1.091858 8
-0.820164 -6.475537 -0.9013941 26
-1.094661 -8.08956 -0.7693416 42
-1.338968 -10.17086 -0.6554602 79
-2.111479 -9.392104 -0.6703597 28
-2.893061 -8.920928 -0.7054355 29
-3.555932 -8.310818 -0.7351924 34
-1.697555 -13.60275 -0.5561599 105
nan nan nan 0
nan nan nan 0
-4.219307 -9.997432 -0.6290795 18
-2.38305 -18.55938 -0.3259237 11
-3.317341 -14.84469 -0.3522238 8
-4.548541 -14.1138 -0.4311688 43
-4.584645 -10.77806 -0.4035515 24
-2.053631 -4.884682 -0.9538621 29
-2.984387 -6.953715 -0.8470048 18
-4.611923 -10.76919 0.46894 35
-5.82054 -44.59032 2.614194 11
-4.654357 -10.70836 0.9464777 44
-5.638597 -41.66435 5.15751 76
-4.18363 -9.622191 1.905247 39
-5.711574 -41.229 11.14216 10
-3.976739 -30.82863 0.1788054 38
-5.812593 -25.72133 0 10
-7.050908 -21.74504 -0.1194847 9
-4.605526 -10.75412 -0.1363455 38
-5.748447 -44.76738 1.330522 113
nan nan nan 0
-12.42064 -38.55259 0.6921743 10
-4.604566 -10.80883 0.1430611 32
nan nan nan 0
-0.516605 -4.202168 -1.095649 8
-0.8427628 -6.472634 -0.9013941 29
-1.12221 -8.080757 -0.7688702 38
-1.382454 -10.22546 -0.6593009 69
-2.126488 -9.306872 -0.6647791 31
-2.910183 -8.868143 -0.7020458 28
-3.58492 -8.298355 -0.7351924 34
nan nan nan 0
nan nan nan 0
nan nan nan 0
-4.248302 -9.96887 -0.6282082 25
-2.44782 -18.55095 -0.3259237 10
-3.366925 -14.82327 -0.3519917 11
-4.614831 -14.1501 -0.4327716 38
-4.614344 -10.74363 -0.4028605 33
-1.98588 -4.678312 -0.9146011 38
-3.010621 -6.947813 -0.8475639 18
-4.647501 -10.74844 0.4687393 42
-5.97284 -44.54499 2.612742 12
-4.71376 -10.74224 0.9509364 28
-5.779223 -41.61001 5.153245 81
-4.246885 -9.675075 1.918696 54
-5.850703 -41.17533 11.1331 11
-4.090888 -30.86413 0.1790934 40
-5.886678 -25.63266 0 10
-7.131446 -21.73455 -0.1195632 8
-4.64701 -10.74715 -0.1364624 39
-5.901413 -44.72227 1.329785 114
nan nan nan 0
-12.535 -38.44722 0.6910626 10
-4.628425 -10.76055 0.1426335 42
nan nan nan 0
-0.05450808 -0.3889368 -0.09225187 41
-0.8660038 -6.474563 -0.9020822 27
-1.149712 -8.071861 -0.7683988 38
-1.432487 -10.32437 -0.6660219 74
-2.156708 -9.289676 -0.6640816 32
-2.945837 -8.872125 -0.7031758 29
-3.617855 -8.294924 -0.7360066 38
nan nan nan 0
nan nan nan 0
nan nan nan 0
-4.285049 -9.958564 -0.6284986 24
-2.51256 -18.54229 -0.3259237 9
-3.42876 -14.85527 -0.3530362 38
-4.682998 -14.19086 -0.4345202 36
-4.655798 -10.73663 -0.403206 28
-1.92837 -4.499596 -0.880694 75
-3.034855 -6.937262 -0.8475639 20
-4.686993 -10.73673 0.46894 41
-6.125576 -44.50409 2.61158 10
nan nan nan 0
-5.91954 -41.55519 5.14898 72
-4.362436 -9.844533 1.955456 47
-5.988832 -41.11643 11.12275 26
-4.185805 -30.75553 0.1785462 36
-5.965895 -25.56813 0 9
-7.210422 -21.71901 -0.1196156 10
-4.686499 -10.73545 -0.1365209 32
-6.054135 -44.67664 1.329047 113
nan nan nan 0
-12.65033 -38.34626 0.6900364 9
-4.667952 -10.74891 0.1426946 43
nan nan nan 0
-0.05648261 -0.3935423 -0.0935156 37
-0.888599 -6.4715 -0.9020822 28
-1.174301 -8.043171 -0.7660418 46
-1.47272 -10.34895 -0.6679422 96
nan nan nan 0
-2.973612 -8.852337 -0.7024224 32
-3.636733 -8.259447 -0.7339711 36
nan nan nan 0
nan nan nan 0
nan nan nan 0
-4.315803 -9.934391 -0.6279177 18
-2.577269 -18.53341 -0.3259237 10
-3.466906 -14.78481 -0.3516435 17
-4.711921 -14.1128 -0.4326259 44
-4.719327 -10.7798 -0.4054517 9
-2.157552 -4.984761 -0.977954 20
-3.061063 -6.93117 -0.848123 18
nan nan nan 0
-6.278794 -44.46761 2.610709 10
nan nan nan 0
-6.059544 -41.4999 5.144714 78
-4.483242 -10.02228 1.994009 59
-6.127333 -41.06184 11.11369 11
nan nan nan 0
-6.044733 -25.50336 0 10
-7.289377 -21.70319 -0.119668 9
nan nan nan 0
-6.206609 -44.63048 1.32831 116
-10.24206 -43.48809 1.036362 98
-12.7936 -38.33032 0.6905495 15
-4.707453 -10.73713 0.1427557 15
nan nan nan 0
-0.05912388 -0.4029346 -0.09604306 37
-0.9118699 -6.473264 -0.9027703 28
-1.208235 -8.078409 -0.7698131 40
-1.501658 -10.29437 -0.6647417 97
-2.22267 -9.279243 -0.6644304 34
-3.006099 -8.846623 -0.7027991 37
-3.657434 -8.228492 -0.7323428 36
nan nan nan 0
nan nan nan 0
nan nan nan 0
-4.348447 -9.914696 -0.6276273 22
-2.641243 -18.51935 -0.3258364 10
-3.512706 -14.7483 -0.3510633 17
-4.759556 -14.09153 -0.4324802 40
nan nan nan 0
nan nan nan 0
-3.087265 -6.924979 -0.848682 17
nan nan nan 0
-6.431833 -44.4306 2.609838 11
nan nan nan 0
-6.199967 -41.44904 5.141058 73
-4.538465 -10.05139 2.002975 44
-6.266255 -41.01155 11.10593 9
-4.404663 -30.75525 0.178719 36
-6.136059 -25.49183 0 10
-7.368308 -21.68708 -0.1197203 9
-8.193265 -18.4071 -0.235155 7
-6.359541 -44.58875 1.32772 115
-10.40194 -43.48611 1.037174 108
-12.92092 -38.26648 0.6902074 14
nan nan nan 0
nan nan nan 0
-0.05662588 -0.3739636 -0.08846071 37
-0.9344603 -6.470041 -0.9027703 28
-1.237177 -8.079064 -0.7702845 41
-1.561837 -10.45193 -0.6753033 67
nan nan nan 0
-3.01588 -8.774784 -0.6979028 38
-3.686134 -8.215675 -0.7323428 37
nan nan nan 0
nan nan nan 0
nan nan nan 0
-4.397191 -9.931399 -0.6296604 18
-2.703706 -18.49518 -0.3255746 9
nan nan nan 0
-4.771538 -13.96606 -0.4291288 43
-5.723817 -12.8271 -0.4842272 27
-1.887821 -4.281188 -0.841433 87
-3.111419 -6.914159 -0.848682 20
nan nan nan 0
-6.58469 -44.39306 2.608966 11
nan nan nan 0
-6.339358 -41.39281 5.136793 78
-4.593945 -10.08024 2.011941 108
-6.404901 -40.96079 11.09816 11
-4.485884 -30.5616 0.1776823 34
-6.227378 -25.47997 0 10
-7.450467 -21.68014 -0.119825 9
nan nan nan 0
-6.511535 -44.54155 1.326983 114
-10.54778 -43.42525 1.036594 113
-13.0625 -38.2448 0.690635 12
nan nan nan 0
nan nan nan 0
-0.05659608 -0.3641808 -0.08593326 39
-0.9570394 -6.46674 -0.9027703 26
-1.267673 -8.089451 -0.7716987 45
-1.561455 -10.20471 -0.6596209 103
-2.317267 -9.384565 -0.6731499 26
-3.067786 -8.825421 -0.7027991 33
-3.685968 -8.139222 -0.7266437 41
nan nan nan 0
nan nan nan 0
nan nan nan 0
-4.439987 -9.934213 -0.6308221 25
-2.771206 -18.5054 -0.3259237 10
-3.85269 -15.68948 -0.374158 41
-4.838221 -14.00128 -0.4307316 77
-5.780881 -12.83437 -0.4852638 34
-2.193587 -4.925957 -0.9708157 25
-3.137593 -6.907779 -0.8492411 18
-21.09352 -46.49214 2.048929 39
-6.734368 -44.33527 2.606933 10
-20.16402 -43.81308 3.919674 6
-6.478433 -41.33611 5.132527 84
-4.624988 -10.0552 2.010148 108
-6.542507 -40.90481 11.0891 12
-4.590308 -30.53092 0.1775959 34
-6.305449 -25.4144 0 9
-7.531024 -21.66817 -0.1199036 9
-8.253387 -18.19921 -0.2332256 11
-6.664015 -44.49878 1.326393 116
-10.6969 -43.37846 1.036362 121
nan nan nan 0
nan nan nan 0
nan nan nan 0
-0.06470837 -0.4118715 -0.0985705 35
-0.9796066 -6.46336 -0.9027703 25
-1.297472 -8.094808 -0.7726415 40
-1.588603 -10.14497 -0.6561004 105
nan nan nan 0
-3.098574 -8.814659 -0.7027991 36
-3.753772 -8.212396 -0.7343782 36
-2.005791 -13.3991 -0.5496551 120
nan nan nan 0
nan nan nan 0
-4.482856 -9.936851 -0.6319838 22
-2.838809 -18.51538 -0.3262727 9
-3.888098 -15.59833 -0.3723011 40
nan nan nan 0
-5.809087 -12.77773 -0.4838817 28
-2.226939 -4.954151 -0.977954 19
-3.16376 -6.9013 -0.8498002 18
nan nan nan 0
-6.884488 -44.28189 2.605191 12
-20.31053 -43.72886 3.918458 6
-6.616405 -41.27404 5.127653 86
-4.628958 -9.972087 1.996699 45
-6.684473 -40.87695 11.08781 10
-4.705211 -30.56907 0.1779127 35
-6.383138 -25.3486 0 10
-7.613248 -21.66062 -0.1200083 9
-8.43554 -18.42938 -0.2365583 14
-6.815521 -44.45055 1.325656 123
-10.84825 -43.34085 1.036362 119
-13.33083 -38.15739 0.6907205 8
-15.30225 -33.59058 0.4505019 6
nan nan nan 0
-0.06404311 -0.3972833 -0.09477933 36
-1.002162 -6.459901 -0.9027703 27
-1.326523 -8.095142 -0.773113 43
-1.642884 -10.25762 -0.6637815 94
nan nan nan 0
-3.146033 -8.850764 -0.7065654 33
-3.80541 -8.249005 -0.7388561 32
nan nan nan 0
nan nan nan 0
-3.657233 -10.44291 -0.5777889 13
-4.527869 -9.943851 -0.633436 25
-2.905743 -18.52018 -0.3265345 10
-3.913115 -15.46835 -0.3695158 44
-4.957506 -14.02842 -0.4326259 43
-5.843226 -12.73467 -0.483018 26
-2.246256 -4.950826 -0.9788463 19
-3.189921 -6.894722 -0.8503593 19
-15.72805 -34.03613 1.50434 44
-7.034319 -44.22802 2.603448 12
nan nan nan 0
-6.758031 -41.236 5.125824 87
nan nan nan 0
-6.81837 -40.80097 11.07357 12
-4.823543 -30.62655 0.1783446 34
-6.465394 -25.30194 0 8
-7.695509 -21.65275 -0.120113 8
-8.55856 -18.5269 -0.2381953 17
-6.96677 -44.4018 1.324919 120
-10.99948 -43.30272 1.036362 120
-13.42897 -38.01164 0.6889246 14
-15.42777 -33.55512 0.4507463 8
nan nan nan 0
-0.6294296 -4.157401 -1.088067 10
-1.024705 -6.456364 -0.9027703 27
-1.355591 -8.095371 -0.7735844 40
-1.690737 -10.32569 -0.6685823 99
-2.412923 -9.350124 -0.6724523 24
-3.175221 -8.835037 -0.7061888 32
-3.838393 -8.244705 -0.7396703 37
-2.094653 -13.35515 -0.5484354 123
nan nan nan 0
-3.763702 -10.62776 -0.5887795 13
-4.572985 -9.950656 -0.6348881 24
-2.975907 -18.54448 -0.3271453 8
nan nan nan 0
-5.009809 -14.02044 -0.4329174 36
-5.917064 -12.77767 -0.4854365 31
-2.261472 -4.938484 -0.977954 20
-3.216074 -6.888046 -0.8509184 17
-15.82141 -33.92669 1.501932 49
-7.182255 -44.16378 2.601125 57
nan nan nan 0
-6.897016 -41.18279 5.122168 86
-4.763701 -10.07736 2.024493 42
-6.398791 -37.48241 10.17806 9
-4.943128 -30.68851 0.1788054 32
-6.546148 -25.25018 0 9
-7.779501 -21.64929 -0.1202439 9
-8.602043 -18.4516 -0.2376107 20
-7.117762 -44.35253 1.324181 123
-11.14932 -43.25922 1.036246 113
-13.59016 -38.04456 0.6903784 14
-15.59743 -33.61444 0.4522734 9
nan nan nan 0
-0.6468748 -4.174304 -1.093122 10
-1.047236 -6.452748 -0.9027703 24
-1.383841 -8.09059 -0.7735844 41
-1.728412 -10.32957 -0.6692224 94
-2.461957 -9.404376 -0.6769865 24
-3.185598 -8.76767 -0.7016692 38
-3.884124 -8.267329 -0.742927 35
-2.17204 -13.54015 -0.5563632 98
nan nan nan 0
nan nan nan 0
-4.620306 -9.961797 -0.6366308 22
-3.034159 -18.49451 -0.3264472 10
-3.858576 -14.81663 -0.3545449 36
-4.992469 -13.81956 -0.4272345 38
-5.963748 -12.76146 -0.4856092 36
-2.282833 -4.939487 -0.9797386 21
-3.240098 -6.876777 -0.8509184 18
-15.95251 -33.89837 1.503136 51
-7.341279 -44.16798 2.602867 11
nan nan nan 0
-7.033204 -41.11444 5.116684 88
-4.79249 -10.04735 2.021803 45
-6.52959 -37.45984 10.17806 31
-5.055089 -30.70067 0.1789782 33
-6.626621 -25.19816 0 9
-7.860147 -21.6361 -0.1203225 9
-8.764357 -18.62954 -0.2403002 18
-7.26607 -44.28797 1.323002 125
-11.29899 -43.2152 1.03613 111
-13.7059 -37.94987 0.6895233 14
-15.68286 -33.49187 0.4513571 9
nan nan nan 0
-0.660691 -4.167242 -1.091858 9
-1.068947 -6.444166 -0.9020822 24
-1.421459 -8.139656 -0.7787699 35
-1.751886 -10.24969 -0.6644217 96
-2.484535 -9.357157 -0.6741963 30
-3.204144 -8.72374 -0.6990328 41
-3.89372 -8.213205 -0.7392632 37
-2.242679 -13.67547 -0.5622582 98
-3.050806 -11.72128 -0.5629607 17
-3.832704 -10.58714 -0.5879945 14
-4.659287 -9.954648 -0.6372116 27
-3.096223 -18.46901 -0.3261855 10
nan nan nan 0
-5.08184 -13.91471 -0.4307316 34
-5.967728 -12.65471 -0.482327 37
-2.297977 -4.927032 -0.9788463 20
-3.266219 -6.869911 -0.8514774 17
nan nan nan 0
-7.48873 -44.10272 2.600544 9
-19.49387 -40.48224 3.651336 36
-6.600742 -37.78968 4.705375 66
-4.925764 -10.2344 2.063046 45
-6.664536 -37.46059 10.18453 53
-5.158081 -30.65818 0.1788342 39
-6.706809 -25.14588 0 9
-7.956311 -21.66485 -0.1206366 8
-8.784282 -18.504 -0.2390724 19
-7.42227 -44.27219 1.323296 123
-11.45105 -43.18034 1.036246 113
-13.85714 -37.95346 0.690464 14
-15.80608 -33.45049 0.4515404 7
nan nan nan 0
-0.07111905 -0.4059031 -0.09730678 38
-1.091435 -6.440395 -0.9020822 27
-1.443771 -8.100337 -0.77547 41
-1.784232 -10.22385 -0.6631414 83
nan nan nan 0
-3.267566 -8.801303 -0.7061888 33
-3.920213 -8.195069 -0.7388561 36
-2.305228 -13.75625 -0.5659171 96
nan nan nan 0
nan nan nan 0
-4.689739 -9.929299 -0.6366308 26
-3.160673 -18.45809 -0.3261855 9
-3.884346 -14.49961 -0.3475816 15
-5.154621 -13.96252 -0.4327716 29
-6.00112 -12.61124 -0.4814632 28
-2.208093 -4.692066 -0.9333394 34
-3.290179 -6.858469 -0.8514774 20
nan nan nan 0
-7.644335 -44.08614 2.601125 10
-19.70041 -40.54842 3.663496 69
-7.314841 -41.03502 5.113028 75
-5.028137 -10.35428 2.09084 49
-6.800427 -37.46561 10.19229 72
-5.252378 -30.56607 0.1784022 40
-6.786713 -25.09336 0 9
-8.049291 -21.68382 -0.1208984 9
-8.959033 -18.70315 -0.2420542 18
-7.575921 -44.24108 1.323149 129
-11.6043 -43.14975 1.036478 111
-13.98089 -37.8814 0.6900364 12
-15.91629 -33.38157 0.4513571 9
nan nan nan 0
-0.07175119 -0.4008787 -0.09604306 44
-1.11391 -6.436546 -0.9020822 31
-1.463163 -8.046268 -0.7707559 44
-1.829507 -10.2716 -0.666662 93
-2.566866 -9.402139 -0.6787304 26
-3.303526 -8.803845 -0.7073187 32
-3.942288 -8.167874 -0.7376349 35
-2.353232 -13.74812 -0.5659171 107
-3.173873 -11.85409 -0.5704141 16
-3.903055 -10.55076 -0.5874711 14
-4.728669 -9.921877 -0.6372116 21
-3.226803 -18.45679 -0.32636 9
-3.925767 -14.4522 -0.3467692 14
-5.212068 -13.96786 -0.4335002 36
-6.025623 -12.54968 -0.4799084 28
-2.154666 -4.537745 -0.9038936 52
-3.3141 -6.846941 -0.8514774 18
-14.63389 -30.27082 1.34883 48
-6.702799 -37.86595 2.235178 53
-18.43108 -37.60224 3.40286 24
-7.455374 -40.99459 5.1112 69
-5.109743 -10.4294 2.109668 49
-6.935558 -37.46539 10.19876 60
-5.393564 -30.74455 0.1795541 46
-6.866332 -25.04059 0 9
-8.140742 -21.69772 -0.121134 9
-8.887127 -18.38821 -0.2383708 16
-7.730305 -44.21437 1.323149 88
-11.74959 -43.08969 1.036014 113
-14.11303 -37.83237 0.6900364 11
-16.03489 -33.33032 0.4514182 9
nan nan nan 0
-0.07395103 -0.4053967 -0.09730678 37
-1.136371 -6.432619 -0.9020822 25
-1.480386 -7.982374 -0.765099 45
-1.861791 -10.24551 -0.6653818 70
-2.59834 -9.388314 -0.6783816 26
-3.348387 -8.829552 -0.7103317 34
-3.964222 -8.140628 -0.7364137 39
-2.328271 -13.32149 -0.5486388 117
-3.206077 -11.8092 -0.5687836 15
-3.91187 -10.46224 -0.5832842 14
-4.752448 -9.882825 -0.6357595 22
-3.292087 -18.45034 -0.3264472 10
-3.93374 -14.28419 -0.3430555 16
-5.248444 -13.91684 -0.4324802 39
-6.041049 -12.47012 -0.4776626 34
-2.351576 -4.907133 -0.9797386 23
-3.33798 -6.835331 -0.8514774 20
-14.75919 -30.25996 1.350635 47
-7.950153 -44.02188 2.600544 9
-18.54896 -37.51087 3.400429 37
-7.585765 -40.9 5.102669 67
-5.154844 -10.42914 2.113255 45
-7.07077 -37.46469 10.20523 58
-5.526377 -30.86827 0.1803893 42
-6.937634 -24.95865 0 10
-8.23239 -21.71124 -0.1213696 9
-9.00388 -18.46492 -0.239774 16
-7.883718 -44.1822 1.323002 119
nan nan nan 0
-14.22384 -37.72675 0.6890101 8
-14.66393 -30.21137 0.4098193 25
nan nan nan 0
-0.0729129 -0.3908319 -0.0935156 39
-1.158818 -6.428613 -0.9020822 27
-1.522065 -8.050532 -0.7721701 46
-1.900264 -10.25367 -0.666342 88
-2.627057 -9.364779 -0.6773353 27
-3.393469 -8.855052 -0.7133448 33
-3.992614 -8.12674 -0.7364137 36
-2.401016 -13.46084 -0.554737 103
-3.260526 -11.84609 -0.5711128 17
-3.957195 -10.47188 -0.5845926 12
-4.806546 -9.906583 -0.6383734 20
-3.357364 -18.44366 -0.3265345 9
-3.948649 -14.14518 -0.3400381 23
-5.302332 -13.91245 -0.4329174 33
-6.099912 -12.48038 -0.4788719 30
-2.370837 -4.903321 -0.9806309 23
-3.364019 -6.828094 -0.8520365 18
-14.87134 -30.2217 1.351237 42
-8.095636 -43.94968 2.59793 10
-18.71762 -37.5217 3.407319 6
-7.733094 -40.89766 5.105716 51
-5.23516 -10.4991 2.131187 44
-7.207884 -37.47298 10.21429 58
-5.638581 -30.87338 0.1805332 41
-7.011158 -24.88616 0 10
-8.32423 -21.72439 -0.1216053 8
-9.108026 -18.51411 -0.2408264 18
-8.032527 -44.1249 1.322117 127
nan nan nan 0
-11.48403 -30.1416 0.5510713 8
nan nan nan 0
nan nan nan 0
-0.07511094 -0.3953401 -0.09477933 40
-1.181251 -6.424529 -0.9020822 25
-1.559545 -8.094054 -0.7768842 42
-1.944359 -10.29111 -0.6692224 79
-2.678813 -9.422724 -0.6822183 30
-3.427961 -8.852451 -0.7140981 33
-4.040899 -8.152927 -0.7400774 36
-2.425677 -13.32948 -0.5496551 105
nan nan nan 0
-3.950955 -10.34606 -0.5783123 13
-4.849885 -9.907674 -0.6395351 18
-3.423546 -18.44165 -0.326709 10
-4.057849 -14.34295 -0.3451445 15
-5.35266 -13.89852 -0.4330631 32
-6.150075 -12.47246 -0.4793901 36
-2.385777 -4.890596 -0.9797386 21
-3.387833 -6.81631 -0.8520365 18
nan nan nan 0
-8.241633 -43.8819 2.595606 11
nan nan nan 0
nan nan nan 0
-5.293901 -10.5247 2.140152 50
-7.34143 -37.46181 10.21818 79
-5.710646 -30.6618 0.1794101 39
-7.085634 -24.81826 0 9
-8.419874 -21.74649 -0.1218932 8
nan nan nan 0
-8.182856 -44.07694 1.321527 131
nan nan nan 0
-11.57481 -30.06401 0.5503872 15
-15.16689 -30.6999 0.4178825 40
nan nan nan 0
-0.07563963 -0.3903133 -0.0935156 40
-1.203669 -6.420366 -0.9020822 25
-1.587789 -8.088561 -0.7768842 38
-1.978388 -10.27446 -0.6685823 88
-2.677192 -9.293487 -0.6734987 35
-3.480652 -8.896143 -0.7186177 33
-4.091647 -8.183331 -0.7441482 41
-2.486744 -13.39953 -0.5529075 121
-3.282026 -11.60675 -0.5606315 17
-4.00323 -10.37412 -0.5806674 13
-4.882226 -9.88621 -0.6392447 27
-3.488827 -18.43451 -0.3267963 10
-4.067958 -14.18935 -0.3417789 25
-5.41202 -13.90769 -0.4339373 32
-6.195802 -12.45539 -0.4795629 37
-2.409364 -4.895475 -0.9824155 23
-3.411606 -6.804443 -0.8520365 19
-15.20057 -30.35389 1.361872 15
-8.392884 -43.84306 2.595026 11
-16.63483 -32.77329 2.986167 10
nan nan nan 0
-5.330607 -10.50615 2.140152 113
-7.473096 -37.44069 10.21947 70
-5.850252 -30.81361 0.180418 42
-7.161109 -24.75495 0 9
-8.515774 -21.76819 -0.1221812 9
nan nan nan 0
-8.33295 -44.02847 1.320937 135
-12.39568 -43.07996 1.039844 103
nan nan nan 0
nan nan nan 0
nan nan nan 0
-0.07786909 -0.3948062 -0.09477933 42
-1.226073 -6.416125 -0.9020822 28
-1.603367 -8.019507 -0.7707559 46
-2.002743 -10.20872 -0.6647417 85
-2.691461 -9.221837 -0.6689646 40
-3.50985 -8.879304 -0.7182411 32
-4.129175 -8.186791 -0.7457766 40
-2.541843 -13.43495 -0.554737 115
-3.321146 -11.59042 -0.5603986 16
-4.017643 -10.30427 -0.5775273 14
-4.914478 -9.86464 -0.6389542 25
-3.555044 -18.43203 -0.3269708 10
-4.123039 -14.19427 -0.3422432 30
-5.4459 -13.85151 -0.4327716 33
-6.250457 -12.45601 -0.4804266 38
-2.424245 -4.88263 -0.9815232 22
-3.437583 -6.796925 -0.8525956 18
nan nan nan 0
-8.545875 -43.8135 2.595026 11
-16.73777 -32.69285 2.98414 12
nan nan nan 0
nan nan nan 0
-7.607588 -37.4333 10.22465 76
-5.943543 -30.71937 0.1799861 38
-7.24326 -24.71541 0 9
-8.61928 -21.80807 -0.1225739 8
-9.432193 -18.67653 -0.2442175 18
-8.482803 -43.97948 1.320347 134
-12.54598 -43.03643 1.039844 116
-14.80956 -37.67801 0.6918322 8
-16.54674 -32.9114 0.4495856 7
nan nan nan 0
-0.07924674 -0.394532 -0.09477933 47
-1.248462 -6.411807 -0.9020822 27
-1.617492 -7.945565 -0.7641561 42
-2.034466 -10.1821 -0.6634615 75
-2.717982 -9.193252 -0.6675694 34
-3.529724 -8.839217 -0.7159813 31
-4.155464 -8.167888 -0.7453695 39
-2.559465 -13.27392 -0.5484354 116
-3.401946 -11.71787 -0.5671532 15
-4.079218 -10.35521 -0.5811908 13
-4.939908 -9.82959 -0.6377925 18
-3.620325 -18.42442 -0.3270581 9
-4.176793 -14.19417 -0.3425913 28
-5.5016 -13.85099 -0.4333545 31
-6.293898 -12.43411 -0.4804266 34
-2.441274 -4.874138 -0.9815232 21
-3.463548 -6.789308 -0.8531547 18
-16.69631 -32.76632 1.475445 17
-8.697787 -43.7785 2.594735 10
nan nan nan 0
-8.282582 -40.68357 5.09292 32
-5.085394 -9.852528 2.013734 43
-7.73723 -37.40179 10.22335 72
-6.098072 -30.93881 0.1813972 35
-7.292501 -24.56535 0 10
-8.710186 -21.815 -0.1227833 9
-9.481435 -18.61231 -0.2438082 30
-8.634341 -43.93979 1.320052 134
-12.70179 -43.01155 1.040308 116
-14.94652 -37.64003 0.6920888 9
-16.66605 -32.86235 0.4497078 9
nan nan nan 0
-0.08152411 -0.399006 -0.09604306 47
-1.269877 -6.402552 -0.9013941 30
-1.658307 -8.003243 -0.7702845 37
-2.067019 -10.16026 -0.6625013 76
nan nan nan 0
-3.545628 -8.789857 -0.7129682 33
-4.179395 -8.144467 -0.7445553 39
nan nan nan 0
-3.461138 -11.76821 -0.5701811 17
nan nan nan 0
-5.003558 -9.870152 -0.6415681 18
-3.685596 -18.41657 -0.3271453 10
nan nan nan 0
-5.63183 -14.03578 -0.4397659 33
-6.325892 -12.38982 -0.4795629 30
-2.462719 -4.874364 -0.9833078 21
-3.489503 -6.781592 -0.8537138 18
-16.81743 -32.72117 1.476047 4
-8.85055 -43.74788 2.594735 11
nan nan nan 0
-8.415486 -40.61068 5.087436 35
-5.131123 -9.856526 2.018217 44
-7.870722 -37.38873 10.22723 74
-6.204065 -30.90754 0.1813396 36
-7.362373 -24.48707 0 9
-8.786282 -21.78446 -0.1227833 9
-9.475476 -18.44127 -0.2419957 25
-8.785707 -43.89959 1.319757 136
-12.84612 -42.9478 1.039844 117
-15.07782 -37.58762 0.6920888 8
-16.77838 -32.79953 0.4496467 9
nan nan nan 0
-0.08383367 -0.4034689 -0.09730678 45
-1.292218 -6.398079 -0.9013941 26
-1.687258 -8.002277 -0.7707559 41
-2.090361 -10.09435 -0.6586608 70
-2.813922 -9.279068 -0.6752426 28
-3.557467 -8.731258 -0.7092019 34
-4.210092 -8.134254 -0.7449624 37
nan nan nan 0
-3.440912 -11.55022 -0.5601656 17
-4.17377 -10.38207 -0.5843309 12
-5.047079 -9.870396 -0.6427299 21
-3.750856 -18.40849 -0.3272326 10
nan nan nan 0
-5.650744 -13.94193 -0.4374345 42
-6.428631 -12.48315 -0.4840544 36
-2.457337 -4.821927 -0.9743848 27
-3.515445 -6.773779 -0.8542728 18
nan nan nan 0
-9.002197 -43.71182 2.594445 12
nan nan nan 0
-8.552076 -40.55677 5.084389 40
-5.147187 -9.803723 2.011044 40
-8.013314 -37.41771 10.24276 58
-6.304913 -30.8514 0.181138 47
-7.433244 -24.41339 0 9
-8.884912 -21.80923 -0.1230975 9
-9.475346 -18.2838 -0.2403587 24
-8.936897 -43.85886 1.319463 143
-12.99741 -42.90748 1.03996 117
-15.19204 -37.49306 0.6913191 9
-16.92717 -32.8074 0.450563 11
nan nan nan 0
-0.08524153 -0.4031738 -0.09730678 44
-1.314544 -6.39353 -0.9013941 29
-1.716221 -8.001205 -0.7712272 49
-2.120452 -10.06257 -0.6570605 90
-2.856538 -9.302567 -0.6776841 23
-3.587923 -8.718787 -0.7092019 33
-4.240769 -8.123924 -0.7453695 35
nan nan nan 0
nan nan nan 0
nan nan nan 0
-5.095243 -9.879331 -0.6444724 18
-3.815091 -18.39529 -0.3272326 10
nan nan nan 0
-5.678542 -13.87125 -0.4358316 53
-6.485996 -12.48723 -0.485091 34
-2.221776 -4.323506 -0.8744479 73
-3.541377 -6.765867 -0.8548319 18
-21.13443 -40.42113 1.830411 5
-9.153703 -43.67525 2.594154 11
-26.39354 -49.81884 4.582411 5
-8.688393 -40.50241 5.081342 69
-5.232065 -9.881309 2.030769 74
nan nan nan 0
-6.411549 -30.82431 0.1811092 41
-7.486018 -24.28217 0 11
-8.953374 -21.75958 -0.1229928 10
nan nan nan 0
-9.089938 -43.82739 1.319463 142
-13.14711 -42.86185 1.03996 118
-15.33607 -37.47219 0.6919177 9
-17.01388 -32.6949 0.44983 8
nan nan nan 0
-0.08664834 -0.4028738 -0.09730678 48
-1.337863 -6.393751 -0.9020822 27
-1.746256 -8.004895 -0.7721701 46
-2.169128 -10.11854 -0.6612211 95
nan nan nan 0
-3.618335 -8.70621 -0.7092019 28
-4.259805 -8.091439 -0.7437412 34
-2.756695 -13.29559 -0.5508748 113
nan nan nan 0
-4.227194 -10.30649 -0.5817142 13
-5.143532 -9.888047 -0.6462151 19
-3.881341 -18.39164 -0.3274071 10
-4.857647 -15.69602 -0.380541 36
-5.751759 -13.91138 -0.4377259 83
-6.501699 -12.41141 -0.483018 34
-2.456911 -4.739172 -0.9610004 34
-3.567295 -6.757856 -0.855391 17
-21.23577 -40.27198 1.827 4
-9.296739 -43.59909 2.59154 11
-26.53909 -49.67367 4.577547 3
-8.824431 -40.44759 5.078295 86
-5.152887 -9.650427 1.986836 100
-8.860888 -40.01097 10.97005 10
-6.520141 -30.80663 0.181138 36
-7.546903 -24.17953 0 10
-9.061899 -21.80669 -0.1234378 9
-9.626084 -18.26143 -0.2409433 18
-9.237713 -43.77095 1.318725 145
-13.29664 -42.8157 1.03996 119
-15.43623 -37.34451 0.6905495 9
-17.1372 -32.65302 0.4500743 6
nan nan nan 0
-0.08902107 -0.4073089 -0.0985705 51
-1.360174 -6.389042 -0.9020822 26
-1.769888 -7.97931 -0.7702845 49
-2.225643 -10.20842 -0.6676221 78
-2.907943 -9.239575 -0.674545 31
-3.648704 -8.693526 -0.7092019 39
-4.283344 -8.06772 -0.742927 37
-2.814411 -13.33967 -0.5531108 94
nan nan nan 0
nan nan nan 0
-5.178016 -9.870033 -0.6462151 18
-3.949708 -18.39753 -0.3277562 10
-4.906431 -15.65989 -0.3800767 25
-5.833031 -13.96962 -0.4402031 44
-6.568343 -12.43281 -0.4847455 33
-2.484858 -4.752355 -0.9654619 29
-3.5932 -6.749748 -0.8559501 18
-21.4513 -40.33876 1.833421 4
-9.443584 -43.54198 2.590088 11
nan nan nan 0
-8.961271 -40.39716 5.075858 97
-5.135187 -9.537125 1.967111 42
-9.006861 -40.00807 10.97781 9
-6.608709 -30.6957 0.1806196 22
-7.622224 -24.12443 0 10
-9.134091 -21.7657 -0.1233855 9
-9.748469 -18.33807 -0.242405 19
-9.388349 -43.72866 1.31843 148
-13.44602 -42.76902 1.03996 117
-4.516867 -10.82355 0.1999387 16
-17.20662 -32.50904 0.4489137 6
nan nan nan 0
-0.09044231 -0.4069957 -0.0985705 50
-1.382467 -6.384255 -0.9020822 30
-1.795547 -7.96337 -0.7693416 45
-2.240793 -10.10803 -0.6615412 84
-2.94623 -9.24838 -0.6759402 28
-3.679028 -8.680737 -0.7092019 38
-4.28793 -8.008801 -0.7388561 37
-2.864097 -13.34442 -0.5537206 87
nan nan nan 0
-4.291332 -10.2583 -0.5806674 13
-5.214774 -9.856309 -0.6465055 23
-4.017098 -18.39829 -0.328018 9
nan nan nan 0
-5.85068 -13.87549 -0.4378716 44
-6.602296 -12.39217 -0.4840544 38
-2.549712 -4.834991 -0.9842001 23
-3.619093 -6.741539 -0.8565091 18
-21.61559 -40.30766 1.835428 4
-9.594442 -43.50388 2.589798 27
nan nan nan 0
-9.096773 -40.34143 5.072811 97
-5.121459 -9.432709 1.94918 46
-9.135693 -39.9293 10.96487 9
nan nan nan 0
-7.718568 -24.13577 0 10
nan nan nan 0
-9.753337 -18.19378 -0.2409433 25
-9.537736 -43.68098 1.317988 142
-13.59674 -42.72659 1.040076 118
-4.560448 -10.82153 0.2001952 18
-17.2988 -32.40909 0.448364 6
nan nan nan 0
-0.09186244 -0.4066775 -0.0985705 50
-1.404744 -6.37939 -0.9020822 27
-1.821116 -7.947348 -0.7683988 49
-2.283724 -10.13422 -0.6637815 81
nan nan nan 0
-3.715194 -8.68159 -0.7103317 32
-4.334822 -8.028853 -0.7421128 40
-2.924485 -13.39779 -0.5563632 96
nan nan nan 0
-4.352383 -10.30305 -0.5840693 13
-5.251499 -9.842449 -0.6467959 20
-4.089952 -18.4232 -0.328716 6
nan nan nan 0
-4.604547 -10.81559 -0.3415544 22
-6.631312 -12.34264 -0.483018 35
-2.566574 -4.826062 -0.9842001 23
-3.642603 -6.728866 -0.8565091 18
-21.74665 -40.21439 1.834625 4
-9.735328 -43.42142 2.586893 88
nan nan nan 0
-9.233104 -40.29008 5.070374 103
-5.102336 -9.31988 1.929455 42
-9.271737 -39.88305 10.96099 10
-6.806559 -30.5756 0.1801877 45
-7.80277 -24.10868 0 9
-4.609607 -10.77518 -0.06115606 34
-9.914313 -18.33992 -0.2433405 19
nan nan nan 0
-13.74733 -42.68362 1.040192 119
-4.592319 -10.79175 0.1999387 18
-17.38576 -32.30009 0.447692 7
nan nan nan 0
-0.09328144 -0.4063544 -0.0985705 50
-1.427004 -6.374448 -0.9020822 27
-1.846595 -7.931245 -0.767456 45
-2.309082 -10.08241 -0.6609011 73
-2.968973 -9.09955 -0.666523 38
-3.723712 -8.618229 -0.7061888 34
-4.389062 -8.061802 -0.7465908 36
-3.007969 -13.55334 -0.5632745 97
nan nan nan 0
-4.402039 -10.31994 -0.585901 13
-5.288191 -9.828452 -0.6470863 18
-4.14874 -18.38442 -0.3282797 10
nan nan nan 0
-4.632401 -10.77649 -0.3408259 30
-6.683884 -12.33699 -0.483709 33
-2.585734 -4.821407 -0.9850924 21
-3.668453 -6.720469 -0.8570682 17
-21.87254 -40.11191 1.833421 4
nan nan nan 0
-22.0004 -39.83258 3.697951 26
-9.369188 -40.23827 5.067936 106
-5.127699 -9.289097 1.926765 41
-9.406461 -39.83164 10.95581 11
-6.972787 -30.81501 0.1817427 38
-7.877542 -24.05279 0 9
-4.647191 -10.75902 -0.06115606 36
-9.647891 -17.6995 -0.235272 9
nan nan nan 0
-13.89779 -42.64013 1.040308 114
-4.62009 -10.75269 0.1995111 29
-17.46977 -32.18648 0.446959 7
nan nan nan 0
-0.09469932 -0.4060263 -0.0985705 46
-1.449246 -6.369428 -0.9020822 26
-1.878839 -7.944131 -0.7693416 39
-2.334106 -10.03054 -0.6580207 84
-3.030412 -9.179128 -0.6731499 35
-3.7438 -8.582331 -0.7043056 34
-4.419577 -8.050799 -0.7469978 36
-2.986121 -13.23571 -0.5504682 106
nan nan nan 0
-4.400495 -10.21739 -0.5809291 12
-5.327231 -9.818707 -0.6476672 18
-4.216237 -18.38445 -0.3285415 9
nan nan nan 0
-4.664017 -10.7465 -0.3403887 26
-6.68855 -12.24344 -0.4809449 30
-2.604892 -4.816677 -0.9859847 20
-3.694288 -6.711974 -0.8576273 18
-22.00279 -40.01781 1.832618 5
-10.04048 -43.36212 2.587474 9
-22.19509 -39.85567 3.707274 84
-9.505022 -40.186 5.065499 109
-5.164882 -9.279735 1.928558 37
-9.542066 -39.78448 10.95193 11
-6.61902 -28.78283 0.1698781 47
-7.942586 -23.96819 0 11
-4.694715 -10.76565 -0.06128696 33
nan nan nan 0
nan nan nan 0
-14.04812 -42.5961 1.040424 119
-4.645654 -10.70898 0.198998 31
-17.57961 -32.12091 0.4468979 9
nan nan nan 0
-0.09611604 -0.4056932 -0.0985705 55
-1.471471 -6.36433 -0.9020822 26
-1.910036 -7.952047 -0.7707559 37
-2.3336 -9.87178 -0.6480992 103
nan nan nan 0
nan nan nan 0
-4.4549 -8.048398 -0.7482191 37
-3.007785 -13.11807 -0.5459961 109
nan nan nan 0
-4.446093 -10.22486 -0.5822375 12
-5.361472 -9.80005 -0.6476672 21
-4.279252 -18.36475 -0.3284543 10
nan nan nan 0
-4.715547 -10.7622 -0.3414087 17
-6.724009 -12.20689 -0.4804266 34
-2.61933 -4.803238 -0.9850924 23
-3.720109 -6.703381 -0.8581864 18
-22.00667 -39.69609 1.821381 83
-10.19406 -43.33653 2.588055 10
-22.46829 -40.01694 3.729568 55
-9.640605 -40.13327 5.063062 109
-5.163509 -9.201612 1.916006 34
-9.676311 -39.73215 10.94675 11
-7.246851 -31.01876 0.1832402 35
-8.051625 -24.01617 0 9
-4.722189 -10.72632 -0.06115606 8
-9.926397 -17.91154 -0.2390139 15
nan nan nan 0
-14.19672 -42.54681 1.040424 120
-4.701064 -10.73391 0.1997676 18
-17.67955 -32.03747 0.4465925 10
nan nan nan 0
-0.09753158 -0.4053553 -0.0985705 59
-1.493677 -6.359155 -0.9020822 25
-1.938959 -7.950167 -0.7712272 38
-2.407562 -10.02856 -0.6589808 79
-3.108783 -9.20028 -0.676289 33
nan nan nan 0
-4.492692 -8.0502 -0.7498474 39
-3.06374 -13.15128 -0.5478256 104
nan nan nan 0
-4.485772 -10.21842 -0.5827608 12
-5.393235 -9.776906 -0.6473768 19
nan nan nan 0
-5.284304 -15.70531 -0.3837905 22
-6.114197 -13.82155 -0.4394745 47
-6.681599 -12.03048 -0.4743803 32
-2.638455 -4.798374 -0.9859847 23
-3.743485 -6.690354 -0.8581864 18
-22.3816 -40.04201 1.840845 71
-10.34991 -43.3201 2.589217 11
-22.63731 -39.99031 3.734432 56
-9.777111 -40.08491 5.061234 115
-5.22954 -9.243451 1.928558 45
-9.810309 -39.67938 10.94157 11
-7.380462 -31.10031 0.1838738 33
-8.135408 -23.98792 0 10
nan nan nan 0
-10.14501 -18.15607 -0.2427558 16
-10.28596 -43.45436 1.316366 78
-14.34994 -42.5112 1.040772 119
nan nan nan 0
-17.77182 -31.94062 0.4461038 10
nan nan nan 0
-0.09786347 -0.4002974 -0.09730678 54
-1.515866 -6.353902 -0.9020822 28
-1.972664 -7.967513 -0.7735844 45
-2.427224 -9.957064 -0.6548201 92
-3.139267 -9.184651 -0.6759402 36
nan nan nan 0
-4.545229 -8.077884 -0.7539183 34
nan nan nan 0
nan nan nan 0
-4.531533 -10.22552 -0.5840693 13
-5.422473 -9.749298 -0.6467959 25
-4.415526 -18.36846 -0.3290651 9
-5.244099 -15.40757 -0.3769433 27
-6.221519 -13.93246 -0.4437002 43
-6.82128 -12.18144 -0.4812904 37
-2.652799 -4.784834 -0.9850924 22
-3.769261 -6.681571 -0.8587455 18
nan nan nan 0
-10.49518 -43.25945 2.587765 11
-22.799 -39.95 3.73808 57
-9.913398 -40.03609 5.059406 116
nan nan nan 0
-9.944057 -39.62616 10.9364 11
-7.490148 -31.07922 0.1839026 32
-8.228825 -23.98775 0 9
nan nan nan 0
nan nan nan 0
-10.43525 -43.40847 1.316071 120
-14.49825 -42.46085 1.040772 117
nan nan nan 0
-17.86608 -31.84787 0.4456762 9
nan nan nan 0
-0.09926017 -0.3999533 -0.09730678 53
-1.539198 -6.353387 -0.9027703 28
-2.004095 -7.975064 -0.7749986 44
-2.490673 -10.06479 -0.6625013 87
-3.190854 -9.230209 -0.6801256 33
-3.929122 -8.674542 -0.7163579 31
-4.580783 -8.074968 -0.7551395 35
-3.168298 -13.18301 -0.5500616 110
nan nan nan 0
-4.55904 -10.19141 -0.5830225 12
-5.454028 -9.725959 -0.6465055 18
-4.483169 -18.3675 -0.3293269 9
-5.387311 -15.64913 -0.3833262 27
-6.185888 -13.72385 -0.4377259 60
-6.92276 -12.26197 -0.4854365 44
