# .PCD v0.7 - Point Cloud Data file format
VERSION 0.7
FIELDS x y z intensity
SIZE 4 4 4 4
TYPE F F F F
COUNT 1 1 1 1
WIDTH 1628
HEIGHT 1
VIEWPOINT 0 0 0 1 0 0 0
POINTS 1628
DATA ascii
-0.4804966 -6.514526 -0.9020822 23
-0.6718122 -8.160568 -0.7716987 43
-0.7896648 -10.03299 -0.6429784 87
nan nan nan 0
-2.400302 -8.978236 -0.6990328 30
-3.102338 -8.448117 -0.7319357 37
nan nan nan 0
nan nan nan 0
nan nan nan 0
-3.705599 -10.24679 -0.6316934 16
-1.401714 -18.56893 -0.3243529 10
-2.889806 -17.0927 -0.4015467 10
nan nan nan 0
-4.765371 -13.05902 -0.4792174 31
-1.835284 -5.096517 -0.9752771 23
-2.592269 -7.035123 -0.8391777 18
-15.50036 -42.12198 1.801115 9
-3.512815 -45.27178 2.639752 9
-15.6171 -41.7417 3.621746 5
-0.8559704 -10.3466 1.269879 17
-3.591507 -9.606845 1.862211 102
-0.820804 -9.55261 2.558426 39
-2.396058 -31.49805 0.181714 30
-4.59199 -26.76892 0 10
-5.792123 -21.66886 -0.1172332 9
-7.261055 -19.74009 -0.2455038 9
-2.972821 -39.37033 1.163746 60
-7.531434 -44.28193 1.041932 98
-10.46799 -39.45906 0.6976474 10
-13.01516 -35.5811 0.4624135 29
nan nan nan 0
-0.2949778 -4.208967 -1.091858 10
-0.5032337 -6.512809 -0.9020822 27
-0.6998711 -8.153214 -0.7712272 43
-0.8413379 -10.23407 -0.6561004 71
-1.654426 -9.508608 -0.6721036 26
-2.427711 -8.955366 -0.6979028 33
-3.135283 -8.446578 -0.7327499 33
-1.041128 -13.80395 -0.5616483 92
nan nan nan 0
nan nan nan 0
-3.710452 -10.14942 -0.6264656 18
-1.463385 -18.52405 -0.3236549 11
-2.952003 -17.09729 -0.4018949 8
-3.857552 -14.33363 -0.4316059 40
-4.897486 -13.27668 -0.487855 32
-1.853063 -5.09008 -0.9752771 21
-2.618548 -7.030686 -0.8397368 19
-15.66123 -42.10508 1.80272 9
-3.665181 -45.18959 2.635686 11
-15.76977 -41.70558 3.623368 4
-0.889962 -10.31883 1.266832 42
-3.609349 -9.552846 1.854141 44
-0.8571373 -9.583362 2.567485 38
-2.500848 -31.4247 0.1813396 28
-4.675057 -26.69363 0 11
-5.870343 -21.65816 -0.1172856 9
-7.336891 -19.73336 -0.2457376 8
-3.584183 -45.36843 1.341581 86
-7.68254 -44.23566 1.041468 91
-10.59657 -39.38848 0.6970487 10
-13.1705 -35.61985 0.463513 20
nan nan nan 0
-0.3093196 -4.203087 -1.090594 9
-0.5259645 -6.511013 -0.9020822 25
-0.7300865 -8.170555 -0.773113 43
-0.871973 -10.17141 -0.6522598 77
-1.683251 -9.478218 -0.6703597 24
-2.478791 -9.018948 -0.7035524 37
-3.166501 -8.440247 -0.733157 31
-1.003264 -12.70451 -0.5169279 9
nan nan nan 0
nan nan nan 0
-3.738928 -10.11768 -0.6253038 18
-1.529266 -18.53378 -0.3239166 10
nan nan nan 0
-3.898349 -14.28632 -0.4305859 40
-4.990984 -13.3859 -0.4925194 30
-1.872523 -5.088196 -0.9761694 21
-2.644827 -7.026152 -0.8402959 18
-15.81163 -42.05951 1.803121 9
-3.822479 -45.17154 2.635396 10
-11.32428 -29.6403 2.577581 34
-0.9286231 -10.34532 1.270488 37
-3.653215 -9.567755 1.859521 86
-0.8910287 -9.58512 2.568779 46
-2.597717 -31.26131 0.1804468 31
-4.759413 -26.62793 0 9
-5.949884 -21.65199 -0.1173641 9
-7.416288 -19.73571 -0.2460884 9
-3.739653 -45.32077 1.340549 89
-7.833415 -44.18889 1.041004 64
-10.7261 -39.32232 0.6965356 10
nan nan nan 0
nan nan nan 0
-0.3228935 -4.18751 -1.086803 9
-0.5486891 -6.509137 -0.9020822 26
-0.7576883 -8.158043 -0.7721701 37
-0.9057087 -10.14843 -0.6509796 72
-1.713661 -9.45756 -0.6693133 20
nan nan nan 0
-3.195943 -8.429142 -0.733157 35
-1.117456 -13.55236 -0.5516878 98
nan nan nan 0
nan nan nan 0
-3.737495 -10.00639 -0.6192048 20
-1.592671 -18.51339 -0.3236549 9
-2.818374 -15.6692 -0.3687035 8
-3.954859 -14.29671 -0.4313145 37
-4.982999 -13.22346 -0.487164 33
-1.888553 -5.077019 -0.9752771 21
-2.671108 -7.02152 -0.8408549 17
-11.40923 -30.03471 1.288832 14
-3.974883 -45.09826 2.631911 8
-11.55697 -29.93531 2.606766 19
-0.9610619 -10.30248 1.265613 34
-3.69723 -9.582473 1.8649 48
-0.9240204 -9.577145 2.567485 13
nan nan nan 0
-4.853229 -26.61607 0 9
-6.030797 -21.65036 -0.1174688 9
-7.494014 -19.73307 -0.2463808 9
-3.894835 -45.27258 1.339517 95
-7.984057 -44.1416 1.04054 97
-10.84064 -39.20273 0.6950819 9
-13.4489 -35.60654 0.4645514 13
nan nan nan 0
-0.3367445 -4.176713 -1.084275 8
-0.5709777 -6.502248 -0.9013941 28
-0.783788 -8.130572 -0.7698131 38
-0.9480023 -10.21973 -0.6557803 72
-1.74938 -9.466236 -0.6703597 18
nan nan nan 0
-3.227133 -8.422588 -0.7335641 43
-1.151554 -13.39407 -0.5453864 106
nan nan nan 0
-3.077268 -11.09535 -0.6013401 14
-3.791819 -10.04465 -0.6223995 20
-1.660396 -18.54257 -0.3242657 9
-3.127274 -17.04577 -0.4014307 10
-3.973692 -14.17214 -0.427963 35
-5.045149 -13.24801 -0.4887188 33
-1.911471 -5.084206 -0.977954 21
-2.695601 -7.012153 -0.8408549 17
-11.51579 -29.99937 1.289033 30
-3.949825 -43.09082 2.515447 25
nan nan nan 0
-0.9979697 -10.30894 1.266832 30
-3.736024 -9.583255 1.86759 56
nan nan nan 0
nan nan nan 0
-4.920522 -26.46133 0 9
-6.095463 -21.59068 -0.1172594 9
-7.57002 -19.72546 -0.2466146 8
nan nan nan 0
-8.135373 -44.09872 1.040192 100
-10.97742 -39.16465 0.6950819 10
-11.49704 -30.12271 0.3934485 10
nan nan nan 0
-0.3517208 -4.180333 -1.085539 9
-0.5936713 -6.500216 -0.9013941 27
-0.8097053 -8.10302 -0.767456 38
-0.9855726 -10.23623 -0.6570605 77
-1.789794 -9.499286 -0.6731499 26
nan nan nan 0
-3.258316 -8.415918 -0.7339711 32
nan nan nan 0
nan nan nan 0
nan nan nan 0
-3.830421 -10.04067 -0.6229804 17
-1.726496 -18.55159 -0.3245275 10
nan nan nan 0
-4.023138 -14.15819 -0.427963 31
-5.089566 -13.22566 -0.488546 32
-1.927455 -5.072906 -0.9770617 19
-2.721864 -7.007331 -0.841414 17
-11.64936 -30.03351 1.292244 6
-4.104467 -43.12149 2.51806 19
nan nan nan 0
-1.01719 -10.1375 1.246114 10
-3.762232 -9.551853 1.864004 43
-1.041325 -10.06049 2.699482 38
nan nan nan 0
-4.989586 -26.32117 0 10
-6.192801 -21.64618 -0.1176783 8
-7.655108 -19.74087 -0.2471408 9
nan nan nan 0
-8.287409 -44.06023 1.03996 97
-10.36127 -36.47635 0.647962 24
-11.59852 -30.07307 0.3933263 10
nan nan nan 0
-0.04203192 -0.4196612 -0.09983423 44
-0.6163577 -6.498104 -0.9013941 25
-0.8359488 -8.080338 -0.7655704 42
-1.030664 -10.32707 -0.6631414 73
-1.811665 -9.434198 -0.6689646 29
nan nan nan 0
-3.289491 -8.409132 -0.7343782 30
nan nan nan 0
nan nan nan 0
-3.14644 -11.04479 -0.5997701 12
-3.867244 -10.0319 -0.6232708 23
-1.791722 -18.55043 -0.3246148 10
nan nan nan 0
-4.061466 -14.10563 -0.4267973 33
-5.133888 -13.20315 -0.4883733 34
-1.943383 -5.061556 -0.9761694 23
-2.746307 -6.997787 -0.841414 18
nan nan nan 0
-4.441047 -44.99455 2.628425 9
-16.50998 -41.46104 3.626611 4
-1.04951 -10.10427 1.242458 14
-3.799194 -9.547801 1.865797 84
-1.076948 -10.0616 2.700777 15
nan nan nan 0
-5.071954 -26.2545 0 10
-6.278069 -21.65805 -0.1178615 9
-7.711195 -19.68144 -0.2467316 8
nan nan nan 0
-8.438334 -44.0163 1.039611 104
nan nan nan 0
nan nan nan 0
nan nan nan 0
-0.04263143 -0.4098754 -0.09730678 38
-0.6385559 -6.490983 -0.9007061 27
-0.8641493 -8.077371 -0.7655704 41
-1.050887 -10.16953 -0.6532199 100
-1.844585 -9.427817 -0.6689646 25
-2.606289 -8.87386 -0.6956431 28
-3.322494 -8.406865 -0.7351924 35
nan nan nan 0
nan nan nan 0
-3.220998 -11.15846 -0.6065737 12
-3.902238 -10.01834 -0.6232708 20
-1.856961 -18.54904 -0.324702 10
-3.081663 -15.85895 -0.374158 9
-4.11068 -14.09137 -0.4267973 31
nan nan nan 0
-1.800488 -4.642098 -0.895863 44
-2.772552 -6.992775 -0.8419731 18
-16.55614 -41.80967 1.804526 5
-4.596053 -44.95891 2.627264 45
-16.66577 -41.4309 3.629042 4
-4.502593 -42.08188 5.191634 69
-3.797594 -9.447783 1.848762 49
nan nan nan 0
nan nan nan 0
-5.148125 -26.15815 0 10
-6.362087 -21.66479 -0.1180186 9
-7.81115 -19.73343 -0.2477255 6
-4.513134 -45.07952 1.335536 83
-8.590012 -43.97676 1.039379 102
-11.37715 -39.01395 0.6944832 8
-13.75599 -34.93617 0.4582597 7
nan nan nan 0
-0.04361252 -0.4049073 -0.09604306 36
-0.6612097 -6.488715 -0.9007061 27
-0.8945139 -8.094096 -0.767456 41
-1.072133 -10.03184 -0.6445786 101
-1.869692 -9.382187 -0.6661743 25
-2.634404 -8.855151 -0.6948898 30
-3.357371 -8.409098 -0.7364137 32
nan nan nan 0
nan nan nan 0
nan nan nan 0
-3.935354 -10.00001 -0.6229804 19
-1.921698 -18.54244 -0.324702 9
-3.08753 -15.59801 -0.3682392 10
-4.178264 -14.13925 -0.4286917 35
nan nan nan 0
-1.975072 -5.038708 -0.9743848 21
-2.798795 -6.987666 -0.8425322 18
-16.70384 -41.75626 1.804727 7
-4.751388 -44.9277 2.626392 23
-16.80466 -41.35862 3.627826 3
-4.646737 -42.04125 5.188587 74
-3.850933 -9.484592 1.858624 102
nan nan nan 0
-3.25287 -31.21 0.1805045 30
-5.230562 -26.09589 0 10
-6.447654 -21.67599 -0.1182019 9
-7.89856 -19.75245 -0.2483102 8
-4.671493 -45.07344 1.33583 71
-8.741517 -43.93671 1.039147 104
-11.50476 -38.94523 0.6939701 10
-13.83719 -34.78574 0.4569158 7
nan nan nan 0
-0.0478228 -0.4336435 -0.1036254 27
-0.6838555 -6.486368 -0.9007061 25
-0.9250059 -8.11071 -0.7693416 37
-1.117498 -10.12227 -0.6506596 88
-1.899457 -9.360938 -0.6651279 23
-2.669616 -8.860223 -0.6960197 28
-3.392304 -8.411188 -0.7376349 33
nan nan nan 0
nan nan nan 0
nan nan nan 0
-3.966545 -9.976939 -0.6223995 19
-1.985349 -18.52568 -0.3245275 10
-3.13801 -15.56754 -0.367775 12
-4.2577 -14.22512 -0.4317516 32
nan nan nan 0
nan nan nan 0
-2.825037 -6.982459 -0.8430912 17
-16.82141 -41.62822 1.801717 7
-4.897893 -44.81656 2.620874 10
-16.95271 -41.30893 3.628637 9
-4.792336 -42.01492 5.187368 70
-3.887755 -9.480193 1.860418 103
nan nan nan 0
-3.351632 -31.104 0.1799573 33
-5.310628 -26.02358 0 9
-6.531934 -21.68208 -0.118359 10
-7.332272 -18.15341 -0.2284898 10
-4.821352 -44.98728 1.333766 101
-8.892847 -43.89613 1.038915 105
-11.63633 -38.89047 0.6937135 8
-13.94921 -34.71404 0.4566104 8
nan nan nan 0
-0.4236581 -4.16393 -1.083012 10
-0.7064931 -6.483941 -0.9007061 25
-0.9550464 -8.122264 -0.7707559 42
-1.165194 -10.22738 -0.6577006 93
-1.930105 -9.344481 -0.6644304 24
-2.723825 -8.927146 -0.7020458 33
-3.434824 -8.431595 -0.7404845 31
nan nan nan 0
nan nan nan 0
nan nan nan 0
-4.029285 -10.0325 -0.626756 22
-2.049455 -18.51367 -0.3244402 10
-3.203378 -15.61035 -0.3690516 8
-4.336337 -14.30582 -0.4346659 35
-5.19569 -12.82918 -0.4771443 26
-1.995546 -4.988268 -0.9672465 25
-2.851276 -6.977153 -0.8436503 18
-16.94962 -41.52761 1.799911 8
-5.053185 -44.78928 2.620293 10
-16.97083 -40.94567 3.601884 102
-4.928544 -41.90921 5.1764 69
-4.003753 -9.666479 1.899867 63
-5.011407 -41.49022 11.18745 10
-3.455768 -31.05236 0.1797269 39
-5.388221 -25.94125 0 10
-6.616335 -21.68784 -0.118516 10
-7.372916 -18.07216 -0.2277882 12
-4.981104 -44.99502 1.334503 98
-9.044001 -43.85503 1.038683 103
-11.76042 -38.81134 0.6930295 9
-14.0308 -34.56785 0.4553276 8
nan nan nan 0
-0.43919 -4.17205 -1.085539 10
-0.7291219 -6.481435 -0.9007061 25
-0.9881559 -8.158416 -0.7745272 41
-1.202626 -10.23812 -0.6586608 89
nan nan nan 0
-2.756442 -8.922346 -0.7024224 32
-3.468033 -8.428767 -0.7412986 30
nan nan nan 0
nan nan nan 0
nan nan nan 0
-4.08119 -10.05999 -0.6293699 20
-2.113501 -18.50143 -0.3243529 11
-3.200653 -15.32506 -0.3625526 11
-4.370109 -14.23805 -0.4330631 40
-5.335127 -13.04218 -0.485782 28
-2.029576 -5.022308 -0.9752771 20
-2.877512 -6.971749 -0.8442094 18
-17.02972 -41.31116 1.793089 54
-5.207768 -44.75649 2.619422 10
-17.30998 -41.35506 3.643229 13
-5.073612 -41.8819 5.175181 62
-4.037471 -9.652445 1.899867 49
-5.149062 -41.41496 11.17192 11
-3.540792 -30.83645 0.1785462 33
-5.465303 -25.85868 0 10
-6.699379 -21.6885 -0.1186469 9
-7.344465 -17.82445 -0.2249818 13
-5.134736 -44.94756 1.333619 105
-9.194974 -43.8134 1.038451 103
-11.87382 -38.69836 0.6917467 10
-14.1381 -34.48629 0.4549001 9
nan nan nan 0
-0.450651 -4.141632 -1.077957 9
-0.7517419 -6.47885 -0.9007061 28
-1.009889 -8.100579 -0.7693416 39
-1.21866 -10.07038 -0.6480992 88
nan nan nan 0
-2.786081 -8.907911 -0.7020458 32
-3.484028 -8.384405 -0.7384491 36
nan nan nan 0
nan nan nan 0
nan nan nan 0
-4.135229 -10.09186 -0.6322743 17
-2.179237 -18.50387 -0.3245275 10
-3.369393 -15.85654 -0.3754346 14
-4.416815 -14.21316 -0.4327716 41
-5.336694 -12.91727 -0.4818087 30
-1.570001 -3.849602 -0.7468499 18
-2.903746 -6.966247 -0.8447685 17
-17.24104 -41.41289 1.800112 84
-5.360998 -44.71325 2.61797 11
nan nan nan 0
-5.214869 -41.82453 5.170307 71
-4.063474 -9.620172 1.896281 41
-5.289923 -41.36798 11.16416 10
-3.649583 -30.83383 0.1786038 32
-5.540824 -25.77101 0 10
-6.781016 -21.68407 -0.1187517 9
-8.254308 -19.8341 -0.2507658 6
-5.288681 -44.90454 1.332881 104
-9.345769 -43.77127 1.038219 105
-11.99252 -38.60416 0.690806 11
-14.22969 -34.36744 0.4539838 9
nan nan nan 0
-0.4688388 -4.17369 -1.086803 10
-0.7743527 -6.476187 -0.9007061 25
-1.036899 -8.087128 -0.7683988 37
-1.251962 -10.05121 -0.647139 77
-2.028912 -9.32863 -0.6647791 22
-2.821676 -8.912392 -0.7031758 28
-3.50748 -8.35841 -0.7372278 38
nan nan nan 0
nan nan nan 0
nan nan nan 0
-4.139855 -10.00359 -0.6276273 22
-2.244415 -18.50112 -0.3246148 10
-3.298064 -15.25836 -0.3615081 19
-4.461901 -14.18335 -0.4323345 36
-5.441456 -13.0415 -0.487164 31
-2.05707 -4.98983 -0.9717079 19
-2.929976 -6.960647 -0.8453276 18
-4.544375 -10.81955 0.4697426 34
-5.5146 -44.67445 2.616808 12
-4.532522 -10.6306 0.9367493 34
-5.357049 -41.77654 5.166651 75
-4.085437 -9.578788 1.890902 40
-5.433035 -41.33969 11.16157 11
-3.752962 -30.78616 0.1784022 38
-5.613666 -25.67336 0 10
-6.861195 -21.67457 -0.1188302 9
-7.575328 -18.02622 -0.2281975 6
-5.441787 -44.85604 1.331997 109
-9.495321 -43.72372 1.037871 106
-12.1092 -38.50484 0.6897798 9
-14.29941 -34.19764 0.4523955 9
nan nan nan 0
-0.4839551 -4.176835 -1.088067 9
-0.7969541 -6.473444 -0.9007061 28
-1.063181 -8.068653 -0.7669846 36
-1.294617 -10.10618 -0.6509796 72
-2.072224 -9.370195 -0.668267 25
-2.849724 -8.892992 -0.7024224 27
-3.532741 -8.336943 -0.7364137 36
-1.641672 -13.53916 -0.553314 101
nan nan nan 0
nan nan nan 0
-4.178604 -9.998285 -0.6282082 26
-2.310836 -18.50805 -0.3248765 9
nan nan nan 0
-4.50228 -14.13912 -0.4314602 34
-4.558648 -10.82162 -0.404588 9
nan nan nan 0
-2.954255 -6.950377 -0.8453276 18
-4.58602 -10.81282 0.4701439 13
-5.667997 -44.63512 2.615646 11
-4.61695 -10.72455 0.9464777 42
-5.498309 -41.72315 5.162385 73
-4.148068 -9.63222 1.90435 50
-5.570205 -41.26783 11.14734 10
-3.858538 -30.75799 0.1783158 40
-5.683722 -25.56575 0 11
-6.941389 -21.66477 -0.1189087 10
-4.567959 -10.77013 -0.1363455 33
-5.593382 -44.7971 1.330817 110
-9.645732 -43.68055 1.037639 112
-12.22837 -38.4147 0.6889246 10
-4.551244 -10.788 0.1425724 24
nan nan nan 0
-0.5013666 -4.199142 -1.094385 9
-0.8195457 -6.470623 -0.9007061 26
-1.087353 -8.035294 -0.7641561 40
-1.341563 -10.19065 -0.6567405 79
-2.103827 -9.358038 -0.6679182 32
-2.87921 -8.878248 -0.7020458 26
-3.559858 -8.31998 -0.7360066 36
-1.68214 -13.47881 -0.551078 101
nan nan nan 0
nan nan nan 0
-4.211535 -9.97904 -0.6279177 21
-2.378603 -18.52467 -0.3253128 10
nan nan nan 0
-4.536272 -14.07575 -0.4300031 36
-4.582688 -10.77346 -0.4033787 29
-2.03643 -4.843882 -0.9458314 33
-2.980462 -6.944587 -0.8458866 18
-4.609954 -10.7646 0.4687393 39
-5.82054 -44.59032 2.614194 11
-4.664301 -10.73121 0.9485043 42
-5.639262 -41.66927 5.15812 82
-4.18363 -9.622191 1.905247 42
-5.708925 -41.20986 11.13698 11
-3.956938 -30.67491 0.1779127 45
-5.766317 -25.51649 0 10
-7.020056 -21.64992 -0.1189611 10
-4.603556 -10.74953 -0.136287 40
-5.74336 -44.72773 1.329342 116
-9.795957 -43.63686 1.037406 109
-12.34552 -38.31944 0.6879839 10
-4.594758 -10.78584 0.1427557 39
nan nan nan 0
-0.05548489 -0.408334 -0.09730678 41
-0.8421276 -6.467723 -0.9007061 27
-1.119484 -8.061034 -0.7669846 33
-1.383786 -10.23535 -0.659941 61
-2.114276 -9.253382 -0.6609425 26
-2.907071 -8.858668 -0.7012925 26
-3.588879 -8.307503 -0.7360066 36
nan nan nan 0
nan nan nan 0
nan nan nan 0
-4.246343 -9.964279 -0.6279177 18
-2.438032 -18.4766 -0.3246148 11
-3.377991 -14.87202 -0.3531522 36
-4.569875 -14.01232 -0.4285459 45
-4.612369 -10.73904 -0.4026877 36
-1.906871 -4.49272 -0.8780171 96
-3.004684 -6.93414 -0.8458866 18
-4.643531 -10.73928 0.468338 42
-5.973504 -44.54994 2.613032 12
-4.703736 -10.71943 0.9489097 10
-5.779223 -41.61001 5.153245 79
-4.294394 -9.783149 1.940214 41
-5.847309 -41.15143 11.12663 11
-4.077766 -30.765 0.1785174 47
-5.850876 -25.47672 0 10
-7.098704 -21.63478 -0.1190135 8
-4.639064 -10.7288 -0.1362286 41
-5.898148 -44.69749 1.329047 116
-9.945994 -43.59265 1.037174 108
-12.46525 -38.23333 0.6872143 9
-4.630402 -10.76514 0.1426946 43
nan nan nan 0
-0.05450808 -0.3889368 -0.09225187 36
-0.8646989 -6.464745 -0.9007061 22
-1.148314 -8.062005 -0.767456 34
-1.430437 -10.30954 -0.6650617 85
nan nan nan 0
-2.945837 -8.872125 -0.7031758 29
-3.607879 -8.272091 -0.7339711 33
nan nan nan 0
nan nan nan 0
nan nan nan 0
-4.277149 -9.940228 -0.6273369 17
-2.498493 -18.43825 -0.3240912 11
-3.420895 -14.82117 -0.3522238 35
-4.66263 -14.12916 -0.4326259 34
-4.657788 -10.74121 -0.4033787 32
-2.130424 -4.969663 -0.9734926 22
-3.030865 -6.92816 -0.8464457 20
-4.686993 -10.73673 0.46894 36
-6.126255 -44.50903 2.611871 11
nan nan nan 0
-5.920238 -41.5601 5.149589 78
-4.364431 -9.84903 1.956352 99
-5.983268 -41.07819 11.1124 18
-4.179071 -30.70599 0.1782582 46
-5.938635 -25.45127 0 10
-7.175756 -21.61462 -0.1190396 10
-4.696511 -10.75835 -0.1368132 15
-6.052124 -44.66178 1.328605 110
-10.09584 -43.54793 1.036942 108
-12.6049 -38.20858 0.6875564 10
-4.667952 -10.74891 0.1426946 43
nan nan nan 0
-0.05092772 -0.3503591 -0.08214208 38
-0.8872599 -6.461686 -0.9007061 26
-1.172153 -8.028392 -0.7646275 40
-1.453807 -10.21556 -0.6593009 102
nan nan nan 0
-2.967257 -8.833432 -0.7009159 30
-3.616623 -8.213852 -0.7299004 31
nan nan nan 0
nan nan nan 0
nan nan nan 0
-4.303855 -9.906928 -0.6261752 18
-2.565588 -18.44923 -0.3244402 12
-3.471469 -14.80427 -0.3521077 22
-4.702421 -14.08436 -0.4317516 38
nan nan nan 0
-2.073332 -4.790699 -0.9395854 34
-3.057041 -6.922082 -0.8470048 18
nan nan nan 0
-6.278097 -44.46267 2.610418 12
nan nan nan 0
-6.06026 -41.50481 5.145323 75
-4.505362 -10.07166 2.003871 46
-6.124485 -41.04273 11.10851 10
nan nan nan 0
-6.030899 -25.44498 0 10
-7.251162 -21.58944 -0.1190396 10
-8.149146 -18.48133 -0.2357397 7
-6.205234 -44.62058 1.328015 115
-10.2455 -43.50269 1.03671 106
-12.74453 -38.18331 0.6878984 11
-4.707453 -10.73713 0.1427557 7
nan nan nan 0
-0.05595411 -0.3789549 -0.08972443 36
-0.9098099 -6.45855 -0.9007061 27
-1.206769 -8.068563 -0.7688702 39
-1.518166 -10.40794 -0.6721028 76
nan nan nan 0
-2.977207 -8.761657 -0.6960197 36
-3.616895 -8.13744 -0.7242011 40
nan nan nan 0
nan nan nan 0
nan nan nan 0
-4.33239 -9.878134 -0.6253038 24
-2.632086 -18.45501 -0.324702 9
-3.503445 -14.7094 -0.3501348 12
-4.708359 -13.94002 -0.4278173 47
-5.666875 -12.81958 -0.4831907 31
-1.866943 -4.274233 -0.8387561 66
-3.081185 -6.911369 -0.8470048 18
nan nan nan 0
-6.430403 -44.42072 2.609257 11
nan nan nan 0
-6.200701 -41.45395 5.141667 78
-4.536438 -10.04691 2.002078 45
-6.26334 -40.99245 11.10075 10
-4.375637 -30.55232 0.1775383 42
-6.092777 -25.31196 0 9
-7.339348 -21.60187 -0.1192491 9
-8.16682 -18.34773 -0.234395 11
-6.35813 -44.57885 1.327425 116
-10.39613 -43.4618 1.036594 112
-12.86174 -38.09123 0.6870432 11
nan nan nan 0
nan nan nan 0
-0.05987934 -0.3979321 -0.09477933 34
-0.932349 -6.455335 -0.9007061 26
-1.236427 -8.074143 -0.7698131 37
-1.566981 -10.48648 -0.6775436 64
-2.250335 -9.252042 -0.6630353 30
-3.001287 -8.732352 -0.6945132 33
-3.692263 -8.229312 -0.7335641 37
nan nan nan 0
nan nan nan 0
nan nan nan 0
-4.395168 -9.926836 -0.6293699 20
-2.698654 -18.46055 -0.3249638 9
-3.787329 -15.6591 -0.3731135 36
-4.776387 -13.98025 -0.4295659 49
-5.717703 -12.81341 -0.483709 38
nan nan nan 0
-3.107334 -6.905101 -0.8475639 18
nan nan nan 0
-6.581763 -44.37331 2.607805 12
nan nan nan 0
-6.34086 -41.40262 5.138011 74
-4.600071 -10.09366 2.01463 126
-6.399683 -40.92739 11.0891 12
-4.481532 -30.53192 0.1775095 37
-6.171602 -25.25168 0 9
-7.422835 -21.59976 -0.11938 10
nan nan nan 0
-6.510812 -44.53661 1.326836 118
-10.5466 -43.42039 1.036478 111
-12.98816 -38.02718 0.6867012 10
nan nan nan 0
nan nan nan 0
-0.0606006 -0.3929293 -0.0935156 38
-0.9548766 -6.452041 -0.9007061 25
-1.265371 -8.074697 -0.7702845 44
-1.540394 -10.0666 -0.6506596 98
-2.287397 -9.263501 -0.6644304 27
nan nan nan 0
-3.692144 -8.152837 -0.7278649 40
nan nan nan 0
nan nan nan 0
nan nan nan 0
-4.439987 -9.934213 -0.6308221 21
-2.763077 -18.45101 -0.3249638 10
nan nan nan 0
-4.828424 -13.97294 -0.4298573 49
-5.768557 -12.80704 -0.4842272 36
-2.209633 -4.961895 -0.977954 21
-3.133477 -6.898735 -0.848123 18
-21.10797 -46.52399 2.050333 19
-6.733619 -44.33033 2.606643 11
-20.1536 -43.79044 3.917647 7
-6.480736 -41.35081 5.134355 82
-4.606468 -10.01499 2.002078 44
-6.544794 -40.91912 11.09298 11
-4.571746 -30.40731 0.1768759 36
-6.246468 -25.17661 0 9
-7.506396 -21.59733 -0.1195109 8
nan nan nan 0
-6.663276 -44.49384 1.326246 125
-10.6969 -43.37846 1.036362 117
nan nan nan 0
nan nan nan 0
nan nan nan 0
-0.06265595 -0.3975044 -0.09477933 39
-0.9773927 -6.448668 -0.9007061 27
-1.30375 -8.134131 -0.7764128 33
-1.586295 -10.13018 -0.6551402 98
-2.342741 -9.347388 -0.6710572 23
-3.09692 -8.809956 -0.7024224 30
-3.768294 -8.244113 -0.7372278 37
nan nan nan 0
nan nan nan 0
-3.635471 -10.49808 -0.580144 12
-4.482856 -9.936851 -0.6319838 18
-2.825954 -18.43137 -0.3247893 10
-3.838553 -15.39946 -0.3675429 41
-4.916755 -14.06923 -0.4333545 35
-5.807017 -12.77318 -0.483709 32
-2.226939 -4.954151 -0.977954 21
-3.159612 -6.89227 -0.848682 18
nan nan nan 0
-6.884488 -44.28189 2.605191 11
-20.31053 -43.72886 3.918458 6
-6.620329 -41.29854 5.130699 80
-4.477601 -9.646461 1.931248 110
-6.676685 -40.82929 11.07487 12
-4.67862 -30.39611 0.1769047 36
-6.314784 -25.07707 0 11
-7.590032 -21.59458 -0.1196418 10
-8.458444 -18.47938 -0.2372014 13
-6.815521 -44.45055 1.325656 122
-10.84704 -43.33601 1.036246 121
-13.25992 -37.95446 0.6870432 10
-15.267 -33.51323 0.4494635 7
nan nan nan 0
-0.06334226 -0.3924966 -0.0935156 39
-0.9998967 -6.445218 -0.9007061 26
-1.321712 -8.065666 -0.7702845 40
-1.65547 -10.33646 -0.6689023 76
-2.340955 -9.203799 -0.6612913 28
-3.134337 -8.817882 -0.7039291 28
-3.803319 -8.244481 -0.7384491 34
nan nan nan 0
nan nan nan 0
-3.653931 -10.43349 -0.5772656 11
-4.532011 -9.952934 -0.6340169 22
-2.890274 -18.42139 -0.3247893 10
-3.892283 -15.38597 -0.3675429 41
-4.934185 -13.96245 -0.4305859 36
-5.845312 -12.73921 -0.4831907 34
-2.242182 -4.941869 -0.9770617 23
-3.183652 -6.881198 -0.848682 19
-20.37359 -44.08538 1.949 3
-7.036669 -44.24281 2.604319 12
nan nan nan 0
-6.762042 -41.26049 5.128871 81
-4.665828 -9.960322 1.997595 84
-6.81837 -40.80097 11.07357 10
-4.806449 -30.51789 0.1777111 37
-6.399805 -25.04518 0 9
-7.670389 -21.58209 -0.1197203 9
-8.533386 -18.47244 -0.2374938 19
-6.968318 -44.41167 1.325213 118
-10.99701 -43.29303 1.03613 115
-13.39066 -37.90323 0.6869578 12
-15.38598 -33.46428 0.4495245 9
nan nan nan 0
-0.6287121 -4.152616 -1.086803 10
-1.022389 -6.441688 -0.9007061 23
-1.344944 -8.031543 -0.767456 38
-1.683503 -10.28137 -0.6657018 81
-2.416659 -9.364614 -0.6734987 18
-3.121229 -8.684905 -0.6941366 38
-3.838393 -8.244705 -0.7396703 34
nan nan nan 0
nan nan nan 0
-3.745358 -10.57598 -0.585901 12
-4.575072 -9.955192 -0.6351786 28
-2.953769 -18.40626 -0.324702 11
nan nan nan 0
-4.967752 -13.90279 -0.4292745 43
-5.900252 -12.7414 -0.4840544 37
-2.261472 -4.938484 -0.977954 19
-3.209758 -6.874544 -0.8492411 18
-19.09529 -40.94435 1.812954 4
-7.182255 -44.16378 2.601125 50
nan nan nan 0
-6.891282 -41.14853 5.117903 71
-4.755283 -10.05957 2.020906 44
-6.399602 -37.48716 10.17935 17
-4.931214 -30.61446 0.1783734 42
-6.482172 -25.00333 0 9
-7.757515 -21.58812 -0.1199036 9
-8.616838 -18.48332 -0.23802 18
-7.120135 -44.36734 1.324624 121
-11.14807 -43.25438 1.03613 109
-13.51111 -37.8233 0.6863591 12
-15.48586 -33.37409 0.4490359 8
nan nan nan 0
-0.6417351 -4.140833 -1.084275 12
-1.044868 -6.43808 -0.9007061 23
-1.37966 -8.066055 -0.7712272 40
-1.70953 -10.21637 -0.6618612 97
-2.450596 -9.360947 -0.6738475 22
-3.197524 -8.80047 -0.7043056 32
-3.858662 -8.21322 -0.738042 40
-2.156255 -13.44149 -0.5522977 99
nan nan nan 0
-3.716577 -10.37952 -0.5756955 12
-4.63292 -9.988959 -0.6383734 19
-3.017193 -18.39091 -0.3246148 10
-3.833392 -14.71988 -0.3522238 13
-4.99077 -13.81485 -0.4270888 32
-5.89811 -12.62115 -0.4802539 35
-2.276628 -4.926095 -0.9770617 23
-3.233735 -6.863298 -0.8492411 18
-19.18277 -40.75991 1.807737 5
-7.339643 -44.15813 2.602286 10
nan nan nan 0
-7.034039 -41.11933 5.117293 68
-4.80309 -10.06954 2.026286 56
-6.537048 -37.50266 10.18971 18
-5.046163 -30.6464 0.1786614 40
-6.559241 -24.94187 0 9
-7.844779 -21.5938 -0.1200868 8
-8.719636 -18.53455 -0.2390724 22
-7.273346 -44.33235 1.324329 118
-11.29772 -43.21037 1.036014 109
-13.64136 -37.7712 0.6862736 12
-15.57469 -33.26097 0.4482417 9
nan nan nan 0
-0.6629438 -4.18158 -1.095649 6
-1.067335 -6.434393 -0.9007061 29
-1.414633 -8.100423 -0.7749986 37
-1.746857 -10.22018 -0.6625013 96
-2.44616 -9.212526 -0.6637328 34
-3.185225 -8.672262 -0.6948898 37
-3.878757 -8.181694 -0.7364137 37
-2.240259 -13.66068 -0.5616483 86
nan nan nan 0
-3.803797 -10.50733 -0.5835459 12
-4.661406 -9.959167 -0.637502 27
-3.07972 -18.3704 -0.3244402 10
nan nan nan 0
-5.102421 -13.97104 -0.4324802 27
-5.948529 -12.61404 -0.4807722 34
-2.291725 -4.913662 -0.9761694 25
-3.259809 -6.856455 -0.8498002 17
-19.33994 -40.7243 1.809141 4
-7.492069 -44.1224 2.601705 10
-19.46575 -40.42388 3.646067 46
-6.596476 -37.76523 4.702328 76
-4.949254 -10.28314 2.072909 47
-6.67637 -37.52716 10.20265 36
-5.138192 -30.53984 0.178143 45
-6.637247 -24.885 0 10
-7.933899 -21.60384 -0.1202963 9
-8.732793 -18.39561 -0.2376691 17
-7.420619 -44.26233 1.323002 126
-11.4472 -43.16584 1.035898 112
-13.7937 -37.7797 0.6872998 11
-15.70139 -33.229 0.4485472 8
nan nan nan 0
-0.06728096 -0.3820212 -0.09098815 42
-1.089789 -6.430629 -0.9007061 25
-1.436808 -8.061129 -0.7716987 39
-1.792785 -10.27301 -0.666342 80
-2.510703 -9.324345 -0.6724523 32
-3.248467 -8.749892 -0.7020458 34
-3.902987 -8.159116 -0.7355995 35
-2.299462 -13.72176 -0.5644941 85
nan nan nan 0
-3.912555 -10.69091 -0.5945364 10
-4.708945 -9.969912 -0.6392447 19
-3.13793 -18.32504 -0.3238294 11
nan nan nan 0
-5.13038 -13.89688 -0.4307316 32
-5.990375 -12.58869 -0.4805994 33
-2.073732 -4.40731 -0.8762325 98
-3.283723 -6.845034 -0.8498002 20
-19.48413 -40.66105 1.809342 16
-7.650301 -44.12057 2.603158 8
-19.71348 -40.57531 3.665929 47
-7.309619 -41.00571 5.109372 49
-5.019533 -10.33658 2.087254 48
-6.814219 -37.54165 10.213 52
-5.24984 -30.55129 0.1783158 42
-6.718851 -24.84237 0 10
-8.021444 -21.60882 -0.1204795 9
-8.898523 -18.57692 -0.2404171 15
-7.572549 -44.22137 1.322559 128
-11.59132 -43.10148 1.035317 110
-13.92549 -37.73133 0.6872998 11
-15.82589 -33.19204 0.4487915 10
nan nan nan 0
-0.06861405 -0.381784 -0.09098815 41
-1.112229 -6.426785 -0.9007061 25
-1.457838 -8.01688 -0.7679274 40
-1.816419 -10.19791 -0.6618612 97
-2.544549 -9.320335 -0.6728011 29
-3.291258 -8.771173 -0.7046822 31
-3.91843 -8.118522 -0.733157 42
-2.318756 -13.54621 -0.5575829 109
nan nan nan 0
nan nan nan 0
-4.732969 -9.930887 -0.6377925 24
-3.211332 -18.36815 -0.3247893 9
-3.903501 -14.37019 -0.3447963 19
-5.182354 -13.88826 -0.4310231 33
-6.006141 -12.50915 -0.4783536 30
-2.317514 -4.879776 -0.9726002 25
-3.309764 -6.838 -0.8503593 18
-19.53459 -40.40388 1.800914 98
-6.705407 -37.8807 2.236049 46
-18.4223 -37.58434 3.401239 26
nan nan nan 0
-5.109743 -10.4294 2.109668 62
-6.955763 -37.57462 10.22853 43
-5.380618 -30.67067 0.1791221 43
-6.814778 -24.85253 0 10
-8.110878 -21.61814 -0.120689 9
-8.906718 -18.42872 -0.238897 16
nan nan nan 0
-11.74302 -43.06558 1.035434 110
-14.04138 -37.64034 0.6865302 10
-15.94816 -33.15012 0.4489748 9
nan nan nan 0
-0.07234914 -0.3958549 -0.09477933 45
-1.135513 -6.427742 -0.9013941 24
-1.479481 -7.977479 -0.7646275 44
-1.836882 -10.10804 -0.6564204 82
-2.587703 -9.349855 -0.6755914 18
-3.31301 -8.736323 -0.7027991 34
-3.951114 -8.113753 -0.7339711 37
-2.318832 -13.26735 -0.5464027 109
nan nan nan 0
-3.91012 -10.45757 -0.5830225 11
-4.76544 -9.909809 -0.637502 19
-3.276306 -18.36175 -0.3248765 10
-3.920474 -14.23599 -0.341895 34
-5.24668 -13.91217 -0.4323345 29
-6.003983 -12.39369 -0.4747258 37
-2.351576 -4.907133 -0.9797386 22
-3.333613 -6.826406 -0.8503593 21
-18.38727 -37.69535 1.682927 13
-7.950153 -44.02188 2.600544 10
-18.55338 -37.5198 3.401239 36
nan nan nan 0
-5.165753 -10.45118 2.117738 45
-7.087775 -37.55486 10.22982 63
-5.494688 -30.69108 0.1793525 49
-6.872037 -24.7226 0 9
-8.200476 -21.62709 -0.1208984 8
-8.973186 -18.40201 -0.2389554 21
-7.880209 -44.16252 1.322412 124
nan nan nan 0
-14.19562 -37.6519 0.6876419 10
-16.06815 -33.10323 0.4490969 9
nan nan nan 0
-0.06964253 -0.3717595 -0.08846071 41
-1.157943 -6.423738 -0.9013941 26
-1.517457 -8.026073 -0.7698131 41
-1.883942 -10.16535 -0.6605811 86
-2.636481 -9.398398 -0.6797768 21
-3.372048 -8.79919 -0.7088252 36
-3.977212 -8.09544 -0.7335641 39
-2.387887 -13.38706 -0.5516878 100
nan nan nan 0
-3.953663 -10.46253 -0.5840693 11
-4.79564 -9.884134 -0.6369212 20
-3.343956 -18.36987 -0.3252256 10
-3.963426 -14.19815 -0.3413147 24
-5.286308 -13.87042 -0.4316059 40
-6.086736 -12.45345 -0.4778354 33
-2.372983 -4.907749 -0.9815232 22
-3.359621 -6.819183 -0.8509184 18
-18.49447 -37.58163 1.680719 39
-8.095636 -43.94968 2.59793 10
nan nan nan 0
nan nan nan 0
-5.228569 -10.4859 2.128497 49
-7.222469 -37.54885 10.235 74
-5.624222 -30.79468 0.1800725 41
-6.943382 -24.64552 0 10
-8.288443 -21.63102 -0.1210817 9
-9.101401 -18.50066 -0.240651 20
-8.028055 -44.10032 1.32138 131
nan nan nan 0
-11.47513 -30.11825 0.5506437 12
-16.188 -33.05593 0.4492191 11
nan nan nan 0
-0.07344248 -0.3858097 -0.09225187 42
-1.180359 -6.419658 -0.9013941 25
-1.556728 -8.079389 -0.77547 36
-1.922186 -10.17342 -0.6615412 90
-2.662456 -9.365149 -0.6780329 29
-3.415351 -8.819908 -0.7114617 32
-4.032036 -8.135072 -0.7384491 37
-2.402475 -13.20168 -0.5443699 103
nan nan nan 0
-3.975904 -10.41136 -0.5819758 11
-4.830113 -9.867333 -0.6369212 22
-3.410791 -18.37284 -0.3254874 10
-4.070091 -14.38625 -0.346189 13
-5.332895 -13.84722 -0.4314602 27
-6.136805 -12.44557 -0.4783536 40
-2.385777 -4.890596 -0.9797386 22
-3.383403 -6.807414 -0.8509184 18
-18.65443 -37.57501 1.683328 14
-8.244397 -43.89662 2.596478 11
nan nan nan 0
-7.862668 -40.80219 5.097185 42
-5.307177 -10.55106 2.145532 109
-7.357208 -37.54238 10.24018 56
-5.67955 -30.49467 0.178431 42
-7.012902 -24.56344 0 9
-8.376539 -21.63459 -0.1212649 10
nan nan nan 0
-8.183768 -44.08186 1.321674 133
-10.38305 -36.56404 0.881546 52
-11.5766 -30.06867 0.5504727 14
-16.29 -32.97232 0.4488526 10
nan nan nan 0
-0.07478876 -0.385551 -0.09225187 40
-1.202761 -6.415498 -0.9013941 25
-1.580142 -8.04948 -0.773113 40
-1.959568 -10.17645 -0.6621813 91
-2.634417 -9.144899 -0.6626865 34
-3.475199 -8.882215 -0.7174878 32
-4.078259 -8.156595 -0.7417057 42
-2.469462 -13.3062 -0.5490453 114
-3.275235 -11.58272 -0.5594669 14
-3.996037 -10.35549 -0.5796207 12
-4.851253 -9.823567 -0.6351786 24
-3.47676 -18.37064 -0.3256619 10
-4.08999 -14.26624 -0.3436358 26
-5.384825 -13.83783 -0.4317516 29
-6.195802 -12.45539 -0.4795629 38
-2.407187 -4.891063 -0.9815232 24
-3.409375 -6.800003 -0.8514774 18
nan nan nan 0
-8.395698 -43.85777 2.595897 12
-16.61679 -32.73775 2.982924 14
-8.004089 -40.76962 5.096576 53
-5.279368 -10.40528 2.119531 123
-7.49199 -37.53541 10.24535 74
nan nan nan 0
-7.08471 -24.49078 0 10
-8.466582 -21.64247 -0.1214744 9
nan nan nan 0
-8.332021 -44.02356 1.32079 136
-12.39292 -43.07035 1.039611 117
nan nan nan 0
-16.40053 -32.90631 0.4487304 13
nan nan nan 0
-0.07700161 -0.3900469 -0.0935156 47
-1.225148 -6.41126 -0.9013941 29
-1.602394 -8.014626 -0.7702845 43
-2.001785 -10.20383 -0.6644217 70
-2.670512 -9.150011 -0.6637328 32
-3.486011 -8.819032 -0.7133448 29
-4.122434 -8.173447 -0.7445553 39
nan nan nan 0
nan nan nan 0
-4.014014 -10.29496 -0.5770039 12
-4.914478 -9.86464 -0.6389542 21
-3.542755 -18.36821 -0.3258364 11
-4.114676 -14.16546 -0.3415468 24
-5.427607 -13.805 -0.4313145 30
-6.257185 -12.4694 -0.4809449 40
-2.419861 -4.873821 -0.9797386 21
-3.433091 -6.78806 -0.8514774 18
-16.60211 -32.86453 1.477251 5
-8.54683 -43.8184 2.595316 11
-16.74004 -32.69728 2.984546 11
-8.141492 -40.7171 5.093529 62
-5.104806 -9.975285 2.035252 52
-7.626813 -37.52797 10.25053 56
-5.889456 -30.43956 0.1783446 37
-7.163127 -24.44191 0 9
-8.556782 -21.64998 -0.1216838 9
-9.432193 -18.67653 -0.2442175 24
-8.481856 -43.97457 1.3202 132
-12.54039 -43.01723 1.039379 121
nan nan nan 0
-16.5108 -32.83993 0.4486082 10
nan nan nan 0
-0.07836265 -0.3897758 -0.0935156 47
-1.24752 -6.406945 -0.9013941 26
-1.627391 -7.994348 -0.7688702 40
-2.02959 -10.15763 -0.6618612 58
-2.717982 -9.193252 -0.6675694 30
-3.514925 -8.802179 -0.7129682 28
-4.135103 -8.127925 -0.7417057 41
nan nan nan 0
-3.401946 -11.71787 -0.5671532 13
nan nan nan 0
-4.946638 -9.842967 -0.6386638 18
-3.608776 -18.36555 -0.3260109 9
-4.186666 -14.22774 -0.3434037 31
-5.488682 -13.81848 -0.4323345 31
-6.287122 -12.42074 -0.4799084 36
-2.445689 -4.882931 -0.9833078 19
-3.459026 -6.780459 -0.8520365 18
-16.69631 -32.76632 1.475445 17
-8.697787 -43.7785 2.594735 11
nan nan nan 0
-8.277636 -40.65926 5.089873 75
-5.083136 -9.848158 2.012837 39
-7.763629 -37.52949 10.25829 57
-6.014994 -30.51692 0.1789206 39
-7.222795 -24.33047 0 9
-8.648993 -21.66177 -0.1219194 9
-9.426941 -18.50541 -0.242405 29
-8.631453 -43.92508 1.31961 141
-12.6933 -42.98279 1.039611 122
-14.90224 -37.52851 0.6900364 9
-16.61855 -32.76872 0.448425 12
nan nan nan 0
-0.07972275 -0.3894998 -0.0935156 47
-1.269877 -6.402552 -0.9013941 28
-1.654279 -7.983743 -0.7683988 39
-2.057096 -10.11136 -0.6593009 83
-2.731466 -9.121589 -0.6630353 30
-3.532565 -8.757492 -0.7103317 34
-4.179395 -8.144467 -0.7445553 39
-2.551009 -12.98545 -0.5368488 117
-3.452687 -11.73946 -0.5687836 14
nan nan nan 0
-4.992262 -9.847895 -0.640116 20
-3.674821 -18.36264 -0.3261855 11
nan nan nan 0
nan nan nan 0
-6.312248 -12.36312 -0.4785264 38
-2.453828 -4.856809 -0.9797386 23
-3.482673 -6.768344 -0.8520365 19
nan nan nan 0
-8.848572 -43.73809 2.594154 11
nan nan nan 0
-8.41448 -40.60582 5.086826 88
-5.112934 -9.821631 2.011044 42
-7.901544 -37.53524 10.26735 61
-6.157858 -30.67713 0.1799861 39
-7.288969 -24.24286 0 9
-8.739517 -21.66854 -0.1221289 9
-9.46176 -18.41459 -0.2416449 24
-8.781787 -43.87998 1.319168 140
-12.83753 -42.91906 1.039147 122
-15.03129 -37.47163 0.6899509 8
-16.73966 -32.72387 0.4486082 8
nan nan nan 0
-0.08108187 -0.3892192 -0.0935156 49
-1.292218 -6.398079 -0.9013941 29
-1.682138 -7.97792 -0.7683988 39
-2.095407 -10.11878 -0.660261 71
-2.815368 -9.283841 -0.6755914 18
-3.540527 -8.689707 -0.7058122 26
-4.205505 -8.125405 -0.7441482 37
nan nan nan 0
nan nan nan 0
-4.123464 -10.257 -0.5772656 10
-5.044805 -9.865952 -0.6424394 27
-3.739892 -18.3546 -0.3262727 10
nan nan nan 0
-5.605674 -13.83078 -0.4339373 35
-6.387419 -12.4032 -0.4809449 35
nan nan nan 0
-3.50857 -6.760554 -0.8525956 18
nan nan nan 0
-8.999179 -43.69716 2.593573 11
nan nan nan 0
-8.551053 -40.55192 5.083779 84
-5.144898 -9.79937 2.010148 41
-8.026454 -37.4791 10.25959 36
-6.277906 -30.71913 0.1803605 40
-7.356075 -24.15987 0 10
-8.83963 -21.6981 -0.1224692 9
nan nan nan 0
-8.932908 -43.83927 1.318873 142
-12.99162 -42.88834 1.039495 123
-15.13195 -37.3448 0.6885825 9
-16.83773 -32.63413 0.4481806 10
nan nan nan 0
-0.08244 -0.3889338 -0.0935156 54
-1.31355 -6.388678 -0.9007061 25
-1.709976 -7.972 -0.7683988 48
-2.112241 -10.02351 -0.6545001 98
-2.838978 -9.245347 -0.6734987 25
-3.584126 -8.709565 -0.7084486 28
-4.231534 -8.106259 -0.7437412 35
-2.703302 -13.27087 -0.5494518 98
nan nan nan 0
nan nan nan 0
-5.102114 -9.892636 -0.6453438 18
-3.804953 -18.34633 -0.32636 10
nan nan nan 0
-5.663389 -13.83425 -0.4346659 48
-6.43759 -12.39413 -0.4814632 40
-2.420073 -4.708359 -0.9529697 31
-3.534454 -6.752666 -0.8531547 18
-21.12517 -40.40342 1.829608 6
-9.14961 -43.65571 2.592993 12
-26.39354 -49.81884 4.582411 6
-8.687352 -40.49756 5.080733 101
nan nan nan 0
nan nan nan 0
-6.374924 -30.64808 0.1800725 46
-7.425637 -24.08627 0 10
-8.921024 -21.68098 -0.1225477 9
nan nan nan 0
-9.083853 -43.79803 1.318578 140
-13.14271 -42.84752 1.039611 122
-15.25843 -37.2825 0.6884115 9
-16.9377 -32.54855 0.4478142 7
nan nan nan 0
-0.08379714 -0.3886437 -0.0935156 46
-1.335843 -6.384054 -0.9007061 27
-1.736735 -7.961119 -0.7679274 44
-2.187909 -10.20637 -0.6669821 74
-2.849034 -9.163933 -0.668267 28
-3.624078 -8.72002 -0.7103317 26
-4.250508 -8.073807 -0.7421128 36
-2.747585 -13.25156 -0.5490453 113
nan nan nan 0
-4.191179 -10.21872 -0.5767422 12
-5.150448 -9.901329 -0.6470863 18
-3.871032 -18.34272 -0.3265345 9
-4.851738 -15.67692 -0.3800767 29
nan nan nan 0
-6.471532 -12.35388 -0.4807722 35
-2.447837 -4.72171 -0.9574313 33
-3.560327 -6.744679 -0.8537138 18
-21.22645 -40.25431 1.826197 5
-9.29778 -43.60398 2.591831 11
nan nan nan 0
-8.824431 -40.44759 5.078295 103
-5.104184 -9.559329 1.968008 44
-8.860888 -40.01097 10.97005 10
-6.49428 -30.68434 0.180418 43
-7.505201 -24.04588 0 10
-9.01968 -21.70511 -0.1228619 9
-9.62142 -18.25258 -0.2408264 19
-9.235649 -43.76117 1.31843 144
-13.29368 -42.80614 1.039727 122
-15.35028 -37.1366 0.6867012 10
-17.00938 -32.40955 0.4467146 6
nan nan nan 0
-0.0861202 -0.3930888 -0.09477933 53
-1.358119 -6.379352 -0.9007061 22
-1.763439 -7.950147 -0.767456 43
-2.209737 -10.13529 -0.6628214 80
-2.924405 -9.291914 -0.6783816 19
-3.639051 -8.670541 -0.7073187 37
-4.269306 -8.041319 -0.7404845 36
-2.796913 -13.25656 -0.5496551 95
nan nan nan 0
-4.238294 -10.2317 -0.5783123 11
-5.182658 -9.878871 -0.6467959 17
-3.93818 -18.34376 -0.3267963 10
-4.887009 -15.59787 -0.378568 24
-5.80221 -13.89583 -0.4378716 40
-6.570679 -12.43723 -0.4849182 38
-2.5214 -4.822074 -0.9797386 22
-3.586186 -6.736595 -0.8542728 17
-21.38091 -40.20644 1.827401 4
-9.446757 -43.55662 2.590959 11
-29.79993 -55.31024 5.106925 3
-8.961271 -40.39716 5.075858 108
-5.100173 -9.472178 1.953663 59
-8.999438 -39.97508 10.96875 10
-6.584525 -30.58327 0.1799573 46
-7.583066 -24.00047 0 11
-9.101194 -21.68733 -0.1229404 9
-9.778993 -18.39545 -0.2431651 15
-9.386251 -43.71889 1.318135 147
-13.44452 -42.76426 1.039844 120
-4.509163 -10.80509 0.1995966 18
-17.11773 -32.34114 0.4465925 7
nan nan nan 0
-0.08749182 -0.3927858 -0.09477933 52
-1.380379 -6.374573 -0.9007061 25
-1.79118 -7.943943 -0.767456 40
-2.23756 -10.09341 -0.6605811 66
-2.909915 -9.134315 -0.6675694 28
-3.665402 -8.648606 -0.7065654 31
-4.28322 -8.000016 -0.738042 38
-2.849448 -13.27602 -0.5508748 79
nan nan nan 0
-4.304826 -10.29054 -0.5824992 10
-5.212438 -9.851898 -0.6462151 22
-4.002188 -18.3299 -0.3267963 9
nan nan nan 0
-5.796294 -13.74655 -0.4337916 38
-6.59054 -12.37013 -0.4831907 34
-2.549712 -4.834991 -0.9842001 24
-3.612033 -6.728412 -0.8548319 18
-21.58961 -40.25923 1.83322 5
-9.592294 -43.49413 2.589217 49
-29.94761 -55.12268 5.099224 3
-9.097864 -40.34627 5.073421 104
-5.069772 -9.337633 1.929455 44
-9.13677 -39.93401 10.96616 11
-6.722229 -30.70175 0.1807924 43
-7.653094 -23.93098 0 9
-4.587576 -10.82803 -0.06136549 21
nan nan nan 0
-9.536671 -43.67609 1.31784 145
-13.59523 -42.72183 1.03996 121
nan nan nan 0
-17.18577 -32.1974 0.4454319 7
nan nan nan 0
-0.08886236 -0.392478 -0.09477933 49
-1.403683 -6.374553 -0.9013941 24
-1.817789 -7.93279 -0.7669846 46
-2.292479 -10.17317 -0.666342 80
nan nan nan 0
-3.699494 -8.644924 -0.7073187 29
-4.341932 -8.042005 -0.7433341 37
nan nan nan 0
nan nan nan 0
-4.344608 -10.28465 -0.5830225 11
-5.246795 -9.833644 -0.6462151 18
-4.080213 -18.37927 -0.3279307 7
nan nan nan 0
-4.604547 -10.81559 -0.3415544 20
-6.624212 -12.32944 -0.4824997 38
-2.559631 -4.813037 -0.9815232 24
-3.635498 -6.715763 -0.8548319 18
-21.7419 -40.20559 1.834224 4
-9.736418 -43.42629 2.587184 53
nan nan nan 0
-9.234213 -40.29492 5.070983 106
-5.121252 -9.354387 1.936628 98
-9.27611 -39.90187 10.96616 11
-6.807645 -30.58048 0.1802165 52
-7.747356 -23.93743 0 9
-4.609607 -10.77518 -0.06115606 34
nan nan nan 0
-9.686905 -43.63278 1.317546 141
-13.74427 -42.67411 1.03996 118
-4.578612 -10.75955 0.19934 26
-17.25302 -32.05357 0.4442712 8
nan nan nan 0
-0.09023182 -0.3921654 -0.09477933 49
-1.425926 -6.369614 -0.9013941 26
-1.846595 -7.931245 -0.767456 38
-2.305748 -10.06781 -0.659941 80
-2.973613 -9.113777 -0.6675694 31
-3.672271 -8.499242 -0.6963964 37
-4.377134 -8.039925 -0.7445553 35
-2.955027 -13.31434 -0.553314 112
nan nan nan 0
-4.384401 -10.27861 -0.5835459 11
-5.281089 -9.815269 -0.6462151 24
-4.12456 -18.27713 -0.32636 11
nan nan nan 0
-4.628451 -10.76731 -0.3405344 24
-6.638625 -12.25353 -0.4804266 31
-2.583405 -4.817073 -0.9842001 22
-3.661301 -6.707391 -0.855391 19
-21.88211 -40.12946 1.834224 4
-9.896812 -43.43097 2.589507 9
-21.97389 -39.7846 3.693492 36
-9.369188 -40.23827 5.067936 102
-5.132458 -9.297708 1.928558 40
-9.408681 -39.84105 10.9584 11
-6.968377 -30.7955 0.1816276 44
-7.826199 -23.89598 0 9
-4.653141 -10.77279 -0.0612346 33
-9.650286 -17.70389 -0.2353305 15
-9.836954 -43.58895 1.317251 149
-13.89624 -42.63538 1.040192 118
-4.604297 -10.71594 0.1988269 28
-17.35049 -31.96679 0.4439047 9
nan nan nan 0
-0.09160019 -0.3918481 -0.09477933 51
-1.449246 -6.369428 -0.9020822 25
-1.876554 -7.934441 -0.7683988 34
-2.322823 -9.981936 -0.6548201 88
-3.00697 -9.108078 -0.6679182 29
-3.727844 -8.545774 -0.7012925 28
-4.417176 -8.046432 -0.7465908 31
nan nan nan 0
nan nan nan 0
-4.384688 -10.1807 -0.5788357 10
-5.312936 -9.792389 -0.6459246 19
-4.196147 -18.29673 -0.3269708 9
nan nan nan 0
-4.666008 -10.75109 -0.3405344 24
-6.657383 -12.18644 -0.4786991 31
-2.602548 -4.812351 -0.9850924 22
-3.687091 -6.698921 -0.8559501 18
-21.97391 -39.96528 1.83021 9
-10.05511 -43.42534 2.59125 10
-22.18781 -39.84262 3.706058 87
-9.505022 -40.186 5.065499 109
-5.143332 -9.241064 1.920489 35
-9.542066 -39.78448 10.95193 11
-7.094865 -30.85382 0.1821171 45
-7.915854 -23.8875 0 10
-4.692716 -10.76107 -0.06126078 24
nan nan nan 0
-9.986815 -43.5446 1.316956 148
-14.04499 -42.58661 1.040192 121
-4.641675 -10.69981 0.1988269 24
-17.44757 -31.87972 0.4435382 9
nan nan nan 0
-0.09296743 -0.3915259 -0.09477933 56
-1.471471 -6.36433 -0.9020822 25
-1.906558 -7.937524 -0.7693416 36
-2.348489 -9.934915 -0.6522598 88
-3.060856 -9.163762 -0.6728011 31
nan nan nan 0
-4.450068 -8.03968 -0.7474049 37
-2.983266 -13.01093 -0.5415241 97
nan nan nan 0
nan nan nan 0
-5.347085 -9.773783 -0.6459246 24
-4.266788 -18.31119 -0.3274944 9
nan nan nan 0
-6.098018 -13.91604 -0.4418059 15
-6.709532 -12.18063 -0.4793901 36
-2.61933 -4.803238 -0.9850924 22
-3.712867 -6.690352 -0.8565091 20
-21.98971 -39.6655 1.819977 96
-10.19977 -43.36082 2.589507 11
-22.46829 -40.01694 3.729568 54
-9.639446 -40.12845 5.062452 111
-5.1611 -9.197323 1.915109 34
-9.674027 -39.72277 10.94416 10
-7.235485 -30.97007 0.1829523 39
-8.000777 -23.86447 0 10
nan nan nan 0
-9.921549 -17.9028 -0.238897 17
-10.13762 -43.50461 1.316808 147
-14.19988 -42.55629 1.040656 123
nan nan nan 0
-17.56599 -31.83175 0.4437215 9
nan nan nan 0
-0.09433354 -0.391199 -0.09477933 55
-1.493677 -6.359155 -0.9020822 27
-1.936606 -7.940494 -0.7702845 37
-2.394777 -9.975181 -0.6554602 81
nan nan nan 0
nan nan nan 0
-4.495123 -8.054549 -0.7502545 38
-3.079581 -13.21941 -0.5506715 95
nan nan nan 0
-4.465695 -10.1727 -0.580144 11
-5.378757 -9.75069 -0.6456342 25
nan nan nan 0
nan nan nan 0
-6.130376 -13.85811 -0.4406402 42
-6.654892 -11.98244 -0.47248 35
-2.638455 -4.798374 -0.9859847 24
-3.738627 -6.681686 -0.8570682 18
-22.39135 -40.05946 1.841648 75
-10.34643 -43.30553 2.588345 11
-22.62994 -39.9773 3.733216 56
-9.772409 -40.06562 5.058796 114
-5.324093 -9.41037 1.963525 33
-9.811469 -39.68407 10.94287 12
nan nan nan 0
-8.088847 -23.8506 0 10
nan nan nan 0
-10.06694 -18.01643 -0.2408849 17
-10.28712 -43.45923 1.316513 145
-14.34835 -42.50647 1.040656 123
nan nan nan 0
-17.64295 -31.70908 0.4428663 10
nan nan nan 0
-0.09569851 -0.3908674 -0.09477933 53
-1.515866 -6.353902 -0.9020822 25
-1.965505 -7.938519 -0.7707559 43
-2.423686 -9.942519 -0.65386 91
-3.166677 -9.264892 -0.6818694 24
nan nan nan 0
-4.550122 -8.086566 -0.7547324 31
nan nan nan 0
nan nan nan 0
-4.565937 -10.30312 -0.5885178 10
-5.410332 -9.727493 -0.6453438 23
-4.405023 -18.32471 -0.3282797 7
nan nan nan 0
nan nan nan 0
-6.784632 -12.11606 -0.4786991 40
-2.643241 -4.767632 -0.9815232 24
-3.764372 -6.67292 -0.8576273 18
nan nan nan 0
-10.49518 -43.25945 2.587765 12
-22.79406 -39.94134 3.737269 52
-9.911013 -40.02645 5.058187 117
-5.437409 -9.532687 1.993112 50
-9.937008 -39.59805 10.92863 11
nan nan nan 0
-8.172052 -23.82222 0 9
nan nan nan 0
nan nan nan 0
-10.43759 -43.41819 1.316366 145
-14.49825 -42.46085 1.040772 123
nan nan nan 0
-17.76576 -31.6691 0.4431717 11
nan nan nan 0
-0.0970623 -0.3905309 -0.09477933 58
-1.539198 -6.353387 -0.9027703 25
-1.996834 -7.946094 -0.7721701 44
-2.457181 -9.929154 -0.65354 97
nan nan nan 0
-3.869437 -8.542847 -0.7054355 36
-4.566014 -8.04897 -0.752697 35
-3.14499 -13.08585 -0.5459961 103
nan nan nan 0
-4.573318 -10.22332 -0.5848543 10
-5.439367 -9.699842 -0.6447629 25
-4.455937 -18.25579 -0.3273199 10
nan nan nan 0
nan nan nan 0
-6.949802 -12.30982 -0.4873368 47
-2.655057 -4.749793 -0.9797386 26
-3.790102 -6.664057 -0.8581864 18
nan nan nan 0
-10.64373 -43.21286 2.587184 11
-22.95074 -39.89177 3.740107 52
-10.04825 -39.98198 5.056968 114
-5.571276 -9.68843 2.029872 38
-10.07517 -39.56313 10.92863 11
nan nan nan 0
-8.250242 -23.77938 0 10
nan nan nan 0
nan nan nan 0
-10.5879 -43.37664 1.316218 150
nan nan nan 0
nan nan nan 0
-17.81219 -31.49376 0.4415835 9
nan nan nan 0
-0.09842493 -0.3901897 -0.09477933 54
-1.560187 -6.343165 -0.9020822 26
-2.025786 -7.943899 -0.7726415 37
-2.520939 -10.03668 -0.6612211 65
-3.191794 -9.129551 -0.6734987 28
nan nan nan 0
-4.584176 -8.015684 -0.7510687 38
nan nan nan 0
nan nan nan 0
-4.627476 -10.24824 -0.5872094 10
-5.475652 -9.685142 -0.6450533 23
-4.530443 -18.2838 -0.3281052 10
nan nan nan 0
nan nan nan 0
-6.963047 -12.23339 -0.4852638 44
-2.652264 -4.706227 -0.9726002 33
-3.815815 -6.655095 -0.8587455 19
nan nan nan 0
-10.79451 -43.17544 2.587184 11
-23.10485 -39.83727 3.742538 54
-10.18408 -39.93224 5.05514 112
-5.565555 -9.600853 2.015527 42
-10.20838 -39.509 10.92346 11
nan nan nan 0
-8.353058 -23.80705 0 9
nan nan nan 0
nan nan nan 0
-10.73684 -43.32972 1.315924 153
-14.735 -42.18871 1.036594 113
nan nan nan 0
-17.88734 -31.37059 0.4407283 9
nan nan nan 0
-0.1009181 -0.3945472 -0.09604306 55
-1.582319 -6.33768 -0.9020822 29
-2.058478 -7.956059 -0.7745272 36
-2.551038 -10.00847 -0.659941 64
-3.221981 -9.11365 -0.6731499 25
-3.941521 -8.542784 -0.7076953 34
-4.609636 -7.995319 -0.7506616 37
-3.224276 -13.01508 -0.5439634 98
nan nan nan 0
-4.652864 -10.20931 -0.585901 9
-5.514373 -9.67464 -0.6456342 17
-4.610071 -18.33091 -0.3292396 7
nan nan nan 0
-6.246084 -13.60312 -0.4352488 46
-6.978331 -12.16134 -0.4833634 39
-2.693021 -4.739692 -0.9815232 27
-3.841512 -6.646035 -0.8593045 20
-22.41375 -38.81712 1.798707 16
-10.94393 -43.13266 2.586893 12
-23.26138 -39.7865 3.745376 54
-10.32092 -39.88684 5.053921 114
-5.544387 -9.487963 1.995802 38
-2.770128 -10.55363 2.913008 11
-7.71137 -30.58696 0.1814548 9
-8.44781 -23.81073 0 9
nan nan nan 0
nan nan nan 0
-10.88681 -43.28712 1.315776 150
-14.95208 -42.33498 1.041468 114
-16.79376 -36.58358 0.6878984 8
-17.95187 -31.22995 0.4396288 10
nan nan nan 0
-0.103443 -0.398892 -0.09730678 57
-1.604432 -6.332119 -0.9020822 27
-2.084977 -7.944009 -0.7740558 35
-2.574737 -9.956024 -0.6570605 74
-3.258809 -9.11644 -0.6741963 31
-3.952368 -8.488299 -0.7043056 31
-4.632504 -7.970565 -0.7498474 35
nan nan nan 0
nan nan nan 0
-4.675949 -10.16579 -0.5843309 11
-5.545621 -9.651005 -0.6453438 16
-4.66415 -18.27595 -0.3285415 11
nan nan nan 0
-6.308243 -13.61298 -0.4362688 46
-7.138418 -12.34016 -0.4914829 40
-2.711999 -4.734529 -0.9824155 29
-3.864687 -6.632586 -0.8593045 18
-22.56168 -38.76022 1.79971 54
-11.09442 -43.0942 2.586893 13
-23.4229 -39.74369 3.749024 60
-10.45505 -39.83137 5.051484 117
-5.60246 -9.510921 2.004768 44
-2.804469 -10.53456 2.91042 7
-7.824283 -30.58408 0.1815988 9
-8.539313 -23.80463 0 10
nan nan nan 0
nan nan nan 0
-11.03537 -43.23918 1.315481 150
-15.10313 -42.29195 1.0417 119
