# .PCD v0.7 - Point Cloud Data file format
VERSION 0.7
FIELDS x y z intensity
SIZE 4 4 4 4
TYPE F F F F
COUNT 1 1 1 1
WIDTH 1560
HEIGHT 1
VIEWPOINT 0 0 0 1 0 0 0
POINTS 1560
DATA ascii
-13.39524 -15.2127 -0.1059235 36
-32.23358 -30.47861 -0.5183117 14
-8.067513 -13.57083 0.4646431 45
-10.55914 -14.5035 0.4155892 30
-13.57203 -15.47307 0.3513892 33
-47.94335 -45.50388 0.8071161 81
nan nan nan 0
-0.198433 -0.3276615 -0.08972443 8
-4.291619 -7.197058 -1.158739 54
-5.815286 -9.565785 -1.056431 31
-7.317778 -12.13488 -0.9063787 39
-8.258592 -11.25626 -0.9734516 15
-9.084775 -10.24261 -1.031224 18
-9.768034 -9.180473 -1.091797 9
-8.327349 -14.01944 -0.6618628 117
nan nan nan 0
-11.54175 -13.13575 -0.9143091 15
-12.37746 -11.74906 -0.9906695 11
nan nan nan 0
-11.35893 -15.52258 -0.4456472 21
-13.56518 -15.35161 -0.5961174 56
-18.37039 -17.33703 -0.8718854 9
-5.424446 -5.162082 -1.350933 19
-7.4478 -6.984449 -1.144435 45
-25.93423 -24.35289 1.427287 13
-8.529141 -14.16742 0.9598835 10
-26.32933 -24.45738 2.919691 27
-8.67251 -14.25356 2.043749 40
-26.16209 -24.29357 6.500254 24
-8.191481 -13.36781 4.19028 23
-8.053298 -13.42394 0.08993545 46
-11.02369 -14.98738 0 13
-13.46817 -15.18829 -0.1060806 26
-32.25593 -30.2872 -0.5169669 15
-8.032681 -13.40536 0.4599244 46
-10.5299 -14.35772 0.4124558 39
-13.54983 -15.33943 0.3494223 17
nan nan nan 0
nan nan nan 0
-0.197118 -0.3227998 -0.08846071 8
-4.314167 -7.177787 -1.158051 63
-5.853838 -9.553919 -1.057373 31
-7.329011 -12.05809 -0.9025381 66
-8.306726 -11.2394 -0.9744979 16
-9.127117 -10.21827 -1.031977 17
-9.814598 -9.159914 -1.093426 9
-8.39419 -14.0203 -0.6632858 120
-9.931813 -13.57675 -0.7826015 102
-11.63055 -13.14399 -0.917711 14
-12.44019 -11.72632 -0.992412 10
-8.355567 -13.84055 -0.2815073 36
nan nan nan 0
-14.00413 -15.73724 -0.6130203 42
-18.48549 -17.32405 -0.8744767 10
-5.44601 -5.146492 -1.351825 22
-7.443031 -6.931336 -1.139962 46
-26.05928 -24.29969 1.429494 27
-8.456906 -13.93696 0.9462331 53
-26.35959 -24.31465 2.913611 22
nan nan nan 0
-26.48182 -24.41881 6.558532 43
-8.248239 -13.35558 4.195457 30
-8.030295 -13.2802 0.08915791 45
-11.2069 -15.12559 0 25
-13.55108 -15.17475 -0.1063163 21
-32.35414 -30.1676 -0.5168501 15
-8.063931 -13.35157 0.4590397 47
-10.79972 -14.61841 0.4210438 17
-13.78606 -15.49746 0.3541257 50
-40.4696 -37.87808 0.6767608 5
nan nan nan 0
-0.1982436 -0.3221098 -0.08846071 8
-4.339196 -7.162684 -1.158051 56
-5.892379 -9.5419 -1.058316 31
-7.397106 -12.07499 -0.9057385 57
-8.354842 -11.22234 -0.9755442 15
-9.172734 -10.19747 -1.033107 17
-9.864795 -9.142529 -1.095461 10
nan nan nan 0
-9.999881 -13.57015 -0.7842319 102
-11.68633 -13.11449 -0.918496 15
-12.49928 -11.69987 -0.9938642 10
-8.362273 -13.74295 -0.2801111 47
-11.3091 -15.23019 -0.4394964 18
-13.95223 -15.56916 -0.6083574 38
-18.59708 -17.30706 -0.8768952 10
-5.460351 -5.124087 -1.350933 18
-7.474481 -6.912056 -1.14108 47
-26.23193 -24.29002 1.43431 10
-8.586194 -14.03939 0.9552366 47
-26.42225 -24.2023 2.911179 21
-8.868295 -14.34889 2.066295 93
-26.59955 -24.35611 6.566601 11
-8.019331 -12.88378 4.055695 30
-8.120812 -13.32469 0.08964747 41
-11.48688 -15.39093 0 17
-13.61065 -15.13479 -0.1063686 13
-32.43356 -30.03071 -0.5164407 15
-8.170223 -13.42155 0.4624312 39
-11.36987 -15.27844 0.4412372 35
-13.51647 -15.08808 0.3458306 36
nan nan nan 0
nan nan nan 0
-0.1968803 -0.3172661 -0.08719698 8
-4.343548 -7.113666 -1.152546 76
-5.930907 -9.529729 -1.059259 32
-7.483746 -12.12129 -0.9111794 54
-8.402941 -11.20508 -0.9765906 16
-9.218318 -10.17647 -1.034237 18
-9.907653 -9.118158 -1.096682 9
-8.512622 -13.99551 -0.6649119 119
-10.13351 -13.65147 -0.7909865 95
-11.75538 -13.09963 -0.9203277 14
-12.55833 -11.67316 -0.9953164 10
-8.462438 -13.79893 -0.2818564 45
-11.42805 -15.27869 -0.4420496 20
-13.94956 -15.45729 -0.6058803 48
-18.70877 -17.28951 -0.8793138 9
-5.474603 -5.101644 -1.350041 19
-7.425333 -6.818749 -1.129899 50
-26.14001 -24.03602 1.424679 32
-8.616825 -13.97958 0.9532036 75
-26.34434 -23.9624 2.893343 24
-9.198936 -14.76866 2.131495 43
-27.66356 -25.15313 6.807784 25
-8.048863 -12.83116 4.04793 25
-8.214353 -13.37296 0.09016583 43
nan nan nan 0
-13.7641 -15.19836 -0.107154 30
-32.44617 -29.83273 -0.5149791 15
-8.245756 -13.43982 0.4640533 41
-11.22527 -14.97466 0.4335776 38
-13.65278 -15.1336 0.3479685 32
-61.95581 -57.17842 1.029588 6
nan nan nan 0
-0.1954855 -0.3124359 -0.08593326 8
-4.394281 -7.140656 -1.159427 65
-5.969422 -9.517404 -1.060202 31
-7.536551 -12.11204 -0.9124596 47
-8.451019 -11.18762 -0.9776369 16
-9.263866 -10.15528 -1.035367 17
-9.943102 -9.08688 -1.097089 9
-8.595347 -14.02109 -0.6675545 109
-10.19605 -13.63601 -0.7921511 96
-11.82447 -13.08444 -0.9221595 13
-12.61367 -11.64279 -0.9964781 10
-8.591988 -13.90116 -0.2845615 34
-11.4753 -15.23072 -0.4418175 26
-13.91939 -15.31604 -0.6022374 39
-18.82056 -17.27139 -0.8817323 11
-5.488764 -5.079164 -1.349148 17
-7.5299 -6.866398 -1.142199 46
-25.99498 -23.7358 1.412238 35
-8.620815 -13.87732 0.9482661 45
-26.36494 -23.81352 2.886453 22
-9.22406 -14.69442 2.125401 15
-26.82737 -24.22255 6.580947 16
-8.186459 -12.94998 4.094517 30
-8.424061 -13.60784 0.09195129 47
-11.55482 -15.25854 0 22
-13.8575 -15.19455 -0.1074682 17
-32.40979 -29.5912 -0.5127573 14
-8.305755 -13.43221 0.4647906 46
-11.7443 -15.55375 0.451566 18
-13.7694 -15.15615 0.3495933 44
-61.86382 -56.69497 1.024762 4
nan nan nan 0
-0.1940595 -0.3076194 -0.08466953 8
-4.429609 -7.142114 -1.162179 63
-6.007923 -9.504926 -1.061145 32
-7.597329 -12.11526 -0.9146999 47
-8.499081 -11.16996 -0.9786833 15
-9.306005 -10.13022 -1.03612 18
-9.217957 -8.365888 -1.013637 5
-9.037905 -14.62865 -0.6980457 125
-10.29166 -13.66418 -0.7958778 88
-11.89696 -13.07263 -0.924253 13
-12.66528 -11.6088 -0.9973495 10
-8.722355 -14.00265 -0.2872666 45
-11.48307 -15.13084 -0.4400766 38
-13.99976 -15.29686 -0.6034032 42
-18.93245 -17.2527 -0.8841509 9
-5.502836 -5.056648 -1.348256 17
-7.572246 -6.856738 -1.144994 44
-26.04436 -23.61473 1.410432 29
-8.669204 -13.84714 0.9482661 47
-26.23641 -23.53171 2.863348 28
-8.503609 -13.44145 1.948081 41
-26.90443 -24.12219 6.579154 27
-8.304232 -13.0354 4.130752 42
-8.370996 -13.41712 0.09085698 37
-11.60194 -15.21016 0 29
-13.99502 -15.23814 -0.1081227 18
-32.54993 -29.51146 -0.513342 13
-8.450337 -13.56011 0.4702466 43
-11.63513 -15.2978 0.4452991 29
-13.88297 -15.17438 0.3511326 38
-33.83173 -30.79171 0.5584391 9
nan nan nan 0
-0.1951321 -0.3069401 -0.08466953 8
-4.459757 -7.135011 -1.163555 61
-6.04641 -9.492295 -1.062087 32
-7.658221 -12.1182 -0.9169403 43
-8.550153 -11.15607 -0.9800783 16
-9.348082 -10.105 -1.036873 17
-10.0063 -9.017242 -1.097089 12
-8.946392 -14.36795 -0.6870689 120
-10.37551 -13.67593 -0.7986729 94
-11.96951 -13.06047 -0.9263464 12
-12.7168 -11.5746 -0.9982207 10
-8.694139 -13.84931 -0.284736 37
-11.63295 -15.21775 -0.4437903 18
-14.05307 -15.2479 -0.6034032 45
-19.04815 -17.23679 -0.8867422 9
-5.516817 -5.034095 -1.347364 17
-7.618313 -6.850184 -1.148348 54
-26.81359 -24.14199 1.447554 43
-8.634964 -13.6859 0.9392627 49
-26.37794 -23.49301 2.869833 19
-8.454484 -13.261 1.926145 16
-26.94438 -23.98889 6.568395 30
-8.420092 -13.11609 4.165692 33
-8.516195 -13.54447 0.0919225 44
-11.43871 -14.88804 0 21
-14.18393 -15.33601 -0.1091698 17
-32.67133 -29.41439 -0.5136343 17
-8.38073 -13.34427 0.4637583 46
-11.44226 -14.93565 0.4358987 38
-13.95618 -15.14788 0.3516457 48
-33.88336 -30.62315 0.5575228 11
nan nan nan 0
-0.1936581 -0.3021425 -0.08340581 8
-4.474088 -7.102632 -1.160803 65
-6.084881 -9.479512 -1.06303 32
-7.724584 -12.12928 -0.9198207 47
-8.598185 -11.138 -0.9811248 16
-9.390097 -10.0796 -1.037627 17
-9.454456 -8.460768 -1.033177 15
-8.839902 -14.08691 -0.6750757 115
-10.46261 -13.69122 -0.8017007 89
-12.0489 -13.0553 -0.9289632 12
-12.76824 -11.54018 -0.999092 10
-8.659618 -13.68788 -0.2820309 41
-11.64636 -15.12556 -0.4422817 36
-14.11641 -15.20974 -0.6038403 40
-19.16396 -17.22028 -0.8893335 9
-5.534355 -5.014807 -1.347364 17
-7.705216 -6.879773 -1.157853 47
-26.84182 -23.99831 1.444544 30
-8.677329 -13.64725 0.9386818 55
-26.48219 -23.4206 2.872266 25
-9.591917 -14.93112 2.174149 15
-26.99477 -23.86537 6.560325 26
-7.377729 -11.40339 3.628643 12
-8.552723 -13.49776 0.09180731 17
-11.49367 -14.85198 0 32
-14.23738 -15.28641 -0.1091698 22
-32.7328 -29.26352 -0.5129912 15
-8.376505 -13.23468 0.4609566 48
-11.41189 -14.78876 0.4327652 38
-14.21981 -15.32628 0.3569478 35
-33.91563 -30.43791 0.5563011 4
nan nan nan 0
-0.1947117 -0.3014646 -0.08340581 8
-4.493552 -7.078606 -1.159427 54
-6.123336 -9.466577 -1.063973 31
-7.78573 -12.13164 -0.922061 36
-8.646195 -11.11973 -0.9821711 15
-9.432047 -10.05403 -1.03838 17
-9.394494 -8.348307 -1.023407 17
-8.862333 -14.01374 -0.673043 130
-10.54993 -13.70607 -0.8047286 75
-12.108 -13.02779 -0.93001 13
-12.81959 -11.50554 -0.9999634 10
-8.820161 -13.83465 -0.2856959 38
-11.7144 -15.10457 -0.4428619 22
-14.20696 -15.20053 -0.6054431 49
-19.27989 -17.20317 -0.8919247 10
-5.551826 -4.995458 -1.347364 17
-7.721744 -6.846245 -1.156735 45
-26.88433 -23.86799 1.442337 24
-8.730297 -13.62529 0.9392627 50
-26.54131 -23.30828 2.869833 32
-7.975383 -12.31829 1.796963 31
-28.6455 -25.1467 6.940478 27
-8.384923 -12.86275 4.103576 16
-9.040849 -14.15908 0.09653014 36
-11.46246 -14.70529 0 30
-14.40012 -15.35331 -0.1100076 16
-32.81605 -29.13248 -0.5126988 16
-8.446825 -13.24329 0.4622838 50
-11.6168 -14.94619 0.438568 35
-14.25274 -15.25463 0.3564347 39
-44.0744 -39.27599 0.7208031 10
nan nan nan 0
-0.1931899 -0.2966864 -0.08214208 8
-4.515567 -7.058704 -1.158739 49
-6.161776 -9.453486 -1.064916 31
-7.852403 -12.14211 -0.9249415 38
-8.697257 -11.10519 -0.9835662 15
-9.473934 -10.02829 -1.039133 17
-9.550673 -8.427513 -1.037248 18
-8.852159 -13.89001 -0.6685709 113
-10.64667 -13.73232 -0.8084553 66
-12.17728 -13.01096 -0.9318417 12
-12.87086 -11.47068 -1.000835 10
-8.952124 -13.9342 -0.288401 44
-11.79167 -15.0951 -0.4437903 35
-14.29419 -15.18724 -0.6069003 61
-19.39968 -17.18878 -0.8946888 9
-5.56923 -4.976048 -1.347364 17
-7.723209 -6.799563 -1.15338 46
-27.15114 -23.93586 1.452169 35
nan nan nan 0
-26.79531 -23.36614 2.888479 27
-9.625456 -14.7557 2.158306 16
-28.7294 -25.04333 6.939582 39
-7.568467 -11.52119 3.682995 13
-9.049657 -14.06435 0.09609817 26
-11.60325 -14.77924 0 15
-14.40555 -15.25206 -0.1096411 17
-32.88003 -28.9847 -0.5121142 13
-8.744173 -13.60481 0.4759974 54
-11.57339 -14.78352 0.4349703 20
-14.32303 -15.22299 0.3568623 35
-61.69804 -54.59293 1.00607 7
nan nan nan 0
-0.1942244 -0.2960102 -0.08214208 8
-4.534817 -7.034569 -1.157362 76
-6.200199 -9.440245 -1.065859 31
-7.913798 -12.1439 -0.9271818 36
-8.745234 -11.08651 -0.9846126 15
-9.515755 -10.00239 -1.039886 16
-9.580032 -8.394124 -1.037248 14
-8.946459 -13.9305 -0.6720265 121
-10.74372 -13.75807 -0.812182 51
-12.22948 -12.97564 -0.9323651 12
-12.92577 -11.43891 -1.001996 10
-8.973555 -13.86089 -0.2875284 40
-11.98027 -15.22671 -0.4488968 29
nan nan nan 0
-19.5196 -17.17376 -0.8974528 10
-5.586565 -4.956577 -1.347364 17
-7.724442 -6.752953 -1.150026 62
-27.30596 -23.90345 1.455981 36
-8.923155 -13.71466 0.9497184 50
-26.90309 -23.29529 2.891317 33
-8.900378 -13.53987 1.984642 7
-28.90219 -25.01692 6.960203 10
-8.703642 -13.15033 4.214868 11
-8.992663 -13.86903 0.09497506 37
-11.71989 -14.82102 0 30
-14.42424 -15.16546 -0.1093793 22
-32.95467 -28.8467 -0.5117049 13
-8.769884 -13.54064 0.4748178 47
-11.51352 -14.60172 0.4307923 12
-14.40015 -15.1983 0.3574609 34
-61.50512 -54.04066 0.9998393 8
nan nan nan 0
-0.1952564 -0.2953304 -0.08214208 8
-4.580905 -7.051936 -1.162867 80
-6.238604 -9.426848 -1.066802 31
-7.969826 -12.13706 -0.928782 24
-8.793188 -11.06764 -0.9856589 14
-9.55751 -9.976309 -1.04064 17
nan nan nan 0
-9.035724 -13.96212 -0.6750757 122
-10.74845 -13.66551 -0.8089212 51
-12.29188 -12.95098 -0.9336734 11
-12.97688 -11.4036 -1.002868 10
-9.054644 -13.87974 -0.2885755 28
-12.19477 -15.38853 -0.4549316 17
-14.68286 -15.38351 -0.6188489 38
-19.63965 -17.15811 -0.9002169 9
-5.603833 -4.937046 -1.347364 17
-7.710429 -6.693397 -1.144435 75
-27.41186 -23.82765 1.457185 36
-8.981914 -13.70013 0.9508801 97
-28.016 -24.08807 3.001976 23
-9.695365 -14.63848 2.150994 36
nan nan nan 0
-7.413025 -11.1144 3.569115 41
-9.002753 -13.77894 0.09457189 42
-11.74975 -14.75264 0 37
-14.44596 -15.08252 -0.1091437 25
-33.00611 -28.68886 -0.5109448 14
-8.9263 -13.6774 0.4807161 43
-12.25135 -15.42659 0.4564402 25
-14.51869 -15.21666 0.3590857 37
-37.92022 -33.08699 0.6143929 36
nan nan nan 0
-0.1962862 -0.2946471 -0.08214208 8
-4.581107 -6.998593 -1.156674 86
-6.27699 -9.4133 -1.067744 32
-8.028655 -12.13414 -0.9307024 25
-8.844231 -11.05245 -0.987054 14
-9.602664 -9.95365 -1.04177 17
-9.551637 -8.252146 -1.027885 10
-9.002581 -13.80492 -0.6689774 119
-10.81469 -13.6514 -0.8103187 80
-12.35082 -12.92243 -0.9347201 11
-13.03165 -11.37135 -1.004029 10
-9.177144 -13.96086 -0.2909316 19
-12.40119 -15.53732 -0.4606182 25
-14.7711 -15.3682 -0.620306 22
-19.7636 -17.1451 -0.9031537 9
-5.621032 -4.917455 -1.347364 18
-7.745041 -6.676167 -1.146112 62
-27.60456 -23.82647 1.463004 11
nan nan nan 0
-28.1833 -24.0613 3.010893 33
nan nan nan 0
nan nan nan 0
-7.438315 -11.06841 3.562644 41
-9.083772 -13.79756 0.09491746 40
-11.87938 -14.80904 0 30
-14.54365 -15.07878 -0.109484 23
-33.09469 -28.56368 -0.5107694 16
-9.113966 -13.85917 0.4882365 28
-12.03976 -15.0519 0.4465757 38
-14.56479 -15.15868 0.3589147 40
-38.16776 -33.06899 0.616531 13
nan nan nan 0
-0.1973134 -0.2939601 -0.08214208 8
-4.591889 -6.961881 -1.153234 74
-6.31536 -9.399599 -1.068687 30
-8.087561 -12.13095 -0.9326227 15
-8.892145 -11.03317 -0.9881004 15
-9.647773 -9.930795 -1.0429 17
-9.591734 -8.228483 -1.029106 21
-9.009583 -13.71077 -0.6659283 112
nan nan nan 0
-12.41316 -12.89722 -0.9360286 12
-13.08636 -11.33887 -1.005191 11
-9.22858 -13.93291 -0.2910188 30
-12.53677 -15.59524 -0.4636356 12
-14.67518 -15.16214 -0.6140403 11
-19.89528 -17.13795 -0.906436 11
-5.638164 -4.897804 -1.347364 17
-7.738086 -6.623261 -1.141639 91
-36.92941 -31.6484 1.95181 6
-9.660642 -14.51404 1.012162 45
-38.31558 -32.47846 4.082217 9
nan nan nan 0
nan nan nan 0
-7.501263 -11.07838 3.574291 45
-9.076628 -13.68242 0.0943415 42
-11.95928 -14.80249 0 23
-14.77039 -15.20724 -0.110793 24
-33.21698 -28.4675 -0.5111202 16
-9.217472 -13.91061 0.4911857 29
-12.05774 -14.96696 0.4452991 38
-14.75668 -15.25145 0.3623354 23
-61.39295 -52.81329 0.9889662 5
nan nan nan 0
-0.1983384 -0.2932696 -0.08214208 7
-4.599731 -6.921051 -1.149105 74
-6.353709 -9.385742 -1.06963 28
-8.146542 -12.12751 -0.934543 11
-8.940033 -11.01368 -0.9891467 15
-9.692841 -9.907749 -1.044029 18
-9.597629 -8.175572 -1.026664 17
-9.134574 -13.7959 -0.67162 126
-10.9942 -13.6807 -0.8166074 56
-12.47548 -12.87174 -0.9373369 11
-13.141 -11.30613 -1.006353 10
-9.557313 -14.32068 -0.2998323 42
-12.36783 -15.27553 -0.4553958 34
-14.84314 -15.22891 -0.6188489 7
-19.99676 -17.10412 -0.9083363 11
-5.655226 -4.878093 -1.347364 17
-7.806612 -6.634797 -1.148348 77
-39.13632 -33.30306 2.062373 6
-10.07807 -15.02756 1.050499 41
-39.56885 -33.30392 4.203414 5
-9.135857 -13.48414 1.995001 49
nan nan nan 0
nan nan nan 0
-9.177098 -13.72965 0.09488867 45
-12.2002 -14.99337 0 28
-14.84087 -15.17346 -0.1109239 25
-33.29329 -28.33194 -0.5107694 16
-9.210497 -13.7952 0.4882365 18
nan nan nan 0
-14.67375 -15.06021 0.3590002 37
-61.33741 -52.39411 0.9851178 5
nan nan nan 0
-0.1993608 -0.2925754 -0.08214208 7
-4.588076 -6.851434 -1.14016 58
-6.392038 -9.371734 -1.070573 29
-8.202802 -12.11966 -0.9361432 15
-8.991049 -10.99785 -0.9905419 14
-9.737865 -9.884508 -1.045159 17
-9.54237 -8.071256 -1.017708 16
-9.218701 -13.81797 -0.6742625 118
-10.80625 -13.35104 -0.7991386 102
-12.53429 -12.84241 -0.9383837 11
-13.21455 -11.28936 -1.008967 11
-9.777328 -14.54035 -0.3051553 40
-12.43687 -15.25164 -0.455976 17
-18.9751 -19.33207 -0.7886061 6
-20.13253 -17.0989 -0.9117914 10
-5.672219 -4.858323 -1.347364 18
-7.863914 -6.636328 -1.15338 56
-37.33265 -31.54457 1.961441 15
-10.02152 -14.83095 1.039172 56
-37.97921 -31.74046 4.022631 12
-9.202444 -13.48086 1.999266 43
nan nan nan 0
-7.485459 -10.89038 3.530292 47
-9.624164 -14.2907 0.09900675 32
-12.2176 -14.90815 0 18
nan nan nan 0
-33.34998 -28.18006 -0.5101263 14
-9.294842 -13.81689 0.4901535 17
-12.0797 -14.78177 0.4422817 34
-14.78226 -15.06599 0.3603685 30
-36.98673 -31.37401 0.592097 4
nan nan nan 0
-0.2003809 -0.2918777 -0.08214208 8
-4.639636 -6.876449 -1.147041 80
-6.433165 -9.361675 -1.071987 28
-8.261914 -12.1157 -0.9380635 15
-9.038894 -10.97795 -0.9915882 14
-9.786357 -9.864612 -1.046666 18
-9.490316 -7.970629 -1.009159 14
-9.264093 -13.78156 -0.6740593 116
-10.88749 -13.35583 -0.8017007 97
-12.59654 -12.81638 -0.9396921 11
-13.27672 -11.26254 -1.010709 9
-9.729928 -14.36124 -0.3021011 40
nan nan nan 0
-14.34476 -14.51358 -0.593786 11
-20.27232 -17.09615 -0.9154192 9
-5.692894 -4.841679 -1.348256 18
-7.921322 -6.63754 -1.158412 44
-37.42339 -31.39801 1.960438 14
-9.497622 -13.94986 0.979633 45
-38.03992 -31.56633 4.017362 13
-9.288799 -13.50592 2.007797 46
nan nan nan 0
-7.517933 -10.85624 3.527704 41
-9.668376 -14.24874 0.09894916 17
-12.22501 -14.81142 0 14
nan nan nan 0
-33.43282 -28.05062 -0.5098924 9
nan nan nan 0
-12.15664 -14.7704 0.4432101 38
nan nan nan 0
-36.97364 -31.14166 0.5901423 4
nan nan nan 0
-0.2013986 -0.2911765 -0.08214208 8
-4.691426 -6.901187 -1.153922 52
-6.471467 -9.34735 -1.07293 29
-8.318275 -12.10735 -0.9396637 14
-9.086709 -10.95786 -0.9926345 15
-9.831303 -9.840972 -1.047796 17
-9.506598 -7.927884 -1.007938 29
-9.412949 -13.89808 -0.6813772 122
-11.12735 -13.55323 -0.8159087 68
-12.65526 -12.78652 -0.9407388 11
-13.32741 -11.22576 -1.011581 8
-9.80817 -14.36849 -0.3029737 36
-12.71188 -15.3686 -0.4621269 13
-19.21891 -19.30893 -0.7931232 7
-9.445574 -7.913233 -0.4246274 29
-5.709759 -4.821777 -1.348256 17
-7.93298 -6.600322 -1.156735 45
-37.49438 -31.23521 1.958431 16
-10.29415 -15.00766 1.056598 32
-9.470142 -7.808418 0.9951189 38
-9.279384 -13.39181 1.99561 10
nan nan nan 0
-7.613781 -10.91314 3.554879 38
nan nan nan 0
nan nan nan 0
-32.57524 -32.61193 -0.2411423 22
-9.458353 -7.884684 -0.143537 30
-10.19396 -14.9282 0.5321793 10
-12.20812 -14.72787 0.4432101 35
-15.01755 -15.09354 0.3635326 27
-61.60656 -51.51803 0.9807198 8
nan nan nan 0
-0.2024137 -0.2904717 -0.08214208 8
-4.715487 -6.884768 -1.153922 88
-6.509748 -9.332871 -1.073873 30
-8.369003 -12.09055 -0.9406239 13
-9.134495 -10.93756 -0.9936809 15
-9.879742 -9.820651 -1.049302 18
-9.549571 -7.907356 -1.009567 13
-9.464218 -13.86927 -0.6815805 124
-10.96774 -13.26409 -0.8007691 108
-12.71744 -12.75995 -0.9420472 10
-9.486819 -7.936396 -0.7173713 14
-9.900741 -14.39597 -0.3042827 23
-12.77504 -15.33566 -0.4624751 14
-19.35696 -19.31232 -0.7960375 7
-9.488509 -7.892989 -0.4253184 37
-5.7341 -4.808134 -1.350041 18
-7.952138 -6.569428 -1.156176 46
-9.463398 -7.83316 0.4918151 38
-9.594778 -13.88321 0.979633 43
-9.535917 -7.806865 0.9991723 28
-9.272123 -13.282 1.984033 18
-9.174121 -7.508267 2.153601 43
-7.587988 -10.79559 3.525115 40
-9.926365 -14.41154 0.1005618 31
-12.63942 -15.09763 0 13
-32.63214 -32.44162 -0.2407234 16
-9.50123 -7.864366 -0.1437708 33
-12.00721 -17.45413 0.6238987 13
-12.3075 -14.74273 0.4449509 37
-15.11261 -15.0834 0.3645588 8
-9.428435 -7.834563 0.1492917 35
nan nan nan 0
-0.2034264 -0.2897634 -0.08214208 7
-4.764781 -6.904968 -1.160115 89
-6.548006 -9.31824 -1.074816 29
-8.422567 -12.07764 -0.9419041 13
-9.182247 -10.91706 -0.9947272 14
-9.924608 -9.796612 -1.050432 18
-9.631025 -7.918257 -1.015266 30
-9.569153 -13.9185 -0.685646 121
-11.32077 -13.59421 -0.8231291 58
-12.77959 -12.7331 -0.9433556 10
-9.518306 -7.906421 -0.7176617 34
nan nan nan 0
-12.99233 -15.48629 -0.4683938 28
-19.48816 -19.30794 -0.7986603 7
-9.527566 -7.869362 -0.4258367 12
-5.754632 -4.791234 -1.350933 17
-7.975022 -6.54163 -1.156176 47
-9.540877 -7.841294 0.4944237 33
-9.694498 -13.92339 0.9848608 16
-38.51152 -31.28249 4.032359 15
-9.338406 -13.27798 1.988298 43
-9.452326 -7.680817 2.212776 40
-7.597731 -10.72961 3.512174 35
-10.09628 -14.54936 0.1017713 40
-12.75327 -15.12605 0 21
-32.68826 -32.27131 -0.2403046 14
-9.547943 -7.847015 -0.1440632 9
-12.23881 -17.65862 0.6327463 16
-12.40713 -14.75708 0.4466917 33
nan nan nan 0
-9.525167 -7.858847 0.1503913 35
nan nan nan 0
-0.2071649 -0.2930465 -0.08340581 8
-4.771909 -6.863884 -1.155986 58
-6.586241 -9.303453 -1.075758 29
-8.476142 -12.0645 -0.9431843 14
-9.22997 -10.89636 -0.9957736 14
-9.969427 -9.772377 -1.051562 17
nan nan nan 0
-9.725726 -14.04111 -0.6933705 132
-11.41308 -13.60819 -0.82639 60
-12.83816 -12.70246 -0.9444023 10
-9.549699 -7.876322 -0.7179522 6
-10.30705 -14.76521 -0.3136197 34
-13.03017 -15.42175 -0.4678135 32
-19.59107 -19.27485 -0.8001176 9
-20.76802 -17.02363 -0.9269937 6
-5.775115 -4.77425 -1.351825 18
-7.990099 -6.507481 -1.155057 52
-37.81554 -30.83771 1.958231 17
nan nan nan 0
-38.86101 -31.34182 4.057491 13
-9.464994 -13.35871 2.00536 68
nan nan nan 0
-9.047956 -12.68518 4.164399 38
-10.10405 -14.45255 0.1013394 30
-12.80599 -15.08144 0 29
-32.73286 -32.09052 -0.2398071 13
nan nan nan 0
-12.70939 -18.20188 0.6538329 21
-12.42304 -14.67171 0.4454151 36
nan nan nan 0
nan nan nan 0
nan nan nan 0
-0.2109287 -0.296307 -0.08466953 7
-4.787324 -6.835011 -1.153922 76
-6.624454 -9.288516 -1.076701 30
-8.526848 -12.04706 -0.9441444 14
-9.277659 -10.87546 -0.99682 15
-10.0142 -9.747949 -1.052692 17
-10.2089 -8.274209 -1.070222 30
-10.38622 -14.88402 -0.7368712 115
-11.4734 -13.58353 -0.8273216 67
-12.90023 -12.67507 -0.9457107 10
nan nan nan 0
-10.36715 -14.74141 -0.3138815 18
-13.11956 -15.41805 -0.4690901 17
-19.74404 -19.29017 -0.8036147 10
-20.81569 -16.94157 -0.9264754 8
-5.79555 -4.75718 -1.352717 18
-8.032092 -6.495161 -1.157853 46
-37.83364 -30.63322 1.953616 16
-9.941194 -14.06739 0.9999634 48
-39.45648 -31.59529 4.108159 11
-9.586495 -13.43063 2.021203 48
nan nan nan 0
-8.973869 -12.48875 4.110046 41
-10.19185 -14.47035 0.1017137 33
-12.8943 -15.07845 0 23
-32.81244 -31.94467 -0.2395715 14
nan nan nan 0
-12.8677 -18.29232 0.658699 5
-12.4677 -14.62065 0.445183 37
nan nan nan 0
nan nan nan 0
nan nan nan 0
-0.2119617 -0.2955689 -0.08466953 8
-4.811154 -6.818259 -1.153922 63
-6.662641 -9.273422 -1.077644 30
-8.58043 -12.03348 -0.9454246 13
-9.325315 -10.85436 -0.9978663 15
-10.05892 -9.723328 -1.053822 17
-10.28821 -8.279117 -1.075514 23
-10.28015 -14.62284 -0.7256911 120
-11.57899 -13.61189 -0.8315142 47
-12.96226 -12.64739 -0.9470191 10
-13.67239 -11.11421 -1.022908 9
-10.48788 -14.80306 -0.3159758 18
-13.14077 -15.3342 -0.4679296 26
-19.87223 -19.28029 -0.8060918 11
-20.98354 -16.95673 -0.9313125 8
-5.81212 -4.736921 -1.352717 17
-8.023706 -6.442214 -1.15338 50
-37.88971 -30.46028 1.951007 16
-9.906322 -13.91465 0.9915408 62
-39.4768 -31.38605 4.098835 14
-9.615945 -13.37291 2.017547 44
nan nan nan 0
-8.541867 -11.79994 3.892638 47
-10.20759 -14.38574 0.1013682 18
-13.12955 -15.24553 0 16
-32.87701 -31.78476 -0.2392312 13
nan nan nan 0
-10.21028 -14.40543 0.5197927 24
-12.52191 -14.58083 0.4452991 29
-62.57503 -60.72656 1.490903 6
-60.90879 -49.15405 0.9557971 5
nan nan nan 0
-0.2129922 -0.2948272 -0.08466953 7
-4.823457 -6.785269 -1.15117 84
-6.700804 -9.258177 -1.078587 30
-8.63402 -12.01967 -0.9467049 13
-9.3762 -10.83683 -0.9992614 15
-10.10359 -9.698513 -1.054952 17
-10.32094 -8.246264 -1.075921 27
-10.44947 -14.75406 -0.7340254 115
-11.62643 -13.57139 -0.8315142 49
-13.02068 -12.61597 -0.9480658 11
-13.71499 -11.06955 -1.023198 10
-10.52497 -14.74601 -0.3155395 6
-13.19095 -15.28445 -0.4678135 19
-20.0222 -19.29055 -0.8094432 10
-21.07769 -16.91152 -0.9328673 8
-5.832447 -4.719697 -1.35361 18
-8.057807 -6.423453 -1.155057 47
-37.96067 -30.29979 1.949201 16
-9.832704 -13.70959 0.9793425 48
-39.46093 -31.14927 4.085865 12
-9.712035 -13.4076 2.027906 108
nan nan nan 0
-8.574472 -11.75834 3.888756 45
-10.50769 -14.69991 0.1038448 18
-13.41199 -15.46404 0 17
-32.94448 -31.62825 -0.238917 13
-35.84718 -28.61314 -0.5359103 5
-10.31276 -14.44293 0.522447 23
-13.17759 -15.23654 0.466769 13
-62.44103 -60.17473 1.482693 7
-43.10803 -34.54287 0.6744395 8
nan nan nan 0
-0.2112363 -0.2901255 -0.08340581 7
-4.844232 -6.764362 -1.150482 73
-6.738942 -9.242777 -1.07953 29
-8.684696 -12.00159 -0.9476649 14
-9.427075 -10.81908 -1.000656 16
-10.15182 -9.676943 -1.056458 17
-10.32233 -8.188518 -1.073071 25
-10.57051 -14.81512 -0.7389039 110
-11.72593 -13.59123 -0.8352408 70
-13.08263 -12.58775 -0.9493742 11
-13.8042 -11.06217 -1.026974 9
nan nan nan 0
-13.29669 -15.29869 -0.4696704 15
-20.16526 -19.2931 -0.8125032 11
-21.26168 -16.93745 -0.9383954 9
-5.852723 -4.702387 -1.354502 17
-7.967146 -6.305923 -1.138844 83
-40.25125 -31.89833 2.061169 9
-9.936018 -13.75207 0.9848608 45
-39.76164 -31.16194 4.105727 13
-9.697374 -13.28941 2.01511 43
nan nan nan 0
-8.632611 -11.7517 3.896521 71
-11.80891 -16.4001 0.1161702 8
-13.32118 -15.25142 0 18
-33.00764 -31.46821 -0.2385767 12
-33.27034 -26.36724 -0.4959773 5
-10.37186 -14.41902 0.5228894 16
-13.13878 -15.0849 0.4635195 17
-62.44122 -59.75594 1.477733 7
-43.19704 -34.36729 0.6739509 6
nan nan nan 0
-0.2094501 -0.2854396 -0.08214208 7
-4.807023 -6.663029 -1.136032 100
-6.779999 -9.231237 -1.080944 28
-8.738288 -11.98734 -0.9489452 14
-9.474651 -10.79735 -1.001703 16
-10.1964 -9.651729 -1.057588 16
-10.26077 -8.081554 -1.063709 28
-10.71252 -14.90392 -0.7452055 115
-11.89121 -13.68596 -0.8436258 61
-13.14454 -12.55925 -0.9506826 11
-13.85054 -11.02013 -1.027555 10
-10.63939 -14.68837 -0.3158886 4
-13.48827 -15.41017 -0.4745447 17
-20.30495 -19.29143 -0.8154175 10
-21.41475 -16.93751 -0.9425414 10
-5.87295 -4.684993 -1.355394 17
-7.801507 -6.130816 -1.112008 107
-33.34541 -26.23783 1.702591 5
-10.03387 -13.78593 0.9897981 42
-42.71409 -33.2353 4.39879 6
-9.770144 -13.29148 2.020594 52
nan nan nan 0
nan nan nan 0
-11.10308 -15.30627 0.1086828 11
-13.47339 -15.31746 0 30
-33.07008 -31.30812 -0.2382364 13
-36.45866 -28.68676 -0.5420494 9
-10.41334 -14.37059 0.522447 42
-13.09578 -14.92996 0.460154 15
-62.24717 -59.15535 1.468241 7
-33.24881 -26.26512 0.5172067 22
nan nan nan 0
-0.2020113 -0.272896 -0.07835092 7
-4.905883 -6.75042 -1.153922 98
-6.818099 -9.21552 -1.081887 30
-8.791885 -11.97285 -0.9502254 14
-9.525494 -10.77917 -1.003098 16
-10.24456 -9.629735 -1.059095 17
-10.39102 -8.125461 -1.074293 23
-10.81426 -14.93524 -0.7486612 127
-11.93891 -13.64437 -0.8436258 49
-13.20279 -12.52703 -0.9517293 11
-13.9281 -11.00265 -1.030459 11
-10.69354 -14.65518 -0.3159758 19
-13.59155 -15.41924 -0.4762855 17
-20.44488 -19.28903 -0.8183318 11
-21.50912 -16.89042 -0.9440962 22
-5.893126 -4.667517 -1.356287 17
-8.12071 -6.335667 -1.154498 48
-38.84286 -30.34344 1.978096 31
-10.05243 -13.71056 0.9868938 47
-39.86778 -30.7983 4.094377 20
-9.772202 -13.19745 2.011453 43
nan nan nan 0
-8.942354 -11.99713 3.998754 38
-12.55415 -17.18135 0.1223329 9
-13.43727 -15.16928 0 18
-33.12452 -31.14113 -0.2378437 13
-36.77136 -28.7255 -0.5452066 13
-10.37802 -14.21706 0.5181707 24
-13.6607 -15.46488 0.4781424 16
-62.26421 -58.75928 1.463794 6
-33.48587 -26.26304 0.5194669 9
nan nan nan 0
-0.2029627 -0.2721891 -0.07835092 8
-4.979105 -6.801219 -1.16562 76
-6.85617 -9.19965 -1.082829 31
-8.845489 -11.95814 -0.9515055 14
-9.573008 -10.75703 -1.004144 15
-10.2927 -9.607522 -1.060601 17
-10.46657 -8.125792 -1.079178 22
-11.02819 -15.11944 -0.7598413 101
-12.0525 -13.67756 -0.8482841 49
-13.26461 -12.49799 -0.9530377 10
-13.99 -10.97244 -1.032202 11
-11.18265 -15.21406 -0.3288906 24
-13.55571 -15.27076 -0.473152 17
-20.57409 -19.27563 -0.8208089 11
-21.51671 -16.77531 -0.9418505 14
-5.917121 -4.652994 -1.358071 17
-8.158495 -6.319444 -1.156735 47
-38.9525 -30.21073 1.978297 17
-10.15359 -13.74767 0.9921217 97
nan nan nan 0
-9.770756 -13.0996 2.001704 49
nan nan nan 0
-8.992873 -11.97744 4.002636 34
-11.39336 -15.4781 0.1104683 38
-13.58 -15.22303 0 19
-33.18916 -30.98436 -0.2375295 13
-37.00179 -28.69807 -0.547136 15
-10.39207 -14.13242 0.5164012 8
-13.99697 -15.73459 0.4880069 23
-36.78778 -34.47593 0.8617544 5
-60.7277 -47.28197 0.9398539 5
nan nan nan 0
-0.1982341 -0.2636445 -0.07582346 7
-4.97051 -6.739933 -1.158051 91
-6.897202 -9.187608 -1.084244 32
-8.899096 -11.9432 -0.9527857 14
-9.620482 -10.73469 -1.005191 15
-10.33714 -9.581701 -1.061731 17
-10.53041 -8.116571 -1.082842 34
-11.04541 -15.03253 -0.7574019 108
-12.16978 -13.71387 -0.8531755 64
-13.33004 -12.47208 -0.9546078 10
-14.05973 -10.94806 -1.034525 10
-11.15838 -15.07045 -0.3266218 24
-13.57895 -15.18981 -0.4721076 22
-20.73273 -19.2888 -0.8244518 10
-21.55932 -16.68786 -0.9411594 16
-5.937208 -4.635336 -1.358963 16
-8.212027 -6.315141 -1.161207 48
-41.98722 -32.32978 2.126784 4
-10.81502 -14.53733 1.051951 26
-43.39287 -33.03975 4.432839 13
nan nan nan 0
nan nan nan 0
-9.127809 -12.06927 4.044047 95
-11.19726 -15.10079 0.1080493 39
-13.58294 -15.11974 0 14
-33.2311 -30.80714 -0.2370583 14
-37.11758 -28.58093 -0.5473699 10
-10.73869 -14.49776 0.5311471 8
-13.67162 -15.26116 0.4747768 34
-36.73223 -34.18384 0.8576496 6
-60.82907 -47.02078 0.9388765 8
nan nan nan 0
-0.2020056 -0.2668583 -0.07708719 7
-4.996957 -6.726519 -1.158739 95
-6.93523 -9.171418 -1.085186 32
-8.952707 -11.92803 -0.954066 13
-9.664579 -10.70845 -1.005888 15
-10.3852 -9.559066 -1.063238 17
-10.5468 -8.070684 -1.08162 31
-10.90174 -14.7288 -0.7439858 119
-12.15435 -13.60054 -0.84875 67
-13.39544 -12.44586 -0.9561779 10
-14.1334 -10.92638 -1.037139 9
-11.90406 -15.96132 -0.3468666 21
-13.76231 -15.28721 -0.4766336 15
-20.9064 -19.31466 -0.8286775 15
-21.6333 -16.62469 -0.9418505 9
-5.961133 -4.620605 -1.360748 16
-8.237971 -6.289451 -1.161766 45
-45.06099 -34.44619 2.276476 13
-10.99436 -14.67129 1.06444 49
-43.49601 -32.87906 4.431623 16
-9.610511 -12.69858 1.950519 10
nan nan nan 0
-9.35418 -12.27943 4.125576 43
-11.30374 -15.13373 0.1085676 25
nan nan nan 0
-33.3274 -30.6808 -0.2369797 11
-37.17343 -28.4178 -0.5467267 13
-10.82209 -14.50425 0.5327691 12
-13.75829 -15.25046 0.4759373 13
-62.24092 -57.51708 1.448999 9
-61.52434 -47.21601 0.9470619 7
nan nan nan 0
nan nan nan 0
-5.041159 -6.736804 -1.163555 91
-6.973231 -9.155078 -1.086129 28
-9.00632 -11.91263 -0.9553461 12
-9.711962 -10.68573 -1.006935 16
-10.42955 -9.532845 -1.064368 17
-10.66224 -8.100104 -1.090576 30
-10.92025 -14.64658 -0.7417498 117
-12.28193 -13.64714 -0.85434 67
-13.46082 -12.41934 -0.9577479 11
-14.20314 -10.90128 -1.039462 10
-11.60851 -15.45193 -0.3366569 10
-13.85587 -15.28352 -0.4780263 13
-21.06577 -19.32603 -0.8323204 10
-21.73093 -16.57937 -0.943578 13
-5.981127 -4.602767 -1.36164 17
-8.259875 -6.260656 -1.161766 47
-45.07349 -34.20715 2.271058 6
nan nan nan 0
nan nan nan 0
-9.651772 -12.661 1.949909 48
nan nan nan 0
-9.532169 -12.42301 4.185104 17
-11.37453 -15.11816 0.1087404 37
-14.1225 -15.50138 0 13
-33.37156 -30.50693 -0.2365347 12
-37.23257 -28.25764 -0.546142 12
nan nan nan 0
-13.86857 -15.26524 0.4779103 17
nan nan nan 0
-62.04672 -47.27363 0.9525596 9
nan nan nan 0
-0.215382 -0.2809906 -0.08214208 8
-5.028903 -6.671685 -1.155298 88
-7.011202 -9.138581 -1.087072 33
-9.062956 -11.90097 -0.9569464 13
-9.755939 -10.65912 -1.007632 15
-10.47753 -9.509782 -1.065874 15
-10.62677 -8.014853 -1.084063 37
-11.01029 -14.66032 -0.7443924 114
-12.36974 -13.64859 -0.857135 60
-13.52618 -12.39251 -0.959318 11
-14.27685 -10.87886 -1.042076 10
-11.397 -15.06043 -0.3289779 22
-13.96305 -15.29414 -0.4798831 17
-21.17375 -19.2894 -0.8339233 10
-21.82851 -16.53358 -0.9453055 11
-6.001068 -4.584845 -1.362533 16
-8.281679 -6.231786 -1.161766 62
-43.5685 -32.82618 2.18939 19
-10.86398 -14.28816 1.042076 66
-42.94912 -31.99708 4.352986 18
-9.744246 -12.69023 1.959659 49
nan nan nan 0
nan nan nan 0
-11.41515 -15.06242 0.1086252 43
-13.8622 -15.10932 0 7
-33.43712 -30.35329 -0.2362467 13
-37.35494 -28.14556 -0.5464929 14
-11.24875 -14.8588 0.5486947 14
-14.06347 -15.37165 0.4827845 16
-61.7319 -56.25284 1.427962 14
-62.27516 -47.10501 0.9535369 3
nan nan nan 0
-0.2105753 -0.2724827 -0.07961464 7
-5.019247 -6.610682 -1.147729 84
-7.049143 -9.121933 -1.088015 29
-9.116584 -11.88511 -0.9582266 12
-9.796466 -10.62867 -1.007981 15
-10.51807 -9.479826 -1.066628 16
-10.69857 -8.010546 -1.088541 33
-11.07647 -14.64172 -0.7454087 113
-12.42404 -13.61271 -0.8576009 50
-13.59521 -12.36874 -0.9611498 10
-14.35057 -10.85605 -1.04469 10
-11.47071 -15.04839 -0.3295887 37
-14.10431 -15.34099 -0.4829006 18
-21.23725 -19.21202 -0.8337775 10
-21.94201 -16.49932 -0.9477241 9
-6.020957 -4.56684 -1.363425 16
-8.295418 -6.196896 -1.160648 54
nan nan nan 0
-10.90772 -14.24222 1.041495 13
-43.24889 -31.98623 4.372037 22
-9.712612 -12.55797 1.944425 68
nan nan nan 0
-9.586045 -12.31423 4.170869 38
-11.47373 -15.03043 0.1086828 38
-14.0811 -15.2408 0 13
-33.52802 -30.22299 -0.236142 13
-37.54104 -28.08086 -0.5477791 15
-11.37022 -14.91087 0.5520862 36
-14.0764 -15.27835 0.4813918 39
-61.77219 -55.89613 1.424371 12
nan nan nan 0
nan nan nan 0
-0.2144318 -0.2756131 -0.08087836 7
-5.006221 -6.545891 -1.139472 97
-7.087053 -9.10513 -1.088958 28
-9.170213 -11.86901 -0.9595068 13
-9.840292 -10.60172 -1.008679 15
nan nan nan 0
-10.75448 -7.993951 -1.09139 21
-11.1608 -14.64669 -0.7476448 112
-12.56272 -13.66856 -0.8638896 62
-13.66054 -12.34129 -0.9627199 11
-14.41633 -10.82686 -1.046723 10
-11.59925 -15.10741 -0.3317702 29
-14.15098 -15.28432 -0.4826685 18
-21.22981 -19.07097 -0.8308633 15
-22.00348 -16.42561 -0.9478968 9
-6.040794 -4.548751 -1.364317 16
-8.356923 -6.197478 -1.166239 56
-42.70551 -31.7112 2.134811 17
nan nan nan 0
-43.67765 -32.06803 4.404059 13
-9.750292 -12.51616 1.943207 14
nan nan nan 0
-9.63493 -12.28829 4.173457 48
-11.38903 -14.81189 0.1073869 31
-14.1887 -15.25013 0 17
-33.63331 -30.10578 -0.236142 13
-37.84759 -28.10463 -0.5508195 13
-11.39786 -14.83938 0.5509066 44
-14.09905 -15.19614 0.4803474 29
-61.92602 -55.64341 1.42343 11
-92.74701 -69.13813 1.412896 8
nan nan nan 0
-0.2153926 -0.2748629 -0.08087836 7
-5.044138 -6.548001 -1.142913 100
-7.124931 -9.088173 -1.089901 29
-9.22384 -11.85268 -0.9607869 13
-9.88405 -10.57459 -1.009376 15
-10.61008 -9.429345 -1.069264 14
-10.77429 -7.950447 -1.090576 33
-11.24531 -14.65125 -0.7498808 104
-12.65785 -13.67594 -0.8671504 48
-13.72584 -12.31353 -0.96429 10
-14.48205 -10.79735 -1.048756 11
-11.59077 -14.98772 -0.330025 34
-14.14631 -15.17268 -0.4806955 24
-21.25523 -18.96016 -0.8292604 25
-22.08477 -16.36655 -0.9489334 10
-6.060578 -4.53058 -1.365209 16
-8.39852 -6.182987 -1.169034 60
-42.98888 -31.68939 2.143439 19
-11.35895 -14.61911 1.074895 53
-43.85377 -31.96233 4.410545 3
nan nan nan 0
nan nan nan 0
-9.689733 -12.26975 4.178634 10
-11.47127 -14.81158 0.1076749 28
-14.29312 -15.25525 0 27
-33.76062 -30.00812 -0.236299 9
-37.66373 -27.7647 -0.5467267 12
-11.42513 -14.76787 0.5497269 45
-14.24073 -15.2418 0.4833648 27
-44.00543 -39.26484 1.00816 11
-92.89132 -68.74259 1.41143 4
nan nan nan 0
-0.2163507 -0.2741094 -0.08087836 7
-5.033598 -6.487293 -1.135344 104
-7.162778 -9.071063 -1.090844 31
-9.277465 -11.83613 -0.9620672 12
-9.931157 -10.55093 -1.010422 14
-10.66536 -9.412044 -1.071524 15
-10.88241 -7.971654 -1.098718 26
-11.32998 -14.65539 -0.7521169 108
-12.74297 -13.67187 -0.8697125 50
-13.79111 -12.28548 -0.9658601 11
-14.54373 -10.76454 -1.050499 10
-11.70137 -15.02212 -0.331683 30
-14.31892 -15.25076 -0.4847574 19
-21.27638 -18.84608 -0.8275118 16
-22.1619 -16.30416 -0.9497971 10
-6.080308 -4.512326 -1.366102 16
-8.44413 -6.17121 -1.172389 56
-43.21616 -31.62468 2.149258 15
-11.36378 -14.5204 1.070539 18
nan nan nan 0
-11.01546 -13.93943 2.176586 48
nan nan nan 0
-13.17946 -16.57238 5.662961 23
-11.51675 -14.76356 0.1076173 31
-14.42863 -15.29255 0 17
-33.87641 -29.90002 -0.2363776 3
-37.97427 -27.78953 -0.5498255 10
-11.44898 -14.69241 0.5483997 41
-14.24247 -15.13739 0.481624 18
-62.05853 -54.9843 1.417615 11
-59.54213 -43.74466 0.9022255 9
nan nan nan 0
-0.2173062 -0.2733525 -0.08087836 7
-5.111058 -6.539958 -1.147729 93
-7.200592 -9.053801 -1.091786 30
-9.327995 -11.81542 -0.9630274 13
-9.981649 -10.53068 -1.011818 15
nan nan nan 0
-10.98274 -7.986344 -1.106045 34
-11.35345 -14.58027 -0.7502874 104
-12.88289 -13.72564 -0.8760013 66
-13.86009 -12.26041 -0.9676918 10
-14.60536 -10.73144 -1.052241 9
-11.75682 -14.98512 -0.3317702 45
-14.3755 -15.20432 -0.4848735 27
-21.30826 -18.74199 -0.8262004 16
-22.255 -16.25322 -0.9513519 10
-6.099986 -4.49399 -1.366994 15
-8.501829 -6.167938 -1.17742 47
-43.31012 -31.46189 2.148456 11
-11.32482 -14.36693 1.062116 37
nan nan nan 0
-11.22161 -14.09897 2.207663 48
nan nan nan 0
-13.46361 -16.80904 5.760017 26
-11.53734 -14.68394 0.1073293 40
-14.44749 -15.20584 0 14
-35.2177 -30.86576 -0.2449907 6
-38.18431 -27.73907 -0.5514626 8
-11.63591 -14.82538 0.554888 38
-14.22647 -15.015 0.4793029 24
-61.70958 -54.29184 1.4053 11
-59.74294 -43.5719 0.9029585 20
nan nan nan 0
-0.218259 -0.2725923 -0.08087836 7
-5.185885 -6.588266 -1.159427 63
-7.241482 -9.040268 -1.093201 27
-9.378494 -11.79451 -0.9639875 13
-10.02868 -10.5066 -1.012864 15
-10.76467 -9.366806 -1.074914 16
-11.03076 -7.962533 -1.108081 35
-11.40736 -14.54448 -0.7504906 105
-13.02678 -13.78223 -0.882523 46
-13.92531 -12.23173 -0.9692619 10
-14.67499 -10.70391 -1.054565 10
-11.82145 -14.95969 -0.3321193 37
-14.37334 -15.09612 -0.4830166 17
-21.33591 -18.63463 -0.8247433 9
-22.36419 -16.21355 -0.9535976 9
-6.119608 -4.475572 -1.367886 16
-8.511208 -6.129519 -1.175743 49
-75.52003 -54.4535 3.737875 4
-11.378 -14.33122 1.062407 50
nan nan nan 0
-10.96047 -13.67241 2.146729 89
nan nan nan 0
nan nan nan 0
-11.61644 -14.67888 0.1075885 48
-14.5938 -15.25287 0 17
-35.45347 -30.85423 -0.2458809 7
-38.43908 -27.71964 -0.5537428 7
nan nan nan 0
-14.43061 -15.12439 0.4844092 18
-38.07774 -33.26643 0.8642344 7
nan nan nan 0
nan nan nan 0
-0.2192093 -0.2718287 -0.08087836 7
-5.168886 -6.519647 -1.150482 76
-7.279242 -9.022688 -1.094143 28
-9.428962 -11.77339 -0.9649476 12
-10.07912 -10.48591 -1.014259 14
-10.80862 -9.338952 -1.076043 15
-11.00581 -7.886269 -1.102789 35
-11.45806 -14.50457 -0.7504906 106
-13.12645 -13.79095 -0.8860168 47
-13.98674 -12.19946 -0.9705703 10
-14.72036 -10.65847 -1.055146 11
-12.08211 -15.18046 -0.3379658 21
nan nan nan 0
-21.36684 -18.53057 -0.8234318 8
-22.46528 -16.16749 -0.9554979 9
-6.139176 -4.45707 -1.368779 15
-8.540639 -6.105546 -1.176861 45
-76.71719 -54.91064 3.787638 6
-11.25346 -14.07305 1.046142 98
nan nan nan 0
-11.05487 -13.692 2.155869 50
nan nan nan 0
-14.1926 -17.4682 6.020131 36
-11.71433 -14.6969 0.1080204 45
-14.53248 -15.08301 0 26
-35.71607 -30.86432 -0.2469542 8
-40.61725 -29.07506 -0.583678 10
-11.91651 -14.9667 0.5632932 31
-14.72226 -15.32266 0.492417 14
-38.11433 -33.06453 0.8624386 31
-58.9738 -42.38354 0.8868321 12
nan nan nan 0
-0.2201568 -0.2710619 -0.08087836 7
-5.179262 -6.486077 -1.147729 76
-7.316967 -9.004953 -1.095086 29
-9.479395 -11.75206 -0.9659078 13
-10.12953 -10.465 -1.015654 14
nan nan nan 0
-11.06577 -7.870897 -1.106045 31
-11.50551 -14.46058 -0.7502874 111
-13.21598 -13.78832 -0.8888118 42
-14.05944 -12.17671 -0.9726637 11
-14.78585 -10.62741 -1.057179 10
-12.38508 -15.45032 -0.3449468 13
-14.89499 -15.42696 -0.4969431 13
-21.37459 -18.40695 -0.8212461 10
-22.56631 -16.12092 -0.9573982 9
-6.158691 -4.438487 -1.369671 15
-8.565953 -6.07857 -1.17742 56
-77.08762 -54.76981 3.796468 5
-11.29938 -14.02979 1.045852 46
nan nan nan 0
-11.04313 -13.58015 2.144291 53
nan nan nan 0
-14.24126 -17.4036 6.014955 43
-11.76243 -14.65202 0.1079917 33
-14.5537 -14.99989 0 21
-36.01712 -30.90551 -0.2482894 9
-40.83263 -29.01418 -0.5853151 8
-12.17809 -15.18631 0.5731729 23
-14.59146 -15.08076 0.4862661 17
-61.77852 -53.21524 1.394097 6
-59.16616 -42.20935 0.887504 11
nan nan nan 0
-0.2211016 -0.2702918 -0.08087836 8
-5.186365 -6.448651 -1.144289 88
-7.357808 -8.990918 -1.096501 29
-9.532939 -11.73439 -0.9671879 12
-10.17644 -10.4403 -1.016701 15
-9.548837 -8.135048 -0.9445981 49
nan nan nan 0
-11.54343 -14.40473 -0.7494742 113
-13.32299 -13.8032 -0.8927713 42
-14.11321 -12.13732 -0.9734488 12
-14.85131 -10.59602 -1.059212 8
nan nan nan 0
-14.93133 -15.35695 -0.4963628 11
-21.38932 -18.29001 -0.8193519 10
-22.65913 -16.06805 -0.958953 9
-6.17815 -4.419822 -1.370563 15
-8.595245 -6.054351 -1.178539 58
-81.95328 -57.79699 4.026222 9
-11.77892 -14.52149 1.085641 46
-103.2536 -71.98408 10.23452 8
-11.24134 -13.72586 2.17354 57
nan nan nan 0
nan nan nan 0
-11.80408 -14.59921 0.1079053 44
-14.74573 -15.09206 0 17
-36.31127 -30.93848 -0.2495722 8
nan nan nan 0
-11.99559 -14.85203 0.5621135 41
-14.8777 -15.26963 0.4940417 21
-61.73215 -52.80105 1.388881 7
-59.10505 -41.85523 0.8843887 8
nan nan nan 0
-0.2250572 -0.2733027 -0.08214208 7
-5.221303 -6.445911 -1.147041 58
-7.398641 -8.976707 -1.097915 27
-9.583316 -11.71264 -0.9681481 12
-10.2268 -10.41895 -1.018096 14
-9.59621 -8.117764 -0.9464813 36
-11.07962 -7.764869 -1.101974 30
-11.61873 -14.39546 -0.7511005 106
-13.41982 -13.80675 -0.8960321 42
-14.21245 -12.13661 -0.9773739 11
nan nan nan 0
-12.3413 -15.17726 -0.3407582 35
-14.99883 -15.31903 -0.496827 5
-21.41113 -18.17966 -0.817749 10
-22.7723 -16.02912 -0.9613715 10
-6.197553 -4.401075 -1.371456 15
-8.66521 -6.05845 -1.185248 50
-82.71527 -57.90306 4.053712 10
-11.83901 -14.49188 1.086513 48
-103.4919 -71.61472 10.23331 9
-11.26078 -13.65207 2.168056 102
nan nan nan 0
-14.52584 -17.50076 6.083541 34
-11.93703 -14.65874 0.108654 51
-14.83689 -15.07971 0 15
-36.6099 -30.97301 -0.2508812 11
nan nan nan 0
-11.95593 -14.69761 0.5578371 33
-15.10944 -15.39959 0.4999605 11
-61.86654 -52.54317 1.387769 7
-59.07899 -41.52792 0.8818231 6
nan nan nan 0
-0.2260099 -0.2725154 -0.08214208 7
-5.265667 -6.454522 -1.151858 59
-7.439463 -8.962321 -1.099329 29
-9.633658 -11.69067 -0.9691082 12
-10.27362 -10.39383 -1.019142 14
-9.529033 -8.004064 -0.9370655 32
-11.11484 -7.731835 -1.102789 35
-11.71931 -14.41685 -0.7543529 103
-13.54479 -13.83836 -0.9011563 39
-14.24331 -12.07724 -0.9765889 11
-14.99435 -10.54086 -1.064149 9
-12.41321 -15.1573 -0.3412818 34
-14.32932 -14.53327 -0.4729199 7
-21.40567 -18.04682 -0.8151261 11
-22.84859 -15.96383 -0.9622353 9
-6.216901 -4.382246 -1.372348 15
-8.723055 -6.053641 -1.190279 49
-82.76098 -57.50565 4.046087 11
-12.44433 -15.12518 1.137339 83
-103.1949 -70.87779 10.1794 7
-11.57465 -13.93342 2.219241 47
nan nan nan 0
-14.60852 -17.47589 6.0926 35
-12.05151 -14.69432 0.10923 54
nan nan nan 0
-36.85562 -30.96079 -0.2518237 15
-38.10812 -26.48259 -0.5422248 4
-11.99766 -14.64418 0.5573948 40
-14.33757 -14.51107 0.4726878 13
-62.42029 -52.63951 1.396064 11
-59.3056 -41.37865 0.8830448 10
nan nan nan 0
-0.2269598 -0.2717249 -0.08214208 8
-5.285024 -6.432273 -1.15117 84
-7.477084 -8.943939 -1.100272 27
-9.683963 -11.66849 -0.9700684 12
-10.32391 -10.37205 -1.020537 14
-9.522449 -7.942017 -0.9336758 41
-11.07613 -7.647713 -1.096275 28
-11.79804 -14.41066 -0.7561824 109
-13.63157 -13.83013 -0.9037184 47
-14.29302 -12.03388 -0.9771123 10
-15.0679 -10.51415 -1.066763 10
nan nan nan 0
nan nan nan 0
-9.514916 -7.966575 -0.360643 13
-23.00274 -15.95231 -0.9663814 9
-6.236193 -4.363336 -1.37324 14
-8.780974 -6.048503 -1.195311 45
-82.90774 -57.17955 4.043478 12
-12.49068 -15.07396 1.136758 48
-104.8335 -71.46588 10.3164 9
-11.25076 -13.44749 2.147947 47
nan nan nan 0
-14.52328 -17.25111 6.031778 39
-12.43695 -15.05703 0.1122537 17
nan nan nan 0
-9.455942 -7.889138 -0.06427146 30
-42.22979 -29.12811 -0.5994642 15
-12.05189 -14.60607 0.5575422 47
-15.11787 -15.19451 0.496711 4
-61.68373 -51.65104 1.37554 6
-59.13317 -40.95223 0.8783413 10
nan nan nan 0
-0.2309598 -0.2746836 -0.08340581 7
-5.29798 -6.402333 -1.149105 82
-7.51787 -8.929213 -1.101686 27
-9.734231 -11.6461 -0.9710286 12
-10.37065 -10.34652 -1.021583 14
-9.557796 -7.915089 -0.934429 30
-11.14799 -7.639972 -1.100753 32
-11.86733 -14.39252 -0.7574019 114
-13.70087 -13.80373 -0.905116 33
-9.515379 -7.95557 -0.6479191 23
-15.12504 -10.47569 -1.068215 11
-12.79973 -15.40875 -0.3489608 20
-21.03541 -21.04016 -0.6898248 7
-9.508074 -7.904563 -0.3593316 40
-23.16532 -15.94556 -0.9708729 10
-6.251386 -4.341541 -1.37324 15
-8.789724 -6.00941 -1.193634 43
-82.65744 -56.58221 4.021607 9
nan nan nan 0
nan nan nan 0
-11.20174 -13.29425 2.129667 44
nan nan nan 0
nan nan nan 0
-12.51181 -15.04044 0.1124553 15
nan nan nan 0
-9.506527 -7.875216 -0.06442853 41
-42.49624 -29.09348 -0.6018029 14
-12.31035 -14.81382 0.567127 46
nan nan nan 0
-9.50174 -7.901921 0.2107138 15
-59.11919 -40.63796 0.8760201 16
nan nan nan 0
-0.2319172 -0.2738758 -0.08340581 7
nan nan nan 0
-7.558647 -8.91431 -1.1031 29
-9.781248 -11.61969 -0.9716686 12
-10.42087 -10.3243 -1.022979 14
nan nan nan 0
-11.22817 -7.637427 -1.106045 32
-12.0164 -14.47018 -0.7637035 110
-13.77369 -13.78055 -0.9067464 27
-9.527721 -7.909551 -0.6468724 43
nan nan nan 0
-12.83099 -15.33713 -0.34835 36
-21.06972 -20.92785 -0.6885481 9
-9.531754 -7.868144 -0.3591859 41
-23.34464 -15.94914 -0.9760556 11
-6.270555 -4.322483 -1.374133 15
-8.818872 -5.984266 -1.194752 44
-64.18767 -43.61217 3.11523 17
-13.03224 -15.50619 1.176257 15
nan nan nan 0
-11.37005 -13.39889 2.152822 33
nan nan nan 0
-14.61828 -17.11991 6.021425 57
-12.37806 -14.77432 0.110785 8
-33.38345 -32.99851 0 12
-9.549408 -7.854688 -0.06453326 28
-42.70092 -29.0152 -0.6032646 12
-12.38443 -14.7976 0.5681593 29
nan nan nan 0
-9.483001 -7.830514 0.2096876 42
-59.2235 -40.40599 0.8754702 12
nan nan nan 0
-0.2297928 -0.2693333 -0.08214208 8
nan nan nan 0
-7.596179 -8.895444 -1.104043 27
-9.837876 -11.60451 -0.9732689 12
-10.47107 -10.30185 -1.024374 14
-10.43169 -8.516504 -1.014275 46
-11.22171 -7.575893 -1.102789 34
-12.17257 -14.55465 -0.7704116 111
-13.84651 -13.75704 -0.9083768 19
-9.562981 -7.882596 -0.6473958 26
-14.61219 -9.970524 -1.026974 36
-13.0197 -15.45286 -0.352015 32
-21.08215 -20.7945 -0.6865753 11
-9.574623 -7.847494 -0.3597687 8
-23.53253 -15.95728 -0.9815837 11
-6.285605 -4.300568 -1.374133 14
-8.847953 -5.958993 -1.19587 46
nan nan nan 0
-13.08951 -15.46442 1.176547 15
nan nan nan 0
-11.34906 -13.27988 2.140026 41
nan nan nan 0
-14.58981 -16.96622 5.98519 31
-13.07098 -15.49166 0.1165158 36
-33.50557 -32.88879 0 6
-9.596131 -7.837116 -0.06466416 3
-42.98021 -28.98616 -0.6057786 13
-13.17014 -15.62578 0.6017799 23
nan nan nan 0
-9.579872 -7.854409 0.2112269 6
-59.36833 -40.20182 0.8755314 9
nan nan nan 0
-0.2307315 -0.2685295 -0.08214208 7
-5.377513 -6.361641 -1.151858 82
-7.636915 -8.8802 -1.105457 25
-9.891277 -11.58529 -0.9745491 12
-10.51767 -10.2757 -1.02542 14
-11.17797 -9.060756 -1.083953 16
-11.25223 -7.539448 -1.103196 33
-12.26513 -14.56175 -0.7730541 108
-13.91933 -13.73318 -0.9100072 18
-14.56785 -11.92168 -0.9844393 10
-14.69238 -9.950232 -1.030168 17
-13.00889 -15.33106 -0.3502698 33
-21.09747 -20.66482 -0.6847184 10
-21.74451 -17.69257 -0.8161461 22
-23.6793 -15.9364 -0.9853842 11
-6.304651 -4.281362 -1.375025 15
-8.872832 -5.93083 -1.196429 46
-63.59788 -42.56561 3.072088 14
-12.45391 -14.60932 1.114685 41
-65.6054 -43.39717 6.394702 7
-11.35652 -13.19503 2.132714 17
nan nan nan 0
-14.6679 -16.9371 5.992955 48
-12.7819 -15.04198 0.1134632 40
nan nan nan 0
nan nan nan 0
-43.10189 -28.84985 -0.6060709 12
-12.48744 -14.71078 0.5681593 13
-63.01173 -61.59533 2.044871 5
-43.73278 -35.59358 0.9638617 12
-59.03523 -39.67645 0.8685677 12
nan nan nan 0
-0.2316674 -0.2677225 -0.08214208 7
-5.415725 -6.361696 -1.155298 69
-7.674381 -8.861016 -1.1064 28
-9.944665 -11.56583 -0.9758293 11
-10.56779 -10.25282 -1.026815 14
-10.76281 -8.662252 -1.04064 42
-11.24112 -7.475305 -1.099532 28
-12.35788 -14.56839 -0.7756967 115
-13.99572 -13.71247 -0.9118705 20
-14.63263 -11.88965 -0.9860094 10
-14.6773 -9.865485 -1.026683 21
-13.06233 -15.28556 -0.3502698 26
-21.1014 -20.52482 -0.6825134 8
-21.74004 -17.56317 -0.813669 19
-23.80959 -15.90359 -0.9884938 11
-6.319557 -4.259329 -1.375025 15
-8.901765 -5.905312 -1.197547 47
