# .PCD v0.7 - Point Cloud Data file format
VERSION 0.7
FIELDS x y z intensity
SIZE 4 4 4 4
TYPE F F F F
COUNT 1 1 1 1
WIDTH 1606
HEIGHT 1
VIEWPOINT 0 0 0 1 0 0 0
POINTS 1606
DATA ascii
2.404741 -9.510665 2.617954 98
9.330419 -35.4362 0.2108285 32
5.231679 -31.71633 0 17
1.810186 -25.04425 -0.1312656 20
-0.412476 -21.56918 -0.2518182 9
nan nan nan 0
8.116585 -48.7759 1.147077 11
2.282606 -30.76587 0.527041 27
-0.693932 -40.06062 0.4890465 10
nan nan nan 0
0.1060146 -0.4132152 -0.1010979 58
1.704687 -6.505736 -0.9289176 28
2.067715 -8.174631 -0.7947978 41
2.589809 -10.08611 -0.6653818 117
nan nan nan 0
0.6437923 -9.366186 -0.7061888 37
-0.1998277 -9.052344 -0.7364137 36
3.833184 -14.51973 -0.6094179 21
2.313526 -13.80727 -0.6510034 15
nan nan nan 0
-0.1860829 -10.85971 -0.6296604 16
5.379223 -20.67295 -0.3721725 35
2.885104 -17.61036 -0.4133842 9
1.157428 -16.40217 -0.4782345 12
-0.311873 -15.53721 -0.5358804 10
-0.08556738 -5.42114 -0.9761694 19
-0.1737088 -7.495508 -0.8391777 17
-1.046202 -45.99063 1.846062 5
16.90615 -65.53465 3.935668 11
-1.290458 -45.83012 3.725919 12
17.54236 -69.34836 8.778249 9
-0.2625407 -9.426197 1.711584 42
2.350467 -9.434658 2.594661 46
nan nan nan 0
5.148028 -31.90223 0 13
nan nan nan 0
-0.4860495 -21.49264 -0.2509412 9
nan nan nan 0
7.932616 -48.72006 1.145105 11
2.177312 -30.80357 0.5275542 27
-0.8291584 -39.83801 0.4863588 27
nan nan nan 0
0.1058212 -0.4182562 -0.1023617 51
1.680725 -6.506853 -0.9282295 25
2.040374 -8.186627 -0.7952692 41
2.566852 -10.14346 -0.6685823 114
1.545339 -9.72396 -0.6857061 32
0.6068889 -9.303697 -0.7012925 32
-0.2306424 -9.021702 -0.7339711 31
3.779957 -14.52335 -0.6090114 35
2.267742 -13.83005 -0.6517021 14
0.8154519 -11.66547 -0.6107606 16
-0.2248324 -10.89892 -0.6319838 16
5.308272 -20.69645 -0.3722598 35
2.823615 -17.62032 -0.4133842 8
1.099832 -16.40112 -0.4780888 12
-0.3658671 -15.52603 -0.5355349 9
-0.1043906 -5.41589 -0.9752771 20
-0.1997358 -7.48989 -0.8386186 17
-1.205153 -45.92677 1.843655 13
nan nan nan 0
-1.449636 -45.80043 3.723893 12
nan nan nan 0
-0.2963852 -9.454721 1.716964 83
2.323288 -9.466255 2.601131 48
8.956316 -35.00641 0.2078911 27
5.063923 -32.09287 0 15
1.643758 -25.186 -0.1319463 22
-0.559357 -21.42584 -0.2501811 10
nan nan nan 0
7.749922 -48.66847 1.143248 12
2.067431 -30.77606 0.5269555 24
nan nan nan 0
nan nan nan 0
0.1043606 -0.418623 -0.1023617 45
1.658002 -6.51268 -0.9282295 25
1.997507 -8.135698 -0.7896123 45
2.524171 -10.12331 -0.666662 104
1.526717 -9.827866 -0.6926817 28
0.5728787 -9.280878 -0.6994094 33
-0.260802 -8.97601 -0.7303075 37
3.729238 -14.53645 -0.6090114 23
2.21787 -13.82801 -0.6512362 15
0.7727466 -11.63835 -0.6091905 15
-0.2454342 -10.18948 -0.5907422 15
5.234769 -20.71 -0.3721725 35
2.762092 -17.63007 -0.4133842 9
1.042575 -16.40486 -0.4780888 12
-0.4206085 -15.54464 -0.5362259 9
-0.1232949 -5.415492 -0.9752771 20
-0.2258792 -7.489146 -0.8386186 17
-1.364864 -45.90231 1.842852 12
18.09856 -72.23593 4.330657 8
-1.608095 -45.75525 3.72065 9
16.88969 -68.78477 8.691721 11
-0.3344395 -9.596189 1.742965 117
2.285681 -9.455531 2.595955 46
8.788812 -34.85809 0.2068256 27
4.999132 -32.41672 0 15
1.551215 -25.11673 -0.1315536 25
-0.6335471 -21.40376 -0.2499473 9
nan nan nan 0
7.567686 -48.6162 1.141391 12
nan nan nan 0
-1.088971 -39.17656 0.4783567 7
nan nan nan 0
0.1016817 -0.4143026 -0.1010979 53
1.634049 -6.513625 -0.9275414 25
1.973788 -8.161972 -0.7914979 41
nan nan nan 0
1.480414 -9.754236 -0.6871012 30
0.5439438 -9.34255 -0.7039291 36
-0.2926282 -8.989986 -0.7315286 37
3.677248 -14.54454 -0.6088081 25
2.157971 -13.76166 -0.6477425 15
nan nan nan 0
nan nan nan 0
5.157609 -20.70875 -0.3718235 33
2.700535 -17.63961 -0.4133842 9
0.9850061 -16.40341 -0.4779431 11
-0.4742495 -15.5231 -0.5355349 10
-0.1421978 -5.415029 -0.9752771 21
-0.2520199 -7.488312 -0.8386186 18
-1.523586 -45.85233 1.841046 8
17.83433 -72.25021 4.327753 12
-0.3805757 -9.964499 0.8078501 37
16.64599 -68.82885 8.689894 10
-0.3633408 -9.476997 1.721447 101
2.253782 -9.468151 2.597249 44
8.671906 -34.90797 0.2069408 33
4.882966 -32.4142 0 16
1.467888 -25.19686 -0.1319463 22
nan nan nan 0
26.62157 -106.876 3.24852 9
7.387413 -48.57314 1.139766 12
nan nan nan 0
nan nan nan 0
nan nan nan 0
0.1002349 -0.4146551 -0.1010979 53
1.61011 -6.514482 -0.9268533 24
1.958002 -8.222071 -0.7966834 42
2.460491 -10.16978 -0.6685823 104
nan nan nan 0
0.5094293 -9.309542 -0.7012925 39
-0.3240074 -8.988911 -0.7315286 32
3.626455 -14.55729 -0.6088081 31
2.112192 -13.78392 -0.6484413 15
nan nan nan 0
-0.31546 -10.1526 -0.5887092 13
5.106755 -20.81401 -0.3733942 29
2.633027 -17.60938 -0.4124558 9
0.9277415 -16.40675 -0.4779431 12
-0.3434269 -10.14275 -0.3494797 9
-0.1610989 -5.414499 -0.9752771 20
-0.2779692 -7.482422 -0.8380595 17
-0.3636615 -10.01994 0.4011173 30
17.56669 -72.24896 4.323977 14
-0.4174602 -10.0129 0.8119035 42
11.48204 -48.21946 6.08128 18
-0.3937083 -9.411783 1.709791 40
2.225136 -9.494765 2.602425 46
8.591625 -35.10799 0.2079487 29
nan nan nan 0
1.370644 -25.03209 -0.1310562 25
-0.3663882 -10.09226 -0.117636 33
25.47876 -103.8327 3.153262 8
7.202391 -48.49479 1.137329 13
nan nan nan 0
-0.842133 -24.2682 0.2962012 13
nan nan nan 0
0.09641837 -0.4056215 -0.0985705 50
1.586185 -6.515252 -0.9261653 24
1.948656 -8.31123 -0.8046975 36
nan nan nan 0
nan nan nan 0
0.475406 -9.281388 -0.6990328 36
-0.3549826 -8.977767 -0.7307144 35
3.574426 -14.56501 -0.6086048 31
2.062584 -13.78133 -0.6479754 15
nan nan nan 0
-0.3507222 -10.14645 -0.5884188 16
5.046999 -20.88516 -0.3743541 31
2.568653 -17.59868 -0.4119916 9
0.8702014 -16.4049 -0.4777974 11
-0.3773159 -10.10154 -0.3480977 36
-0.179998 -5.413904 -0.9752771 21
-0.3040861 -7.481406 -0.8380595 17
-0.4002463 -10.05855 0.4027225 41
17.37368 -72.55742 4.33879 15
-0.4535483 -10.03627 0.8139302 41
11.30799 -48.23509 6.078233 17
-0.4186592 -9.238368 1.67841 48
2.200685 -9.540119 2.612778 47
8.424476 -34.95307 0.2068544 27
4.570578 -31.84864 0 16
nan nan nan 0
-0.4020176 -10.10091 -0.1177529 36
17.60618 -72.85479 2.210262 7
7.020158 -48.4306 1.13524 12
nan nan nan 0
-0.3811978 -10.06165 0.1225365 36
nan nan nan 0
0.09383402 -0.401261 -0.09730678 46
1.562274 -6.515934 -0.9254771 24
1.909532 -8.274335 -0.8004547 38
2.391717 -10.19642 -0.6692224 114
nan nan nan 0
0.4456076 -9.337772 -0.7031758 40
-0.3874055 -9.001367 -0.7327499 37
3.522388 -14.57254 -0.6084015 21
2.007962 -13.74397 -0.6458792 16
0.6109558 -11.66297 -0.6099755 16
-0.3845978 -10.10526 -0.5860953 24
4.987969 -20.96101 -0.3754013 29
2.502975 -17.57784 -0.4112952 9
0.8126855 -16.40285 -0.4776517 11
-0.4131945 -10.11514 -0.348616 38
-0.198895 -5.413242 -0.9752771 21
-0.3301992 -7.480299 -0.8380595 17
-0.4355736 -10.06208 0.4029232 44
17.17072 -72.83139 4.351569 14
-0.4893141 -10.04956 0.8151462 11
11.11275 -48.15821 6.063609 18
-0.4443473 -9.1042 1.654202 47
2.158797 -9.510069 2.602425 44
8.208835 -34.58823 0.2045218 25
4.591099 -32.80523 0 17
nan nan nan 0
-0.4374929 -10.10444 -0.1178114 38
20.74985 -87.19054 2.643202 6
6.84196 -48.39046 1.133731 12
nan nan nan 0
-0.4175734 -10.09023 0.122903 44
nan nan nan 0
0.0912813 -0.3968875 -0.09604306 44
1.537236 -6.51171 -0.9241009 25
1.872901 -8.246977 -0.7971549 38
2.429235 -10.52069 -0.6900256 91
nan nan nan 0
0.4178327 -9.448852 -0.7114617 32
-0.4124855 -8.865557 -0.7217587 41
3.47034 -14.57989 -0.6081983 32
1.940926 -13.61739 -0.6395904 17
0.5685394 -11.63012 -0.6081438 16
-0.4204991 -10.11881 -0.5869666 29
4.920479 -21.00263 -0.3758376 23
2.439538 -17.57162 -0.4109471 8
0.7549653 -16.3956 -0.4773602 10
-0.4482764 -10.10864 -0.3484432 35
-0.2177895 -5.412516 -0.9752771 23
-0.3563083 -7.479101 -0.8380595 18
-0.4718752 -10.08545 0.4039265 31
17.01346 -73.30903 4.376546 13
nan nan nan 0
10.89181 -47.96442 6.03436 9
-0.471444 -9.014178 1.638064 33
2.132974 -9.550538 2.611484 44
8.056175 -34.48035 0.2037155 23
4.437353 -32.53371 0 18
1.087029 -24.56055 -0.1285167 18
-0.4734705 -10.11784 -0.1179868 21
24.39689 -104.123 3.154147 11
4.40502 -31.96413 0.7481999 13
nan nan nan 0
-0.4532458 -10.0987 0.1230252 43
nan nan nan 0
0.08989535 -0.3972037 -0.09604306 42
1.513372 -6.512213 -0.9234129 29
1.846279 -8.263179 -0.7980977 37
2.306071 -10.14963 -0.6650617 110
nan nan nan 0
0.385453 -9.465199 -0.7125916 34
-0.4497327 -8.988488 -0.7319357 35
3.418283 -14.58705 -0.607995 27
1.884434 -13.55977 -0.6365625 17
nan nan nan 0
-0.4555905 -10.1123 -0.5866761 17
4.842638 -21.00019 -0.3754885 15
2.374834 -17.55526 -0.4103668 10
0.6973056 -16.38815 -0.4770688 11
-0.7465416 -15.54241 -0.5365714 5
-0.2366814 -5.411722 -0.9752771 19
-0.3824131 -7.477811 -0.8380595 17
nan nan nan 0
16.78859 -73.50423 4.384678 10
nan nan nan 0
10.7005 -47.8956 6.020955 10
-0.5015207 -8.987922 1.633581 39
2.099623 -9.557925 2.611484 41
nan nan nan 0
4.220348 -31.77084 0 20
1.000884 -24.5542 -0.1284644 17
nan nan nan 0
24.16585 -104.7822 3.171547 7
4.2668 -31.78115 0.7435578 30
nan nan nan 0
-0.4899595 -10.12702 0.1233917 11
nan nan nan 0
0.08850831 -0.3975151 -0.09604306 45
1.489523 -6.51263 -0.9227248 24
1.816352 -8.264711 -0.7976263 38
2.347 -10.49844 -0.6874652 76
nan nan nan 0
nan nan nan 0
-0.4848786 -9.056528 -0.7376349 33
3.36622 -14.59402 -0.6077917 27
1.825684 -13.48213 -0.6326029 19
nan nan nan 0
-0.4901522 -10.09569 -0.5858049 17
nan nan nan 0
2.312233 -17.55353 -0.4101347 9
0.639707 -16.38049 -0.4767773 11
-0.5180598 -10.0903 -0.3479249 5
-0.2555704 -5.410863 -0.9752771 20
-0.4082384 -7.471469 -0.8375005 17
nan nan nan 0
16.53958 -73.59647 4.386711 11
-1.589859 -26.69907 2.172237 4
10.50234 -47.7921 6.003284 12
-0.5393658 -9.094139 1.653306 41
2.448575 -11.33055 3.095476 17
nan nan nan 0
nan nan nan 0
0.9175834 -24.6225 -0.1288047 16
nan nan nan 0
nan nan nan 0
4.122783 -31.54307 0.737639 23
1.794284 -45.82812 0.7838485 8
nan nan nan 0
nan nan nan 0
0.08712018 -0.3978216 -0.09604306 46
1.465689 -6.512959 -0.9220367 26
1.786437 -8.266137 -0.7971549 38
2.322154 -10.56017 -0.6909857 62
nan nan nan 0
0.3076715 -9.118849 -0.6862272 38
-0.5170625 -9.064732 -0.7384491 31
3.314149 -14.60081 -0.6075884 24
1.764885 -13.38444 -0.6277117 27
nan nan nan 0
-0.5248654 -10.08395 -0.585224 19
nan nan nan 0
2.25031 -17.55654 -0.4100187 9
0.5821705 -16.37264 -0.476486 11
-0.8564107 -15.56176 -0.5374352 6
-0.2744563 -5.409938 -0.9752771 20
-0.4343162 -7.469999 -0.8375005 17
nan nan nan 0
nan nan nan 0
-1.686193 -26.7431 2.176291 5
10.31552 -47.7363 5.991706 11
-0.5642554 -8.9842 1.633581 87
2.40398 -11.31541 3.089005 38
nan nan nan 0
3.855533 -30.66348 0 19
0.8307872 -24.60057 -0.1286738 17
nan nan nan 0
23.705 -106.1629 3.208264 8
nan nan nan 0
nan nan nan 0
nan nan nan 0
nan nan nan 0
0.08573099 -0.3981233 -0.09604306 46
1.441871 -6.5132 -0.9213486 28
1.756535 -8.267454 -0.7966834 38
nan nan nan 0
1.171414 -9.499705 -0.666523 36
0.2764375 -9.139803 -0.6877338 38
-0.5487012 -9.062871 -0.7384491 31
3.262072 -14.60742 -0.6073852 23
1.714336 -13.36079 -0.6263142 27
nan nan nan 0
-0.5606208 -10.09202 -0.5858049 18
nan nan nan 0
2.187775 -17.55437 -0.4097865 9
0.5246966 -16.36458 -0.4761945 12
-0.9098449 -15.54371 -0.536917 8
-0.2933388 -5.408947 -0.9752771 22
-0.4603887 -7.468438 -0.8375005 18
-1.63577 -26.75805 1.075131 10
10.58454 -48.69327 2.897077 27
-3.022264 -45.349 3.693492 6
10.1251 -47.66037 5.977691 12
-0.58937 -8.888925 1.616546 37
2.198267 -10.52956 2.871597 116
nan nan nan 0
3.722384 -30.46335 0 18
0.7452121 -24.61331 -0.1287262 20
nan nan nan 0
10.67188 -48.60515 1.467069 15
3.809218 -30.81703 0.7199988 22
1.464671 -45.53973 0.7787175 9
nan nan nan 0
nan nan nan 0
0.08434076 -0.3984201 -0.09604306 42
1.419127 -6.518193 -0.9213486 26
1.727665 -8.273536 -0.7966834 39
2.239014 -10.53221 -0.6881053 61
1.16082 -9.691926 -0.6797768 30
0.2474415 -9.25036 -0.6960197 35
-0.5806548 -9.065874 -0.7388561 33
3.211063 -14.61872 -0.6073852 20
nan nan nan 0
nan nan nan 0
nan nan nan 0
nan nan nan 0
2.125884 -17.55693 -0.4096705 9
0.4674282 -16.36131 -0.4760488 11
-0.960052 -15.47561 -0.5346711 9
-0.3122177 -5.40789 -0.9752771 21
-0.4864556 -7.466785 -0.8375005 17
-1.732395 -26.80204 1.077137 9
nan nan nan 0
-3.177049 -45.28846 3.689439 13
9.936345 -47.58855 5.964285 10
-0.6228144 -8.921162 1.622822 34
2.147879 -10.47094 2.85348 56
nan nan nan 0
3.595395 -30.30237 0 18
nan nan nan 0
-1.351996 -20.93455 -0.2448606 7
10.47261 -48.50532 1.46294 33
3.720701 -30.98896 0.7237125 26
1.303696 -45.4746 0.7775202 8
-1.681086 -26.80495 0.32766 5
nan nan nan 0
0.08400232 -0.4034338 -0.09730678 41
1.395325 -6.518266 -0.9206606 26
1.697771 -8.27464 -0.796212 37
2.210419 -10.57903 -0.6906657 62
nan nan nan 0
0.216873 -9.325933 -0.7016692 34
-0.6106024 -9.038934 -0.7368208 33
3.160014 -14.62984 -0.6073852 25
nan nan nan 0
nan nan nan 0
nan nan nan 0
4.406796 -20.75877 -0.3697292 7
2.063418 -17.55432 -0.4094384 10
0.410189 -16.35785 -0.4759031 11
-1.01998 -15.56191 -0.5377807 7
-0.3310929 -5.406767 -0.9752771 20
-0.5125166 -7.465042 -0.8375005 17
nan nan nan 0
nan nan nan 0
-2.890651 -39.25342 3.198162 45
9.748216 -47.516 5.95088 11
-0.6597565 -8.997423 1.637167 33
2.092191 -10.38369 2.827598 98
7.461823 -35.25293 0.2073152 21
3.490742 -30.32467 0 17
0.5764955 -24.75288 -0.129433 22
-1.425063 -20.92971 -0.2448606 8
nan nan nan 0
nan nan nan 0
1.137539 -45.18401 0.7724747 11
-1.780607 -26.88871 0.3287595 5
nan nan nan 0
0.08155722 -0.3989992 -0.09604306 47
1.37154 -6.518251 -0.9199725 30
1.66789 -8.275637 -0.7957406 37
2.171466 -10.57691 -0.6900256 52
1.085857 -9.63536 -0.6752426 36
0.1843181 -9.326634 -0.7016692 36
-0.6414378 -9.026805 -0.7360066 31
3.108927 -14.64078 -0.6073852 30
1.548615 -13.15976 -0.6160658 18
nan nan nan 0
nan nan nan 0
4.328174 -20.74466 -0.3692056 8
2.001563 -17.55645 -0.4093224 9
0.3528724 -16.34919 -0.4756117 12
-1.070836 -15.50841 -0.5360532 10
-0.3499641 -5.405579 -0.9752771 22
-0.5385714 -7.463207 -0.8375005 18
-2.811773 -39.20723 1.577179 4
10.16997 -49.26583 2.924668 39
nan nan nan 0
9.560714 -47.4427 5.937474 11
-0.6934389 -9.024489 1.642547 33
1.985452 -10.03563 2.730541 74
7.338721 -35.27877 0.2073152 25
3.41205 -30.58016 0 27
0.4908771 -24.79473 -0.1296425 25
-1.49668 -20.90466 -0.2446268 9
nan nan nan 0
3.426216 -30.32376 0.707581 21
0.9829482 -45.33265 0.7749547 9
nan nan nan 0
nan nan nan 0
0.08220366 -0.4087394 -0.0985705 41
1.347772 -6.51815 -0.9192843 29
1.638993 -8.281408 -0.7957406 37
nan nan nan 0
1.052217 -9.639091 -0.6752426 36
0.1531219 -9.411968 -0.7080719 33
-0.671075 -8.999663 -0.7339711 33
3.057802 -14.65154 -0.6073852 21
1.518549 -13.30403 -0.6225874 18
nan nan nan 0
nan nan nan 0
4.248698 -20.72536 -0.3685948 9
1.939168 -17.55339 -0.4090903 9
0.2956212 -16.34033 -0.4753202 12
-1.122057 -15.46471 -0.5346711 10
-0.3688309 -5.404325 -0.9752771 20
-0.5646195 -7.461282 -0.8375005 18
-2.927964 -38.92318 1.566143 48
9.987018 -49.24722 2.921473 43
-3.644704 -45.17323 3.682953 8
9.37288 -47.36383 5.923459 12
-0.7273185 -9.051432 1.647926 41
1.979951 -10.1942 2.771952 48
7.258615 -35.5148 0.2085535 32
3.316032 -30.69131 0 24
0.4066778 -24.94127 -0.1304017 23
-1.565508 -20.84447 -0.2439836 9
10.1117 -49.33203 1.484617 11
3.353541 -30.63864 0.7146603 27
0.8218889 -45.18085 0.7723037 10
nan nan nan 0
nan nan nan 0
0.0777664 -0.3948264 -0.09477933 41
1.325011 -6.522815 -0.9192843 26
1.609123 -8.282192 -0.7952692 39
2.01206 -10.16112 -0.6618612 104
nan nan nan 0
0.119202 -9.327694 -0.7016692 35
-0.7060046 -9.041978 -0.7376349 31
3.00664 -14.66212 -0.6073852 37
1.449008 -13.10075 -0.6128049 24
0.2070891 -11.88187 -0.6207044 14
-0.8147175 -11.14103 -0.6476672 18
4.172375 -20.72047 -0.3682458 9
1.87682 -17.55011 -0.4088581 10
0.2384363 -16.33126 -0.4750288 11
-1.174889 -15.44575 -0.5341529 10
-0.3876933 -5.403004 -0.9752771 19
-0.5906608 -7.459266 -0.8375005 17
nan nan nan 0
9.77213 -49.06639 2.908694 8
-3.799434 -45.12548 3.680116 8
9.183819 -47.27446 5.908226 11
-0.7622227 -9.08805 1.655099 34
1.924409 -10.09669 2.743482 59
7.150358 -35.61835 0.2090143 29
nan nan nan 0
0.3192955 -24.91754 -0.1302708 26
-1.636294 -20.81396 -0.2436913 10
9.920681 -49.27393 1.481815 17
3.228132 -30.47618 0.7105985 29
0.6624143 -45.06348 0.7702513 10
nan nan nan 0
nan nan nan 0
0.07737453 -0.3998314 -0.09604306 37
1.301261 -6.522544 -0.9185963 29
1.580203 -8.287759 -0.7952692 37
1.971806 -10.14359 -0.660261 103
nan nan nan 0
0.0860533 -9.263242 -0.696773 37
-0.7391959 -9.059326 -0.7392632 34
2.954453 -14.66763 -0.6071818 29
1.38623 -12.94681 -0.6053516 24
nan nan nan 0
-0.8405523 -10.96891 -0.6377925 18
4.092253 -20.69567 -0.3675477 8
1.814517 -17.54661 -0.408626 9
0.1812082 -16.31201 -0.4744459 12
nan nan nan 0
-0.4065509 -5.401618 -0.9752771 20
-0.6166949 -7.457158 -0.8375005 17
nan nan nan 0
9.573961 -48.96304 2.900562 9
-3.957801 -45.12187 3.680926 6
9.004795 -47.23311 5.899085 10
-0.7913536 -9.055933 1.64972 28
1.874912 -10.02739 2.722776 48
7.007596 -35.54989 0.2084671 30
nan nan nan 0
0.2326851 -24.9585 -0.1304802 25
-1.706064 -20.77324 -0.243282 9
9.724376 -49.1857 1.478128 13
3.126317 -30.53202 0.7116429 30
0.5038808 -44.95554 0.7683699 10
-3.026352 -37.68046 0.461375 11
nan nan nan 0
0.07791892 -0.4095778 -0.0985705 39
1.278485 -6.527047 -0.9185963 26
1.549427 -8.283442 -0.7943264 34
nan nan nan 0
nan nan nan 0
0.05396864 -9.308356 -0.7001627 34
-0.7737941 -9.091447 -0.7421128 32
2.902265 -14.67296 -0.6069786 22
nan nan nan 0
0.1222312 -11.69829 -0.6110223 15
-0.8932785 -11.14502 -0.6482481 18
4.001863 -20.61659 -0.3658897 9
1.751765 -17.53792 -0.4082779 10
0.1244176 -16.33253 -0.4750288 11
-1.231997 -14.82965 -0.513077 15
-0.4254036 -5.400166 -0.9752771 20
-0.6427215 -7.45496 -0.8375005 17
nan nan nan 0
9.398283 -48.97165 2.89911 9
-3.927119 -43.04818 3.512709 36
8.821609 -47.1667 5.886899 12
-0.8211664 -9.033522 1.646133 31
1.838151 -10.02438 2.720188 80
6.874906 -35.52996 0.2082079 26
2.971648 -30.49046 0 21
0.1457927 -24.99916 -0.1306897 28
-1.775998 -20.73727 -0.2429312 8
9.540239 -49.15556 1.476211 11
3.013815 -30.48306 0.7102503 31
0.346301 -44.87204 0.7669162 10
-3.157027 -37.6597 0.4612528 14
nan nan nan 0
0.8547216 -4.27991 -1.12977 6
1.254755 -6.526608 -0.9179083 26
1.518701 -8.279009 -0.7933836 38
1.923033 -10.27481 -0.6679422 92
0.9156402 -9.632982 -0.6738475 34
0.02153873 -9.338403 -0.7024224 32
-0.8024235 -9.053945 -0.7392632 35
2.850075 -14.67809 -0.6067753 31
1.339617 -13.39351 -0.6258483 17
0.08193961 -11.77854 -0.6152092 16
-0.9355248 -11.18163 -0.6505716 17
3.916759 -20.56169 -0.364668 9
1.689576 -17.53398 -0.4080457 9
0.06744585 -16.34286 -0.4753202 11
-1.282888 -14.8153 -0.5127315 14
-0.4442511 -5.398648 -0.9752771 20
-0.6687402 -7.452671 -0.8375005 17
-3.824447 -42.82954 1.725466 33
9.201406 -48.86681 2.890978 10
-4.081597 -43.07887 3.516357 21
8.63989 -47.10445 5.875321 12
-0.8601421 -9.108951 1.660479 45
1.810004 -10.06876 2.730541 38
6.738706 -35.48988 0.2078335 30
2.845546 -30.29157 0 19
0.05853974 -25.00452 -0.1307158 26
-1.844812 -20.6911 -0.2424635 8
9.348948 -49.08546 1.473115 10
2.901694 -30.43368 0.7088576 28
0.1891218 -44.74299 0.7646927 9
-3.312866 -37.92737 0.4646736 14
nan nan nan 0
0.8313423 -4.240152 -1.118396 10
1.231965 -6.530948 -0.9179083 24
1.487141 -8.269563 -0.7919694 39
1.888059 -10.28636 -0.6682622 52
nan nan nan 0
-0.01115597 -9.408222 -0.7076953 32
-0.8252767 -8.956808 -0.7315286 38
2.799758 -14.69286 -0.6069786 27
1.30727 -13.54725 -0.6328358 17
0.04087402 -11.79373 -0.6159942 15
-0.9797812 -11.23797 -0.6540567 18
3.819211 -20.43764 -0.3622247 9
1.626048 -17.51488 -0.4074655 9
0.01040344 -16.35299 -0.4756117 12
nan nan nan 0
-0.4630932 -5.397064 -0.9752771 23
-0.6947508 -7.450291 -0.8375005 17
-4.001205 -43.10943 1.737305 43
9.018075 -48.82992 2.886911 10
-4.417401 -44.949 3.670387 8
8.457836 -47.03664 5.863134 12
-0.9469458 -9.66395 1.76269 43
1.798375 -10.20818 2.766775 13
6.597373 -35.4198 0.2072864 38
2.760967 -30.53536 0 23
-0.02873656 -24.99957 -0.1306897 25
-1.913787 -20.64969 -0.2420542 9
9.157344 -49.00972 1.469871 12
2.801846 -30.51331 0.7104824 29
0.03284419 -44.6084 0.7623838 11
-3.420768 -37.6467 0.461375 11
nan nan nan 0
0.8146953 -4.23353 -1.115869 10
1.208255 -6.530339 -0.9172201 25
1.454798 -8.255097 -0.7900838 39
1.8548 -10.30762 -0.6692224 62
0.8509966 -9.668951 -0.6759402 40
-0.0438018 -9.368239 -0.7046822 30
-0.8617908 -9.008439 -0.7360066 33
2.748454 -14.70254 -0.6069786 23
nan nan nan 0
-0.0002966458 -11.80878 -0.6167792 15
-1.01583 -11.19968 -0.6520237 17
3.720774 -20.30334 -0.3596068 10
1.565345 -17.52543 -0.4075815 10
-0.04669404 -16.35793 -0.4757573 12
-1.420426 -15.16916 -0.5253425 12
-0.4819296 -5.395414 -0.9752771 19
-0.7202707 -7.442875 -0.8369414 17
-4.160295 -43.18471 1.740917 12
8.833332 -48.78251 2.882264 10
-4.572759 -44.91843 3.669171 64
8.275497 -46.96324 5.850338 12
-0.9137199 -9.004853 1.642547 105
1.746257 -10.11922 2.740894 8
6.47819 -35.46721 0.2074304 32
2.648731 -30.48005 0 18
-0.1166138 -25.12932 -0.1313703 24
-1.982496 -20.60805 -0.2416449 8
8.96458 -48.9234 1.466332 11
2.712919 -30.72207 0.7151245 29
-0.1228684 -44.60825 0.7623838 10
-3.559687 -37.71417 0.4623524 9
nan nan nan 0
0.7972005 -4.222091 -1.112077 7
1.185453 -6.534517 -0.9172201 27
1.421724 -8.235601 -0.7877266 36
1.830106 -10.37791 -0.673383 85
0.8193447 -9.696713 -0.6776841 35
-0.07616863 -9.328144 -0.7016692 36
-0.8932309 -9.005376 -0.7360066 31
2.698921 -14.72187 -0.6073852 28
nan nan nan 0
-0.04080325 -11.61397 -0.6065737 18
-1.030917 -10.94263 -0.6372116 19
3.641912 -20.27192 -0.3588215 9
1.50416 -17.53079 -0.4075815 9
-0.1038259 -16.36266 -0.4759031 12
-1.471427 -15.14422 -0.5246515 13
-0.5003006 -5.388802 -0.9743848 21
-0.7462468 -7.440316 -0.8369414 17
nan nan nan 0
8.649904 -48.73932 2.877908 11
-4.727958 -44.88733 3.667955 15
8.094621 -46.89404 5.838151 12
-0.9482475 -9.030959 1.647926 97
1.672183 -9.896688 2.678777 36
6.354347 -35.4896 0.2074304 35
2.531093 -30.35458 0 17
-0.2054791 -25.26875 -0.1321034 24
-2.051435 -20.57115 -0.2412941 9
8.784909 -48.90521 1.464857 11
2.601013 -30.67657 0.7138479 32
-0.2781711 -44.54255 0.761272 9
-3.680091 -37.58707 0.4609475 16
nan nan nan 0
0.7744711 -4.182048 -1.100704 10
1.161765 -6.53374 -0.916532 28
1.391302 -8.2307 -0.7867839 39
1.79898 -10.41374 -0.6753033 75
0.7887198 -9.739286 -0.6804744 33
-0.1083745 -9.29791 -0.6994094 32
-0.9246601 -9.002203 -0.7360066 32
2.649286 -14.74104 -0.6077917 24
0.9982746 -11.61949 -0.5419981 22
-0.08137906 -11.61875 -0.6068354 17
-1.069108 -10.93897 -0.6372116 16
3.552897 -20.18112 -0.356989 10
1.442546 -17.53095 -0.4074655 9
-0.1609416 -16.3622 -0.4759031 11
-1.493636 -14.83571 -0.5141135 29
-0.519108 -5.387022 -0.9743848 19
-0.7716971 -7.432725 -0.8363823 18
-4.643781 -44.91379 1.81195 84
8.465173 -48.68562 2.872971 10
-4.880296 -44.83092 3.664712 7
7.914329 -46.82415 5.825964 12
nan nan nan 0
1.628932 -9.850057 2.664542 42
6.213131 -35.41308 0.2068544 43
2.452211 -30.70215 0 20
-0.2946177 -25.34787 -0.1325222 26
-2.119625 -20.52906 -0.2408849 9
8.600273 -48.85682 1.462498 12
2.494726 -30.69542 0.71408 33
-0.4326259 -44.43633 0.7594761 9
-3.810262 -37.56404 0.4608252 11
nan nan nan 0
0.7581267 -4.175209 -1.098176 10
1.138951 -6.537755 -0.916532 27
1.359301 -8.215863 -0.7848982 38
1.751767 -10.356 -0.6711426 99
nan nan nan 0
-0.1405233 -9.277533 -0.6979028 32
-0.9566075 -9.003875 -0.7364137 25
2.594341 -14.73052 -0.6069786 18
nan nan nan 0
-0.1058285 -10.10556 -0.5275464 10
-1.121939 -11.07918 -0.6456342 17
3.469666 -20.1195 -0.35568 11
1.382522 -17.55083 -0.4078136 9
-0.2179882 -16.35654 -0.4757573 12
-1.546453 -14.84035 -0.514459 17
-0.537909 -5.385178 -0.9743848 20
-0.7976374 -7.429986 -0.8363823 17
-4.804253 -44.93207 1.813355 11
8.281762 -48.63614 2.868324 11
-5.032854 -44.77894 3.661875 8
7.734623 -46.75356 5.813776 12
-1.062503 -9.478705 1.731309 34
1.603051 -9.908121 2.678777 38
6.103887 -35.51832 0.207344 38
2.380076 -31.16919 0 24
-0.3834761 -25.37168 -0.1326531 17
-2.188079 -20.4917 -0.2405341 8
8.41693 -48.81267 1.460286 12
2.394157 -30.78867 0.7160529 21
-0.5865414 -44.34457 0.7579368 10
-3.946065 -37.59527 0.461375 17
nan nan nan 0
0.7409853 -4.163544 -1.094385 12
1.115286 -6.53681 -0.9158439 29
1.336203 -8.254951 -0.7881981 38
1.755666 -10.60324 -0.686825 89
0.7166517 -9.68984 -0.6766378 30
-0.1716854 -9.212183 -0.6930066 32
-0.9858437 -8.980668 -0.7347853 32
2.540352 -14.72472 -0.6063688 23
1.011598 -12.82114 -0.5978982 31
-0.1407499 -10.08017 -0.526238 11
-1.161651 -11.08512 -0.6462151 17
3.391078 -20.0822 -0.3548074 11
1.319372 -17.53062 -0.4072334 11
-0.2749126 -16.34569 -0.475466 12
nan nan nan 0
-0.5567036 -5.383267 -0.9743848 20
-0.8235681 -7.427156 -0.8363823 17
-4.957772 -44.88524 1.812151 7
8.097979 -48.58105 2.863386 11
-5.185684 -44.7314 3.659443 9
7.555507 -46.6823 5.80159 12
-1.092744 -9.450508 1.726826 38
1.57527 -9.956585 2.690424 46
5.988172 -35.58871 0.2076319 38
2.27126 -31.17731 0 24
nan nan nan 0
-2.25465 -20.43922 -0.2400078 10
8.233169 -48.76291 1.457927 12
2.29445 -30.90152 0.7184901 31
-0.7419993 -44.38224 0.758621 7
-4.072413 -37.53653 0.4608252 19
nan nan nan 0
0.7264473 -4.166105 -1.094385 14
1.092461 -6.540663 -0.9158439 25
1.315192 -8.308725 -0.7929122 36
1.73305 -10.69796 -0.6925859 49
nan nan nan 0
-0.2037295 -9.206543 -0.69263 30
-1.016058 -8.967269 -0.7339711 33
2.486436 -14.71872 -0.605759 27
0.8573557 -11.37531 -0.5301194 10
nan nan nan 0
-1.214377 -11.21002 -0.6537664 15
3.312792 -20.04459 -0.3539348 10
1.257096 -17.52016 -0.4068852 8
-0.3318659 -16.33963 -0.4753202 12
nan nan nan 0
-0.5754913 -5.381291 -0.9743848 21
-0.8494887 -7.424236 -0.8363823 17
-5.108756 -44.81802 1.810144 9
7.916287 -48.53513 2.85903 15
-5.338243 -44.68334 3.657011 11
7.376982 -46.61036 5.789402 12
-1.12631 -9.45152 1.727723 36
1.536062 -9.933389 2.682659 47
5.837885 -35.45153 0.2067104 35
2.152032 -31.0354 0 29
-0.5611472 -25.39338 -0.132784 14
-2.325415 -20.42625 -0.2399494 10
8.049858 -48.71245 1.455567 13
2.186216 -30.90435 0.718374 33
-0.807754 -39.97593 0.6832805 13
-4.205088 -37.53699 0.4610085 18
nan nan nan 0
0.7110796 -4.163848 -1.093122 10
1.06882 -6.53955 -0.9151558 26
1.27854 -8.264077 -0.7881981 38
1.676901 -10.58567 -0.6849048 75
0.6453125 -9.639863 -0.6728011 32
-0.2367665 -9.240664 -0.6952664 31
-1.043283 -8.929022 -0.7311215 35
2.432592 -14.71252 -0.6051491 27
0.847068 -11.78673 -0.5492186 11
-0.2474956 -11.80119 -0.6165175 15
-1.249599 -11.17099 -0.6517333 21
3.233212 -19.99681 -0.3528876 10
1.194909 -17.50948 -0.406537 9
-0.3886609 -16.32838 -0.4750288 12
-1.680047 -14.6347 -0.5078944 21
-0.594272 -5.37925 -0.9743848 20
-0.8748131 -7.416291 -0.8358232 17
-5.263418 -44.78503 1.809543 10
7.734231 -48.4836 2.854383 8
-5.49114 -44.6397 3.654984 10
7.199052 -46.53773 5.777216 13
-1.16953 -9.530523 1.742965 36
1.496312 -9.905266 2.673601 26
5.741959 -35.64445 0.2077183 32
2.051904 -31.16746 0 21
nan nan nan 0
-2.396118 -20.41305 -0.2398909 9
7.867798 -48.66625 1.453355 13
2.078326 -30.91179 0.718374 30
nan nan nan 0
-4.315977 -37.34826 0.4588705 18
nan nan nan 0
0.6933237 -4.147223 -1.088067 10
1.045987 -6.543241 -0.9151558 29
1.248192 -8.258648 -0.7872552 40
1.571771 -10.15264 -0.6564204 112
0.604376 -9.527569 -0.6647791 35
-0.2688748 -9.234798 -0.6948898 28
-1.074445 -8.925325 -0.7311215 33
2.380422 -14.71599 -0.6049459 20
0.7943103 -11.62019 -0.5412994 15
-0.2928653 -11.96997 -0.6254147 15
-1.277668 -11.07235 -0.6462151 18
3.154788 -19.95366 -0.3519278 10
1.132812 -17.49858 -0.4061889 10
-0.4463399 -16.3519 -0.4757573 11
-1.746437 -14.75777 -0.512386 27
-0.6130455 -5.377142 -0.9743848 20
-0.9006955 -7.413192 -0.8358232 19
-5.416108 -44.73662 1.808339 10
7.554939 -48.44619 2.850607 10
-5.643795 -44.59554 3.652957 11
7.023203 -46.47425 5.766248 13
-1.20279 -9.526383 1.742965 32
1.500622 -10.17319 2.744776 18
5.626847 -35.72355 0.2080639 31
nan nan nan 0
nan nan nan 0
-2.466155 -20.39463 -0.239774 8
7.684597 -48.6095 1.450848 13
1.975185 -30.99369 0.7201149 25
-1.195696 -43.96725 0.7516941 9
-4.448689 -37.35283 0.4591149 15
nan nan nan 0
nan nan nan 0
1.022371 -6.54196 -0.9144678 27
1.217897 -8.253107 -0.7863125 38
1.548302 -10.237 -0.6615412 104
0.573509 -9.569451 -0.6675694 35
-0.2986552 -9.159057 -0.6892403 37
-1.093891 -8.827563 -0.7233871 41
2.328257 -14.71928 -0.6047426 27
nan nan nan 0
-0.3286141 -11.75426 -0.6141624 16
-1.321637 -11.11243 -0.648829 18
3.077469 -19.91515 -0.3510551 10
1.070805 -17.48746 -0.4058407 9
-0.5027985 -16.33026 -0.4751745 12
-1.773685 -14.55318 -0.5054759 23
-0.6318114 -5.37497 -0.9743848 19
-0.9265668 -7.410003 -0.8358232 18
-5.569762 -44.69762 1.807536 10
7.370735 -48.37358 2.844799 10
-5.796855 -44.5558 3.651336 10
6.847885 -46.41012 5.75528 13
-1.241125 -9.561149 1.750137 38
1.466483 -10.18793 2.747364 36
5.476224 -35.57496 0.2070848 27
nan nan nan 0
nan nan nan 0
-2.536093 -20.37597 -0.239657 8
7.507234 -48.58664 1.449374 12
1.891651 -31.40954 0.7296313 26
-1.346399 -43.87286 0.7501548 9
-4.540661 -37.02444 0.4552665 14
nan nan nan 0
0.6651248 -4.156739 -1.08933 10
0.9987776 -6.540594 -0.9137797 24
1.18623 -8.237602 -0.7844268 37
1.509632 -10.2226 -0.660261 95
0.5451763 -9.661032 -0.6738475 33
-0.3349674 -9.277539 -0.6982795 31
-1.137995 -8.927494 -0.7319357 36
2.276097 -14.72238 -0.6045393 23
0.7229802 -11.78498 -0.5487527 7
-0.3668033 -11.6632 -0.6094522 12
-1.373821 -11.21674 -0.6552185 20
2.99971 -19.8714 -0.3500952 10
1.00889 -17.47612 -0.4054925 9
nan nan nan 0
-1.81699 -14.4874 -0.5034028 23
-0.6505698 -5.372731 -0.9743848 21
-0.952427 -7.406723 -0.8358232 17
-5.722573 -44.65312 1.806533 11
7.191541 -48.32989 2.840732 10
-5.949044 -44.51059 3.64931 10
6.67381 -46.35023 5.744921 12
-1.266655 -9.498253 1.739378 38
1.425521 -10.15473 2.737011 41
5.337871 -35.49992 0.2065376 29
1.69804 -30.69299 0 16
-0.3651713 -10.15323 -0.05298796 17
-2.606567 -20.36204 -0.2395986 10
7.31818 -48.48406 1.44554 13
1.783133 -31.43592 0.7300955 17
nan nan nan 0
-4.66674 -36.98356 0.4549611 21
nan nan nan 0
0.6460854 -4.130364 -1.081748 13
0.9759405 -6.544041 -0.9137797 29
1.158164 -8.246621 -0.7848982 36
1.503939 -10.43521 -0.6737031 81
0.5156819 -9.742569 -0.679428 31
-0.3679451 -9.291259 -0.6994094 30
-1.163947 -8.883942 -0.7286791 36
2.223945 -14.72529 -0.604336 30
0.7538612 -13.02899 -0.6067491 32
-0.3526978 -10.09996 -0.5275464 14
-1.415472 -11.23169 -0.6563803 23
2.925216 -19.84713 -0.3494844 9
0.9473386 -17.46956 -0.4052604 9
-0.3825098 -10.14342 -0.2947801 26
-1.853448 -14.37194 -0.4996023 26
-0.6693201 -5.370428 -0.9743848 18
-0.9782754 -7.403354 -0.8358232 18
-5.875142 -44.60811 1.805529 10
7.014897 -48.30037 2.837538 9
-6.100989 -44.46487 3.647283 11
6.499544 -46.28479 5.733953 12
-1.293771 -9.449916 1.731309 38
1.394666 -10.19314 2.74607 42
5.241544 -35.70631 0.2076319 30
1.59685 -30.81358 0 16
-0.4000163 -10.1369 -0.05290942 32
-2.676321 -20.3429 -0.2394816 8
7.136498 -48.42525 1.443033 14
nan nan nan 0
nan nan nan 0
-4.793233 -36.94721 0.4547167 20
nan nan nan 0
0.6360894 -4.161281 -1.08933 11
0.9523742 -6.542507 -0.9130916 27
1.130049 -8.255547 -0.7853696 38
1.470989 -10.4651 -0.6753033 82
0.4757397 -9.624749 -0.6710572 38
nan nan nan 0
-1.204967 -8.953901 -0.7347853 36
2.17253 -14.73297 -0.604336 26
nan nan nan 0
-0.3889139 -10.12361 -0.5288548 15
-1.445013 -11.15243 -0.6520237 24
2.850928 -19.82258 -0.3488736 10
0.8850838 -17.4478 -0.4046802 8
-0.4170879 -10.12205 -0.2941973 27
-1.913478 -14.43969 -0.5021936 24
-0.6880623 -5.368059 -0.9743848 19
-1.004112 -7.399894 -0.8358232 18
-6.028136 -44.56753 1.804727 9
4.497411 -31.75854 1.864004 14
-6.253382 -44.42356 3.645661 11
6.32649 -46.22361 5.723594 13
-1.329498 -9.464825 1.734895 38
1.359717 -10.20273 2.747364 41
5.12823 -35.80358 0.2080927 30
1.497255 -30.98377 0 14
-0.4341054 -10.10547 -0.05275233 35
-2.746644 -20.32849 -0.2394232 9
6.961723 -48.4103 1.441854 11
nan nan nan 0
nan nan nan 0
-4.906965 -36.81628 0.4533118 23
nan nan nan 0
0.6222809 -4.16826 -1.090594 8
0.9295308 -6.545792 -0.9130916 30
1.102546 -8.269307 -0.7863125 34
1.456203 -10.62836 -0.6855449 73
0.446735 -9.726001 -0.6780329 26
nan nan nan 0
-1.238269 -8.964449 -0.7360066 32
2.120376 -14.73551 -0.6041328 26
nan nan nan 0
-0.4213101 -10.05235 -0.5251913 15
-1.473357 -11.06816 -0.6473768 25
2.777542 -19.80271 -0.34835 10
0.8234652 -17.4358 -0.404332 9
-0.4530902 -10.13551 -0.2946344 28
-1.965897 -14.44777 -0.5027118 34
-0.7067962 -5.365624 -0.9743848 20
-1.029936 -7.396344 -0.8358232 17
-6.18092 -44.52642 1.803924 11
4.364654 -31.61582 1.85471 19
-6.404848 -44.3768 3.643635 10
6.15263 -46.15195 5.712016 13
-1.367457 -9.494205 1.741171 35
1.327213 -10.23136 2.753834 31
5.026762 -35.98962 0.2090718 33
1.398284 -31.1936 0 17
-0.4696103 -10.10889 -0.05277852 29
-2.817587 -20.31877 -0.2394232 9
4.489075 -32.0224 0.9528796 15
2.176761 -47.07193 1.093112 14
nan nan nan 0
-5.036805 -36.80883 0.453434 21
nan nan nan 0
0.6119522 -4.199123 -1.098176 9
0.9059927 -6.544091 -0.9124035 29
1.073674 -8.273107 -0.7863125 37
1.397231 -10.47017 -0.6749833 77
0.4106587 -9.677669 -0.674545 33
-0.4652209 -9.286897 -0.6994094 31
-1.266745 -8.940337 -0.7343782 31
2.06823 -14.73788 -0.6039295 30
0.5716387 -12.07331 -0.5617961 9
-0.4554873 -10.03087 -0.5241445 14
-1.511304 -11.058 -0.6470863 20
2.703651 -19.77761 -0.3477392 10
0.7608466 -17.39862 -0.4034036 9
-0.4889501 -10.14385 -0.2949259 15
nan nan nan 0
-0.7255214 -5.363124 -0.9743848 20
-1.055748 -7.392704 -0.8358232 18
-6.333489 -44.48479 1.803121 11
4.211631 -31.31427 1.836122 43
-6.556795 -44.33446 3.642013 12
5.980627 -46.08948 5.701657 12
-1.404917 -9.518568 1.746551 38
1.294526 -10.25989 2.760305 43
4.269877 -31.37484 0.1821459 19
nan nan nan 0
nan nan nan 0
-2.889201 -20.31376 -0.2394816 10
4.354914 -31.87447 0.9480135 32
2.010086 -47.02431 1.091836 14
-0.4828809 -10.05188 0.1714615 18
-5.149258 -36.67715 0.452029 18
nan nan nan 0
0.5938534 -4.17729 -1.091858 10
0.8831441 -6.547214 -0.9124035 28
1.045416 -8.281741 -0.7867839 41
1.345834 -10.36119 -0.6676221 73
nan nan nan 0
-0.4957602 -9.250365 -0.696773 31
-1.296506 -8.925999 -0.7335641 32
2.016773 -14.74501 -0.6039295 25
0.5134606 -11.71097 -0.5447931 7
-0.4956392 -10.13395 -0.5296398 11
-1.553373 -11.07737 -0.6485385 19
2.630631 -19.7572 -0.3472156 9
0.7011169 -17.42614 -0.4039838 10
-0.847791 -16.37605 -0.4769231 8
-2.097959 -14.65134 -0.510313 31
-0.7442378 -5.360559 -0.9743848 23
-1.081547 -7.388973 -0.8358232 17
-6.487287 -44.45253 1.80272 10
4.040649 -30.8586 1.808531 45
-6.707775 -44.28666 3.639987 10
5.808512 -46.02145 5.690689 13
-1.440349 -9.528196 1.749241 16
1.261065 -10.28351 2.765481 39
4.079422 -30.77991 0.1786038 22
nan nan nan 0
nan nan nan 0
-2.960814 -20.3085 -0.2395401 8
4.224481 -31.74581 0.9437372 29
1.844751 -47.00106 1.091139 13
-1.256808 -24.33895 0.416211 9
-5.264418 -36.56988 0.4509295 21
nan nan nan 0
0.5785976 -4.174548 -1.090594 8
0.8602846 -6.550256 -0.9124035 26
1.01711 -8.290279 -0.7872552 39
nan nan nan 0
nan nan nan 0
-0.5294734 -9.273466 -0.6986561 33
-1.326182 -8.911561 -0.7327499 30
1.96463 -14.74701 -0.6037262 26
0.539299 -13.35955 -0.6216558 17
-0.527864 -10.07232 -0.5264997 11
-1.606286 -11.17069 -0.6543472 18
2.557786 -19.73652 -0.346692 10
0.6404681 -17.43348 -0.4040999 9
-0.9032905 -16.34304 -0.4760488 10
-2.148361 -14.63898 -0.5101402 35
-0.7629451 -5.357929 -0.9743848 18
-1.107333 -7.385153 -0.8358232 18
-6.637241 -44.39502 1.801315 11
3.931644 -30.86262 1.80795 36
-6.858504 -44.23836 3.63796 10
5.636945 -45.95278 5.67972 13
-1.47662 -9.542553 1.752827 40
1.228029 -10.31183 2.771952 39
3.969393 -30.77413 0.1784886 33
nan nan nan 0
nan nan nan 0
-3.031686 -20.29804 -0.2395401 9
nan nan nan 0
1.677993 -46.93229 1.089399 13
nan nan nan 0
-5.400803 -36.61063 0.4516625 18
nan nan nan 0
0.5620601 -4.162162 -1.086803 8
0.8374148 -6.55322 -0.9124035 28
0.9881653 -8.293778 -0.7872552 36
1.275299 -10.38518 -0.6685823 63
nan nan nan 0
-0.5627484 -9.286492 -0.6997861 33
-1.357281 -8.906878 -0.7327499 29
1.912497 -14.74882 -0.6035229 28
nan nan nan 0
-0.5616217 -10.04549 -0.5251913 12
-1.640889 -11.13539 -0.6526046 25
2.485118 -19.71556 -0.3461685 10
0.5797765 -17.4406 -0.404216 9
-0.9603329 -16.33979 -0.4760488 11
-2.194235 -14.5968 -0.5089309 40
-0.7816431 -5.355233 -0.9743848 19
-1.133105 -7.381243 -0.8358232 17
-6.786871 -44.33701 1.799911 11
3.817746 -30.82662 1.805046 33
-7.008976 -44.18953 3.635933 12
5.466517 -45.88841 5.669362 14
-1.5022 -9.48876 1.743861 11
1.195924 -10.34964 2.781011 35
3.862571 -30.79276 0.1785174 33
nan nan nan 0
nan nan nan 0
-3.103278 -20.29228 -0.2395986 8
3.860757 -30.64894 0.910264 24
1.512222 -46.87791 1.088006 13
nan nan nan 0
-5.536788 -36.64594 0.4523344 25
nan nan nan 0
0.5462533 -4.154508 -1.084275 10
0.8145346 -6.556102 -0.9124035 27
0.9592086 -8.297177 -0.7872552 41
1.240227 -10.39948 -0.6692224 63
nan nan nan 0
-0.598681 -9.339202 -0.7039291 33
-1.389135 -8.907008 -0.733157 32
1.861002 -14.75541 -0.6035229 23
0.4411665 -13.21823 -0.6149012 36
-0.6044055 -10.17306 -0.531995 8
-1.673771 -11.09011 -0.6502811 20
2.414454 -19.70923 -0.3459067 10
0.5190431 -17.44752 -0.404332 9
-1.016119 -16.31639 -0.475466 12
nan nan nan 0
-0.8003316 -5.352472 -0.9743848 18
-1.158863 -7.377243 -0.8358232 17
-6.939274 -44.29824 1.799309 11
3.720865 -30.92896 1.810274 35
-7.155199 -44.11561 3.63188 61
5.297176 -45.82833 5.659612 13
-1.529001 -9.444617 1.736688 27
1.17329 -10.47373 2.813363 44
3.721737 -30.53308 0.1769335 33
nan nan nan 0
nan nan nan 0
-3.174092 -20.28132 -0.2395986 9
3.742801 -30.57294 0.9076098 24
1.345988 -46.79296 1.085917 15
-1.664029 -26.77435 0.4581999 9
-5.669262 -36.65603 0.452701 30
nan nan nan 0
0.5323687 -4.161187 -1.085539 10
0.7916446 -6.558906 -0.9124035 31
0.9291254 -8.290584 -0.7863125 42
1.20219 -10.38888 -0.6682622 62
0.239316 -9.588623 -0.6679182 25
-0.6349884 -9.391772 -0.7080719 29
-1.420218 -8.902105 -0.733157 34
1.810094 -14.76677 -0.6037262 26
0.3915755 -13.10487 -0.6095441 30
nan nan nan 0
-1.713237 -11.08913 -0.6505716 17
2.346234 -19.72251 -0.3459939 9
0.4582685 -17.45422 -0.4044481 8
-1.073725 -16.32272 -0.4757573 10
-2.316343 -14.70946 -0.5134225 25
-0.8190104 -5.349645 -0.9743848 21
-1.183816 -7.368248 -0.8352641 18
-7.083578 -44.20963 1.7967 44
3.575195 -30.6195 1.791395 38
-7.318935 -44.14937 3.636744 7
5.126663 -45.75283 5.648034 13
-1.558736 -9.419812 1.733102 36
1.139339 -10.50177 2.819833 36
3.611603 -30.5161 0.1767607 27
nan nan nan 0
nan nan nan 0
-3.244076 -20.26518 -0.2395401 9
3.635468 -30.58085 0.9074622 35
1.182009 -46.77239 1.085337 14
-1.764692 -26.87813 0.4600812 7
-5.78936 -36.58664 0.4520901 30
nan nan nan 0
0.5208591 -4.187018 -1.091858 9
0.7687449 -6.561629 -0.9124035 28
0.9039614 -8.328414 -0.7896123 40
1.159772 -10.33847 -0.6647417 80
0.2040091 -9.504626 -0.6619889 28
-0.6702511 -9.424311 -0.7107084 29
-1.451283 -8.897094 -0.733157 31
1.757353 -14.76308 -0.6033196 25
0.3419865 -12.96136 -0.6027895 30
-0.6754116 -10.16859 -0.531995 8
-1.752717 -11.08802 -0.650862 18
2.267607 -19.64615 -0.3445105 9
0.3971106 -17.44571 -0.404216 9
-1.130695 -16.31887 -0.4757573 11
-2.324671 -14.4349 -0.5040938 30
-0.8376791 -5.346754 -0.9743848 18
-1.210338 -7.368973 -0.8358232 19
-7.24513 -44.229 1.798506 33
3.455355 -30.51772 1.784715 31
-7.469669 -44.10389 3.635123 8
4.958349 -45.69152 5.638285 13
-1.587493 -9.390065 1.728619 37
1.100649 -10.48647 2.814657 12
3.556469 -30.97556 0.1793525 34
nan nan nan 0
nan nan nan 0
-3.314795 -20.25373 -0.2395401 10
3.517801 -30.49903 0.9046606 37
1.017755 -46.73125 1.084292 16
nan nan nan 0
-5.853888 -36.17632 0.4472644 24
nan nan nan 0
0.5080017 -4.203218 -1.095649 9
0.7452728 -6.559353 -0.9117154 27
0.8774989 -8.35627 -0.7919694 37
1.143712 -10.52599 -0.6765835 90
0.1718264 -9.560139 -0.6658255 26
-0.6997951 -9.377166 -0.7073187 27
-1.482331 -8.891973 -0.733157 33
1.702359 -14.73935 -0.6021 23
0.2997323 -13.0923 -0.6088454 29
-0.7067124 -10.1064 -0.5288548 10
-1.792209 -11.08676 -0.6511524 25
2.192885 -19.5993 -0.3435506 9
0.3360176 -17.437 -0.4039838 9
-1.187288 -16.30984 -0.4756117 12
-2.379112 -14.45135 -0.5049576 29
-0.8563376 -5.343797 -0.9743848 20
-1.236053 -7.364703 -0.8358232 17
nan nan nan 0
3.361346 -30.64372 1.791395 36
-6.545826 -37.85101 3.121147 6
4.789488 -45.61971 5.627316 13
-6.514563 -37.63126 6.953927 34
nan nan nan 0
3.41509 -30.68964 0.1776247 45
nan nan nan 0
-1.79704 -24.09267 -0.1262914 8
-3.385473 -20.24204 -0.2395401 9
3.401306 -30.42172 0.9020063 38
0.853893 -46.69454 1.083364 16
nan nan nan 0
-5.958083 -36.02248 0.4456151 23
nan nan nan 0
0.4961782 -4.228985 -1.101968 7
0.7223718 -6.561914 -0.9117154 24
0.8498416 -8.374139 -0.7933836 35
1.120067 -10.65397 -0.6845847 57
0.1390392 -9.600579 -0.6686158 29
-0.7325233 -9.374666 -0.7073187 28
-1.510002 -8.867096 -0.7315286 31
1.646437 -14.70548 -0.6004738 30
0.2528583 -13.03335 -0.6060503 33
nan nan nan 0
-1.839059 -11.12968 -0.6540567 19
2.119599 -19.5621 -0.3427652 10
0.2749903 -17.42807 -0.4037518 9
-1.243832 -16.30061 -0.475466 11
-2.446989 -14.54643 -0.5085854 34
-0.8749858 -5.340775 -0.9743848 19
-1.261753 -7.360343 -0.8358232 17
-7.545301 -44.1281 1.7965 8
3.246441 -30.58081 1.787039 36
-6.676176 -37.81811 3.120336 44
3.19839 -31.54008 3.887632 13
-6.651021 -37.63736 6.959306 43
1.03167 -10.53716 2.826304 14
3.262875 -30.28381 0.1752057 21
nan nan nan 0
-1.877232 -24.03641 -0.1260297 9
-3.456954 -20.23503 -0.2395986 9
3.289705 -30.38372 0.9005317 36
0.690226 -46.65225 1.082319 16
-2.994684 -39.30024 0.6735315 20
-6.102132 -36.10992 0.446959 21
nan nan nan 0
0.4819667 -4.235496 -1.103231 9
0.699462 -6.564396 -0.9117154 27
0.8191401 -8.362193 -0.7919694 39
1.078816 -10.6181 -0.6820243 62
0.1069189 -9.725692 -0.6773353 26
-0.7636154 -9.352178 -0.7058122 28
-1.538375 -8.847044 -0.7303075 31
1.595095 -14.71114 -0.6004738 27
nan nan nan 0
nan nan nan 0
-1.867898 -11.06413 -0.6505716 29
2.045553 -19.51469 -0.3418053 10
0.2140294 -17.41893 -0.4035197 10
-1.300326 -16.29119 -0.4753202 11
-2.501142 -14.5575 -0.5092764 26
-0.8936232 -5.337689 -0.9743848 19
-1.286577 -7.351001 -0.8352641 17
-6.615928 -37.9005 1.543669 36
3.132017 -30.51748 1.782682 32
-7.92138 -43.9693 3.630664 7
4.459266 -45.53349 5.612692 11
-6.777991 -37.58971 6.954823 46
0.995338 -10.5455 2.827598 8
3.20387 -30.74257 0.1777975 11
nan nan nan 0
-1.955424 -23.95994 -0.1256631 9
-3.529288 -20.23269 -0.2397155 9
3.191449 -30.46957 0.9027436 37
0.5267513 -46.5994 1.081043 20
nan nan nan 0
-6.305582 -36.53673 0.4525177 26
nan nan nan 0
0.4682526 -4.246769 -1.105759 8
0.6765438 -6.566798 -0.9117154 27
0.7875905 -8.340224 -0.7896123 39
1.024612 -10.448 -0.6708226 75
0.07258619 -9.676129 -0.6738475 26
-0.7983766 -9.374291 -0.7076953 26
-1.567499 -8.831808 -0.7294933 27
1.539026 -14.6719 -0.5986443 39
nan nan nan 0
nan nan nan 0
-1.900555 -11.02312 -0.6485385 18
1.97338 -19.48193 -0.3411073 9
0.1530467 -17.39957 -0.4030554 10
-1.357185 -16.28655 -0.4753202 12
-2.525122 -14.39611 -0.5039211 29
-0.9122497 -5.334537 -0.9743848 22
-1.312229 -7.346465 -0.8352641 17
-6.756078 -37.92143 1.545475 11
3.028924 -30.56299 1.784715 37
-8.070307 -43.91688 3.628637 8
nan nan nan 0
-6.898476 -37.50777 6.944064 36
0.9611576 -10.57777 2.835363 10
3.090517 -30.69387 0.1774519 25
nan nan nan 0
-2.034378 -23.89817 -0.1253752 9
-3.601647 -20.23009 -0.2398324 9
3.078012 -30.41092 0.9006792 38
0.3636933 -46.55096 1.079882 18
-3.573061 -42.9302 0.7362155 7
nan nan nan 0
nan nan nan 0
0.4549855 -4.262806 -1.10955 7
0.6531228 -6.564191 -0.9110273 27
0.7562041 -8.318136 -0.7872552 40
0.9810532 -10.377 -0.6660219 69
0.03876797 -9.666348 -0.6731499 26
-0.8315355 -9.376415 -0.7080719 30
-1.592081 -8.791961 -0.7266437 33
1.491342 -14.71198 -0.6000673 29
nan nan nan 0
nan nan nan 0
-1.939021 -11.01641 -0.6485385 18
1.899021 -19.42402 -0.3399729 12
0.09222878 -17.38501 -0.4027073 9
-1.414893 -16.29167 -0.4756117 12
-2.581535 -14.42164 -0.5051304 34
-0.9308652 -5.33132 -0.9743848 22
-1.337865 -7.341839 -0.8352641 17
-7.999834 -44.00735 1.794894 9
2.925076 -30.60319 1.786458 37
-8.219881 -43.86884 3.627016 9
2.83465 -31.20612 3.84254 9
-7.025732 -37.46412 6.940478 27
nan nan nan 0
2.94218 -30.28148 0.1750041 28
nan nan nan 0
-2.113809 -23.8461 -0.1251395 9
-3.672241 -20.2174 -0.2398324 9
2.972813 -30.43142 0.9009741 30
0.2009797 -46.50197 1.078722 26
-3.71641 -42.84275 0.7349327 9
-6.490558 -36.10309 0.447692 19
nan nan nan 0
0.03355401 -0.3767352 -0.08846071 37
0.6302055 -6.566432 -0.9110273 25
0.726291 -8.31081 -0.7863125 38
0.9475537 -10.41018 -0.6679422 91
0.005004987 -9.636498 -0.6710572 25
-0.8656368 -9.38835 -0.7092019 29
-1.629118 -8.820649 -0.7294933 35
1.440467 -14.72206 -0.6002705 26
nan nan nan 0
nan nan nan 0
-1.975694 -10.99975 -0.6479577 19
1.830266 -19.42057 -0.3397983 10
0.03147603 -17.35023 -0.4018949 9
-1.472204 -16.29161 -0.4757573 11
-2.628262 -14.39288 -0.5044394 34
-0.9494693 -5.328038 -0.9743848 20
-1.363485 -7.337124 -0.8352641 18
-8.154311 -43.98407 1.795095 9
2.81594 -30.58836 1.785006 33
-8.369221 -43.82031 3.625394 10
2.7456 -31.44324 3.87057 12
-7.142599 -37.3669 6.927029 23
nan nan nan 0
2.832256 -30.24676 0.1747449 32
nan nan nan 0
-2.192443 -23.78879 -0.1248777 9
-3.74279 -20.20445 -0.2398324 9
2.894268 -30.73518 0.9096742 32
0.03861272 -46.4524 1.077561 27
-3.86234 -42.7897 0.7342486 9
nan nan nan 0
nan nan nan 0
0.03418418 -0.3961026 -0.0935156 37
0.6068205 -6.56366 -0.9103392 29
0.6972764 -8.313294 -0.7863125 37
0.9138345 -10.44325 -0.6698625 78
-0.02850734 -9.591566 -0.6679182 31
-0.9007835 -9.410085 -0.711085 27
-1.653421 -8.780632 -0.7266437 29
1.38954 -14.73198 -0.6004738 14
nan nan nan 0
nan nan nan 0
-2.014078 -10.99279 -0.6479577 21
1.759293 -19.39199 -0.3391875 9
-0.0291663 -17.40022 -0.4030554 9
-1.529998 -16.29632 -0.4760488 11
-2.673904 -14.35905 -0.5035756 32
-0.9671772 -5.319852 -0.9734926 23
-1.38816 -7.327439 -0.8347051 17
-8.301295 -43.92097 1.79369 12
2.71312 -30.64275 1.78762 38
-8.520226 -43.78104 3.624583 11
3.798998 -45.30449 5.57735 8
-7.256051 -37.25483 6.910891 27
nan nan nan 0
2.744645 -30.45565 0.1758968 37
nan nan nan 0
-2.271178 -23.73619 -0.1246421 9
-3.812365 -20.18635 -0.239774 9
2.757126 -30.41659 0.8999419 30
-0.123432 -46.41226 1.076633 30
-4.009813 -42.75604 0.7339066 11
nan nan nan 0
nan nan nan 0
0.03280132 -0.3962195 -0.0935156 40
0.5839053 -6.565738 -0.9103392 26
0.6678516 -8.310716 -0.785841 37
0.8685524 -10.34196 -0.6631414 83
-0.06211334 -9.611359 -0.6693133 25
-0.9301712 -9.372154 -0.7084486 31
-1.699139 -8.853103 -0.733157 32
1.338561 -14.74171 -0.6006771 28
nan nan nan 0
-1.129018 -11.94027 -0.6264613 13
-2.053357 -10.9906 -0.6482481 18
1.689413 -19.37311 -0.3387512 9
-0.08985364 -17.39002 -0.4028233 8
-1.586874 -16.29088 -0.4760488 12
-2.717474 -14.31527 -0.5023663 36
-0.985741 -5.316443 -0.9734926 22
-1.413729 -7.322549 -0.8347051 18
-8.454557 -43.89173 1.79369 13
2.612073 -30.72167 1.791686 37
-8.671059 -43.74126 3.623773 10
3.631679 -45.2037 5.563335 12
-7.379344 -37.1955 6.904614 23
3.456778 -44.78817 12.02603 8
2.656907 -30.67924 0.1771351 35
-0.2204941 -29.13409 0 23
-2.349573 -23.68334 -0.1244065 9
-3.882805 -20.17292 -0.239774 8
2.656587 -30.49076 0.9018589 37
-0.2851349 -46.36156 1.075472 32
-4.151769 -42.66715 0.7326238 10
-6.757719 -35.45363 0.440484 20
nan nan nan 0
0.03232354 -0.4059645 -0.09604306 45
0.5605574 -6.562802 -0.9096511 29
0.6372997 -8.293145 -0.7839553 40
0.817947 -10.16588 -0.6516197 101
-0.09551662 -9.596122 -0.668267 25
-0.9613481 -9.353971 -0.7073187 29
-1.734828 -8.871568 -0.7351924 31
1.286658 -14.74132 -0.6004738 28
nan nan nan 0
-1.161904 -11.84681 -0.6217511 14
-2.077667 -10.90982 -0.6438916 18
1.61885 -19.34402 -0.3381404 10
-0.1506838 -17.40459 -0.4031714 10
-1.644233 -16.29022 -0.4761945 13
-2.778837 -14.36456 -0.5044394 35
-1.004293 -5.31297 -0.9734926 21
-1.43928 -7.31757 -0.8347051 18
-8.603867 -43.84234 1.792888 13
2.505225 -30.73557 1.791976 33
-8.820731 -43.69607 3.622557 10
3.465871 -45.11219 5.550539 13
-7.462346 -36.93809 6.861578 24
3.293664 -44.70845 12.00144 11
2.548141 -30.66839 0.1770199 33
-0.319056 -28.84816 0 17
-2.427627 -23.63023 -0.1241709 10
-3.951271 -20.14943 -0.239657 8
2.548469 -30.47992 0.901269 33
