# .PCD v0.7 - Point Cloud Data file format
VERSION 0.7
FIELDS x y z intensity
SIZE 4 4 4 4
TYPE F F F F
COUNT 1 1 1 1
WIDTH 1644
HEIGHT 1
VIEWPOINT 0 0 0 1 0 0 0
POINTS 1644
DATA ascii
17.28982 -30.74601 0.2029379 41
13.93295 -31.34259 0 18
9.22702 -27.2075 -0.1502198 17
nan nan nan 0
nan nan nan 0
15.74311 -35.28145 0.8960527 12
16.55722 -48.52019 0.8762923 13
11.40981 -47.13983 0.592097 9
nan nan nan 0
0.2163582 -0.3899459 -0.1061528 17
3.464202 -6.176827 -0.9784598 24
4.327957 -7.873501 -0.8471243 50
5.874266 -10.59535 -0.7745184 15
4.274366 -9.677252 -0.7369771 31
3.040944 -9.071656 -0.7197476 30
2.095322 -8.839505 -0.7388561 38
7.837956 -13.91588 -0.6482434 18
5.849836 -13.07 -0.6659101 15
4.287772 -12.59698 -0.6952832 10
2.824743 -11.66216 -0.6958792 16
11.70673 -20.95799 -0.4183342 31
8.124423 -18.32969 -0.464564 24
5.597806 -16.59902 -0.5095631 11
3.701696 -15.47864 -0.5488369 9
1.306902 -5.363276 -0.9940153 23
1.769048 -7.500402 -0.862659 21
nan nan nan 0
5.228815 -9.417191 0.6244326 18
16.73653 -72.58412 6.05543 12
11.45448 -20.84663 2.915724 26
2.296427 -9.945363 1.853245 33
16.16647 -29.63764 9.035373 28
17.25304 -30.93279 0.2037731 36
13.84966 -31.45052 0 23
9.165361 -27.3391 -0.1507696 19
5.450683 -23.05234 -0.2765498 18
nan nan nan 0
nan nan nan 0
14.47351 -42.90272 0.773843 9
11.18262 -46.91673 0.5887983 9
nan nan nan 0
0.2149957 -0.3906988 -0.1061528 20
3.437799 -6.18023 -0.9770837 27
4.324297 -7.932253 -0.8518385 49
nan nan nan 0
4.24056 -9.692113 -0.7369771 29
3.009259 -9.082215 -0.7197476 29
2.070101 -8.871034 -0.7408916 38
7.767391 -13.90391 -0.6464139 21
5.800127 -13.0812 -0.6654442 15
4.251733 -12.63553 -0.6965916 10
2.83719 -11.89532 -0.7092392 15
11.61169 -20.95938 -0.4175488 13
8.058381 -18.35336 -0.464448 26
5.542991 -16.62794 -0.5098545 10
3.646499 -15.4866 -0.5486642 9
1.28703 -5.36302 -0.9931231 20
1.741735 -7.501692 -0.8620999 22
nan nan nan 0
5.186271 -9.4179 0.6232708 18
nan nan nan 0
11.38877 -20.89956 2.917552 19
2.262784 -9.958115 1.854141 31
15.93879 -29.46452 8.965491 31
5.243546 -9.48672 0.06220319 7
13.82776 -31.70032 0 19
9.046288 -27.29974 -0.1503769 18
5.425666 -23.30985 -0.2794147 15
5.088832 -9.195882 0.3089265 41
nan nan nan 0
14.31417 -42.92453 0.7733299 14
10.96626 -46.73158 0.5859885 10
nan nan nan 0
0.2136306 -0.3914469 -0.1061528 19
3.411413 -6.183524 -0.9757075 31
4.313171 -7.977941 -0.8551383 41
5.164189 -9.471109 -0.6893854 8
4.194798 -9.679399 -0.7348844 31
2.979089 -9.097404 -0.7201242 31
2.035785 -8.863633 -0.7396703 38
7.70185 -13.90036 -0.644991 14
5.75242 -13.0968 -0.6652113 15
3.323883 -9.992195 -0.5497892 12
nan nan nan 0
nan nan nan 0
8.016201 -18.4318 -0.4657246 21
nan nan nan 0
3.592419 -15.49924 -0.5486642 9
1.268301 -5.36748 -0.9931231 19
1.713332 -7.498036 -0.8609818 20
21.70908 -94.83823 3.906027 7
5.10547 -9.348355 0.6174622 20
nan nan nan 0
nan nan nan 0
2.22801 -9.965953 1.854141 13
15.69197 -29.25188 8.883964 40
5.152663 -9.39977 0.06151204 10
12.57263 -29.10007 0 9
nan nan nan 0
nan nan nan 0
5.157793 -9.397551 0.3151197 21
20.38758 -47.00518 1.188625 16
16.25321 -49.31291 0.887495 13
10.78958 -46.71111 0.5852554 9
nan nan nan 0
0.2122629 -0.3921902 -0.1061528 22
3.387427 -6.191051 -0.9750195 27
4.282942 -7.988562 -0.8546669 41
5.074085 -9.383767 -0.6817043 8
4.180666 -9.739814 -0.7383723 32
2.947315 -9.107747 -0.7201242 31
2.010311 -8.894993 -0.7417057 35
nan nan nan 0
5.702682 -13.10764 -0.6647455 15
3.273396 -9.956301 -0.5471724 13
2.653096 -11.47709 -0.6831001 17
5.123385 -9.40843 -0.1863044 5
7.969614 -18.50099 -0.466769 24
3.234791 -9.932006 -0.3033773 9
3.538295 -15.51168 -0.5486642 9
1.249558 -5.371874 -0.9931231 19
1.686062 -7.499123 -0.8604227 26
22.45564 -99.69963 4.103075 7
5.039494 -9.304688 0.613396 29
10.66857 -48.57774 4.042088 15
11.54745 -21.54714 2.996767 29
nan nan nan 0
15.50809 -29.15299 8.837377 39
5.091136 -9.365 0.06116647 10
12.45524 -29.10701 0 34
3.198725 -9.879876 -0.05416605 21
5.137595 -22.79112 -0.2727495 17
5.0843 -9.340894 0.3126129 17
12.48848 -29.07261 0.7336932 33
3.221809 -9.886711 0.1771911 13
10.58215 -46.55347 0.582812 8
nan nan nan 0
0.2108926 -0.3929287 -0.1061528 21
3.361065 -6.194135 -0.9736432 23
4.2293 -7.955132 -0.8494815 47
5.008255 -9.339874 -0.6772236 5
nan nan nan 0
2.91854 -9.127479 -0.7208775 28
1.981407 -8.911687 -0.7425199 35
nan nan nan 0
5.656894 -13.12746 -0.6647455 15
3.213948 -9.89168 -0.5429856 16
2.600862 -11.43274 -0.6799054 16
5.04058 -9.333907 -0.1844719 6
7.906948 -18.53329 -0.4668851 22
3.19092 -9.914689 -0.302503 22
3.479757 -15.50443 -0.5479732 9
1.229705 -5.371407 -0.9922307 20
1.658806 -7.500111 -0.8598636 21
nan nan nan 0
4.969157 -9.251884 0.6087491 26
10.49788 -48.60981 4.041682 30
nan nan nan 0
nan nan nan 0
15.28001 -28.96774 8.764906 42
5.01804 -9.307918 0.06067691 8
nan nan nan 0
3.167264 -9.900506 -0.0542184 30
5.100177 -22.99928 -0.2750297 15
5.020772 -9.301428 0.310696 12
12.42215 -29.19881 0.7357821 13
3.167368 -9.836031 0.1760794 18
10.38469 -46.43399 0.5808573 10
nan nan nan 0
0.2095197 -0.3936625 -0.1061528 24
3.337073 -6.201471 -0.9729552 28
4.182914 -7.93463 -0.8457102 46
4.914657 -9.242784 -0.6689023 5
4.052549 -9.626265 -0.7275599 35
2.886661 -9.13761 -0.7208775 31
1.951349 -8.923419 -0.742927 31
nan nan nan 0
5.603191 -13.12876 -0.6638138 15
3.161094 -9.845786 -0.5398453 16
2.608812 -11.6561 -0.6926845 16
4.965445 -9.27214 -0.1829012 6
7.844152 -18.56538 -0.4670011 23
3.144182 -9.887662 -0.3013373 26
3.421312 -15.49697 -0.5472821 9
1.210948 -5.375666 -0.9922307 19
1.631563 -7.500999 -0.8593045 22
10.544 -48.3739 1.986925 32
4.894554 -9.189894 0.6035213 8
nan nan nan 0
9.313649 -17.67629 2.448355 7
10.07794 -47.5079 8.844829 7
15.14745 -28.96099 8.746789 33
4.935967 -9.232807 0.06007215 8
13.31607 -31.72893 0 16
3.129673 -9.901967 -0.05416605 29
4.971974 -22.79712 -0.2723987 17
4.945776 -9.239607 0.3080417 12
nan nan nan 0
3.114835 -9.789857 0.1750532 17
10.18389 -46.29417 0.5786582 9
nan nan nan 0
0.2081443 -0.3943915 -0.1061528 25
3.313071 -6.208714 -0.9722671 29
4.143649 -7.927133 -0.8433531 44
4.852081 -9.202518 -0.6647417 6
4.022764 -9.649558 -0.7282575 29
2.84881 -9.128592 -0.719371 30
1.922277 -8.93992 -0.7437412 34
nan nan nan 0
5.549549 -13.12983 -0.6628821 15
3.128216 -9.861521 -0.5401071 14
2.496351 -11.33848 -0.6732254 16
4.900191 -9.22762 -0.1816795 7
7.781229 -18.59726 -0.4671172 19
3.106654 -9.88904 -0.3010459 28
3.361904 -15.4844 -0.5464184 10
1.191116 -5.375056 -0.9913384 19
1.604334 -7.501789 -0.8587455 19
10.44205 -48.72307 1.999767 29
4.822777 -9.131908 0.5985839 33
10.26408 -49.18928 4.083838 42
9.272583 -17.74827 2.453839 6
9.887964 -47.42722 8.82331 8
14.96842 -28.86365 8.701496 27
4.861512 -9.170487 0.0595538 9
13.31846 -32.04763 0 15
3.096579 -9.917603 -0.05419222 31
4.798121 -22.37435 -0.2671366 19
4.873619 -9.181789 0.3055349 14
nan nan nan 0
3.094128 -9.843596 0.1758229 17
9.995816 -46.20728 0.5771311 9
nan nan nan 0
0.2067664 -0.3951156 -0.1061528 30
3.289058 -6.215865 -0.971579 30
4.127419 -7.963639 -0.8457102 40
4.773647 -9.130984 -0.6583407 28
3.987152 -9.658932 -0.7279087 27
2.812525 -9.124187 -0.7182411 27
1.886949 -8.927071 -0.7421128 35
nan nan nan 0
5.494038 -13.12609 -0.6617175 16
3.074373 -9.810437 -0.5367053 14
2.534752 -11.70818 -0.6947175 14
4.804998 -9.125268 -0.1793235 11
7.720093 -18.63355 -0.4673494 22
3.079518 -9.923692 -0.3017744 30
3.302626 -15.4716 -0.5455546 10
1.172347 -5.379181 -0.9913384 19
1.577119 -7.502481 -0.8581864 22
nan nan nan 0
4.783918 -9.135426 0.5977126 35
10.10232 -49.27364 4.087892 14
10.98969 -21.2128 2.92852 31
9.704596 -47.37471 8.807172 10
14.73282 -28.65374 8.622556 15
4.796868 -9.125459 0.05915063 41
13.1932 -32.06156 0 20
3.06636 -9.942688 -0.05427077 25
4.759135 -22.57687 -0.2693584 18
4.799596 -9.119162 0.3028806 50
nan nan nan 0
3.067157 -9.878208 0.1762504 17
nan nan nan 0
nan nan nan 0
0.2053859 -0.395835 -0.1061528 27
3.265036 -6.222925 -0.9708909 29
4.099595 -7.977998 -0.8457102 44
4.744044 -9.152022 -0.6586608 11
3.938309 -9.635857 -0.7251185 30
2.78211 -9.138719 -0.7186177 26
1.854766 -8.928722 -0.7417057 33
4.833546 -9.175786 -0.4203723 11
5.434796 -13.11289 -0.6600872 17
3.050439 -9.8545 -0.538537 14
2.50631 -11.77555 -0.6982027 16
4.773115 -9.141986 -0.1793235 33
7.658798 -18.66963 -0.4675815 22
nan nan nan 0
3.250648 -15.49282 -0.5459001 9
1.153563 -5.38324 -0.9913384 20
1.548918 -7.498207 -0.8570682 18
10.21705 -49.3525 2.022642 31
4.770421 -9.1875 0.6000361 30
9.86438 -48.98127 4.060733 9
nan nan nan 0
9.514923 -47.28773 8.784757 10
14.66563 -28.76953 8.641968 38
4.769611 -9.151012 0.05920822 41
13.01328 -31.94072 0 17
nan nan nan 0
4.718793 -22.77939 -0.2715801 16
4.77005 -9.140288 0.3030281 85
nan nan nan 0
nan nan nan 0
9.173034 -43.88278 0.5472605 5
nan nan nan 0
0.2040029 -0.3965495 -0.1061528 30
3.241005 -6.229892 -0.9702028 25
4.06946 -7.987826 -0.8452387 38
4.714351 -9.172962 -0.6589808 9
3.889676 -9.612558 -0.7223282 27
2.738718 -9.110174 -0.7156047 28
1.820607 -8.920492 -0.7404845 37
4.776018 -9.143906 -0.4181363 78
5.39468 -13.14564 -0.6607859 15
3.043744 -9.955816 -0.5435089 14
2.47131 -11.81354 -0.6999453 17
4.748077 -9.171906 -0.1795852 13
7.599226 -18.71014 -0.4679296 22
nan nan nan 0
3.196548 -15.50407 -0.5459001 9
1.133755 -5.38242 -0.9904461 18
1.52175 -7.498698 -0.8565091 17
10.04073 -49.36828 2.02184 44
4.738321 -9.204095 0.6000361 31
9.672085 -48.90784 4.051816 9
11.67946 -22.93392 3.155197 14
9.329789 -47.21931 8.765928 11
14.59126 -28.87227 8.657497 22
4.749129 -9.189809 0.05935221 34
12.80443 -31.74483 0 15
nan nan nan 0
4.630286 -22.75163 -0.2710539 16
4.747312 -9.174633 0.303618 65
nan nan nan 0
nan nan nan 0
9.42695 -45.89802 0.572 14
nan nan nan 0
0.2026175 -0.3972592 -0.1061528 35
3.216966 -6.236768 -0.9695148 27
4.034812 -7.988656 -0.8438245 41
nan nan nan 0
3.822698 -9.542741 -0.7160501 34
2.702647 -9.105339 -0.7144747 28
1.788481 -8.921907 -0.7400774 34
4.76017 -9.191566 -0.4195592 18
5.34876 -13.1644 -0.6607859 15
3.019069 -9.999842 -0.5453407 12
nan nan nan 0
4.725173 -9.20621 -0.1799343 16
7.543195 -18.75974 -0.4685099 18
4.916405 -16.45384 -0.4995088 10
3.14142 -15.51024 -0.5457274 9
1.11496 -5.386344 -0.9904461 19
1.494598 -7.499091 -0.8559501 20
9.834108 -49.23155 2.014817 9
24.70263 -48.34761 3.156724 171
9.480423 -48.83368 4.042898 11
11.56801 -22.91253 3.146666 8
9.144313 -47.14535 8.746203 11
14.53583 -29.0137 8.684673 27
4.721587 -9.215228 0.05940981 33
12.65645 -31.69647 0 17
nan nan nan 0
nan nan nan 0
4.719824 -9.20004 0.3039128 49
16.0552 -40.04467 1.000733 20
nan nan nan 0
8.809135 -43.66148 0.5437176 11
nan nan nan 0
0.2012295 -0.397964 -0.1061528 37
3.192917 -6.243552 -0.9688267 27
4.000208 -7.989342 -0.8424102 39
5.427171 -10.7418 -0.7693977 15
3.752577 -9.463301 -0.7090745 26
2.658238 -9.071652 -0.711085 30
1.758286 -8.932985 -0.7404845 32
4.73491 -9.221455 -0.4201691 36
5.300911 -13.17835 -0.6605529 15
2.967036 -9.952896 -0.5422005 9
2.369062 -11.73264 -0.6941366 18
10.90265 -21.40976 -0.4186832 18
7.48876 -18.81383 -0.4692062 18
4.866009 -16.49487 -0.5002373 10
3.086287 -15.5162 -0.5455546 9
1.096152 -5.390203 -0.9904461 20
1.467462 -7.499385 -0.855391 21
9.6228 -49.06458 2.00659 6
24.53372 -48.43354 3.156724 70
9.29033 -48.76366 4.034386 10
nan nan nan 0
8.960385 -47.0755 8.727375 12
14.41298 -29.02101 8.671732 12
nan nan nan 0
12.58066 -31.8288 0 17
nan nan nan 0
4.379016 -22.31239 -0.2654411 17
nan nan nan 0
18.92687 -47.68742 1.190249 13
nan nan nan 0
9.094641 -45.90386 0.5712669 10
nan nan nan 0
0.2020632 -0.4029601 -0.1074166 34
3.168861 -6.250244 -0.9681386 30
3.967865 -7.994342 -0.8414675 41
5.382932 -10.7473 -0.7684376 13
3.715875 -9.467056 -0.7083769 25
2.61825 -9.052137 -0.7088252 33
1.727093 -8.939069 -0.7404845 28
nan nan nan 0
5.254878 -13.19678 -0.6605529 15
nan nan nan 0
2.34456 -11.82408 -0.699074 15
10.73544 -21.26474 -0.4151055 17
7.42854 -18.8538 -0.4695543 17
4.790242 -16.44937 -0.4983431 10
3.03115 -15.52198 -0.5453818 10
1.076371 -5.389172 -0.9895539 20
1.440341 -7.499582 -0.8548319 18
9.433541 -49.00465 2.002777 8
nan nan nan 0
9.105416 -48.71741 4.027901 10
nan nan nan 0
8.77706 -47.00495 8.708547 11
14.24544 -28.93683 8.631615 12
16.43334 -32.60138 0.210051 40
12.46948 -31.87252 0 15
7.872182 -27.21381 -0.1481254 23
4.304883 -22.34718 -0.2656749 18
nan nan nan 0
18.76944 -47.77646 1.19083 17
16.80541 -57.68816 1.027144 11
8.912411 -45.82245 0.569862 8
nan nan nan 0
0.2006554 -0.403663 -0.1074166 38
3.144796 -6.256844 -0.9674504 24
3.937735 -8.003679 -0.840996 44
5.30985 -10.69453 -0.7633168 15
3.671964 -9.452076 -0.7062843 27
2.605783 -9.128345 -0.7140981 29
1.694955 -8.940146 -0.7400774 33
7.072436 -14.00742 -0.63686 17
5.210612 -13.21968 -0.6607859 16
3.665979 -12.62028 -0.6866477 16
2.32611 -11.94979 -0.7060444 15
10.49774 -20.97576 -0.4087353 30
7.364499 -18.88427 -0.4696704 15
4.721753 -16.42756 -0.4971774 10
2.976011 -15.52756 -0.5452091 8
1.057552 -5.392896 -0.9895539 17
1.413238 -7.49968 -0.8542728 18
9.24667 -48.95383 1.999366 9
nan nan nan 0
8.922733 -48.68027 4.022226 8
10.54522 -21.44275 2.92913 34
8.595219 -46.93853 8.690616 12
14.31384 -29.33358 8.735143 13
16.33509 -32.68986 0.2102526 42
12.21911 -31.55684 0 14
7.759301 -27.17862 -0.1477851 22
4.234269 -22.40138 -0.2661427 17
nan nan nan 0
nan nan nan 0
16.59565 -57.71764 1.026631 13
8.717742 -45.67157 0.5676019 9
nan nan nan 0
0.1992451 -0.4043609 -0.1074166 37
3.120724 -6.263352 -0.9667624 26
3.909773 -8.017376 -0.840996 39
5.272486 -10.713 -0.7633168 13
3.628203 -9.436903 -0.7041915 26
2.584709 -9.175781 -0.7171112 28
1.666461 -8.960708 -0.7412986 28
7.010072 -14.00522 -0.6356403 21
5.166251 -13.24245 -0.6610188 15
3.637033 -12.6858 -0.6895261 14
2.28158 -11.94313 -0.7051731 17
10.46002 -21.08393 -0.4101315 28
7.291336 -18.89121 -0.4692062 14
4.658928 -16.42471 -0.4965945 11
2.92087 -15.53294 -0.5450363 9
1.037796 -5.391723 -0.9886615 22
1.38705 -7.504568 -0.8542728 21
9.057541 -48.88755 1.995353 10
nan nan nan 0
8.740421 -48.64245 4.016551 9
10.46161 -21.46158 2.926692 28
8.413949 -46.87141 8.672684 12
14.24502 -29.45293 8.755848 16
16.23198 -32.76908 0.2103965 46
12.01583 -31.35652 0 17
7.699626 -27.33067 -0.1484658 18
4.146035 -22.36194 -0.2654995 16
nan nan nan 0
nan nan nan 0
nan nan nan 0
8.541711 -45.61327 0.5665023 8
nan nan nan 0
0.2000114 -0.4093732 -0.1086803 37
3.094449 -6.26533 -0.9653862 28
3.8514 -7.968248 -0.8343962 44
nan nan nan 0
3.59524 -9.449512 -0.7041915 26
2.556666 -9.199159 -0.7182411 24
1.628935 -8.932148 -0.7384491 29
6.956697 -14.02065 -0.6352338 18
5.118196 -13.25574 -0.6607859 14
3.595447 -12.70803 -0.6900495 14
2.244463 -11.97556 -0.7066253 16
10.38194 -21.11134 -0.409957 32
7.21286 -18.88386 -0.4683938 14
4.597527 -16.42643 -0.4961574 10
2.865727 -15.53813 -0.5448636 9
1.018061 -5.390478 -0.9877692 22
1.359963 -7.504474 -0.8537138 18
8.870772 -48.83039 1.991741 9
nan nan nan 0
8.556757 -48.59414 4.010066 8
10.39959 -21.52478 2.930348 26
8.234106 -46.80845 8.655649 11
14.52429 -30.2994 8.992667 42
16.16159 -32.91529 0.2109725 37
11.93645 -31.47775 0 16
7.684498 -27.64643 -0.1500365 19
4.034015 -22.18935 -0.2632778 16
nan nan nan 0
18.07417 -47.46122 1.17818 10
16.22061 -57.93319 1.028427 10
8.365291 -45.54937 0.5653417 6
nan nan nan 0
0.1964173 -0.4057421 -0.1074166 42
3.070379 -6.271647 -0.9646981 27
3.819256 -7.972667 -0.8334535 40
nan nan nan 0
3.53586 -9.391988 -0.6989598 25
2.51005 -9.155132 -0.7140981 29
1.594251 -8.918157 -0.7368208 29
6.909922 -14.04933 -0.6354371 19
5.068326 -13.26419 -0.66032 14
nan nan nan 0
2.17204 -11.81639 -0.6967505 19
10.34106 -21.21485 -0.4112659 24
7.162808 -18.95101 -0.4694383 11
4.537501 -16.43275 -0.4958659 10
2.810584 -15.54312 -0.5446908 9
0.9992383 -5.393999 -0.9877692 21
1.332894 -7.504283 -0.8531547 19
8.684513 -48.77252 1.988129 10
14.71146 -30.35004 1.960137 16
8.374381 -48.55004 4.003985 9
10.36513 -21.64599 2.941926 17
8.053969 -46.73996 8.637716 12
13.82967 -29.1111 8.625145 33
16.04003 -32.95802 0.2108861 36
11.76853 -31.36474 0 16
7.610419 -27.75505 -0.1504816 16
3.96617 -22.25744 -0.2639209 19
nan nan nan 0
19.0366 -50.51762 1.252454 7
15.92645 -57.65696 1.022526 12
8.176141 -45.411 0.5632648 10
nan nan nan 0
0.1949998 -0.4064253 -0.1074166 39
3.046303 -6.277873 -0.96401 29
3.787128 -7.97696 -0.8325107 42
5.157855 -10.76312 -0.7629967 14
3.476927 -9.334167 -0.6937281 28
2.472875 -9.144586 -0.7125916 26
1.557114 -8.889302 -0.7339711 31
6.852074 -14.05541 -0.634624 23
5.020227 -13.27713 -0.6600872 15
nan nan nan 0
2.106937 -11.69125 -0.6889088 18
10.21908 -21.15179 -0.4093462 26
7.059834 -18.87758 -0.4670011 9
4.478799 -16.44366 -0.4957202 10
2.755441 -15.54791 -0.5445181 10
0.979529 -5.392612 -0.9868769 19
1.306691 -7.50889 -0.8531547 17
8.500484 -48.72379 1.984918 10
14.59246 -30.37421 1.958395 18
8.193248 -48.51018 3.998311 9
11.29425 -23.79802 3.229537 23
7.87523 -46.67563 8.620682 11
13.67857 -29.05433 8.594086 35
14.66021 -30.39304 0.1941258 18
11.66245 -31.415 0 16
7.493914 -27.70905 -0.1500889 20
3.886735 -22.2613 -0.263804 20
14.60036 -30.22868 0.989302 33
18.8811 -50.63997 1.253847 13
15.70275 -57.6302 1.021073 10
8.001082 -45.34571 0.5621042 9
nan nan nan 0
0.1914463 -0.4027617 -0.1061528 46
3.022221 -6.284007 -0.963322 28
3.706216 -7.877559 -0.8207254 45
5.092398 -10.72248 -0.7588361 16
3.428793 -9.304129 -0.690589 31
2.43452 -9.129073 -0.7107084 30
1.531112 -8.924156 -0.7364137 30
6.79862 -14.07025 -0.6342174 17
4.968599 -13.28054 -0.6593884 14
nan nan nan 0
2.007231 -11.36425 -0.6691593 17
nan nan nan 0
6.98175 -18.86929 -0.4661888 10
4.408412 -16.41093 -0.4942631 10
2.701152 -15.55744 -0.5445181 9
0.9606993 -5.395998 -0.9868769 22
1.279641 -7.508507 -0.8525956 18
8.316899 -48.67437 1.981708 10
nan nan nan 0
8.012495 -48.46965 3.992636 11
11.31254 -24.05283 3.258786 12
7.697037 -46.61062 8.603646 11
4.262739 -9.145435 2.693012 16
14.54756 -30.4305 0.1940394 43
11.53893 -31.41798 0 15
7.439656 -27.89447 -0.1509528 17
3.804797 -22.25009 -0.2635117 20
14.5552 -30.40567 0.9934308 19
18.79418 -50.94942 1.259882 13
nan nan nan 0
7.827429 -45.28468 0.5610046 7
nan nan nan 0
0.1900393 -0.4034275 -0.1061528 49
2.998132 -6.290049 -0.9626338 28
3.634468 -7.795732 -0.8108257 70
5.0677 -10.76727 -0.7607564 15
3.413387 -9.362898 -0.6940769 28
2.393772 -9.103761 -0.7080719 34
1.499129 -8.924532 -0.7360066 28
6.745144 -14.08488 -0.6338109 23
4.920476 -13.29312 -0.6591554 16
nan nan nan 0
1.922567 -11.11049 -0.6537664 18
9.861014 -20.78005 -0.4007945 23
6.898655 -18.84661 -0.4650283 9
4.342145 -16.3924 -0.4932431 11
2.645994 -15.56184 -0.5443453 9
0.9418579 -5.399319 -0.9868769 19
1.25261 -7.508026 -0.8520365 18
8.133764 -48.62426 1.978497 10
nan nan nan 0
7.832124 -48.42845 3.986961 12
11.20754 -24.0472 3.252692 18
7.519394 -46.54494 8.586611 9
nan nan nan 0
15.84178 -33.43593 0.2128731 36
nan nan nan 0
7.3308 -27.87675 -0.1507172 24
3.731229 -22.28789 -0.263804 22
nan nan nan 0
18.69334 -51.22603 1.265104 10
nan nan nan 0
7.657636 -45.24271 0.5601495 6
nan nan nan 0
0.1886299 -0.4040884 -0.1061528 50
2.974039 -6.296 -0.9619458 26
3.669943 -7.9439 -0.8249681 45
4.985751 -10.68995 -0.7540354 17
3.367141 -9.337222 -0.6912866 24
2.358229 -9.097582 -0.7069421 30
1.467968 -8.929711 -0.7360066 30
6.691651 -14.09932 -0.6334044 17
4.872327 -13.30553 -0.6589226 14
nan nan nan 0
nan nan nan 0
9.788418 -20.81435 -0.4007945 26
6.826018 -18.85177 -0.464564 9
4.277326 -16.37844 -0.4923688 11
2.591657 -15.57098 -0.5443453 10
0.923005 -5.402574 -0.9868769 19
1.225598 -7.507449 -0.8514774 19
7.95108 -48.57347 1.975287 11
14.98001 -32.03547 2.055399 6
7.652917 -48.39149 3.981691 10
11.17557 -24.1988 3.267926 24
7.342304 -46.47858 8.569576 9
4.162572 -9.095942 2.669718 45
15.71647 -33.47293 0.2127579 40
11.18909 -31.13546 0 16
7.190795 -27.73761 -0.1498271 16
3.664706 -22.36986 -0.2646225 21
nan nan nan 0
13.6176 -37.72668 0.9302886 15
nan nan nan 0
6.886419 -41.56487 0.5142747 9
nan nan nan 0
0.1872182 -0.4047444 -0.1061528 50
2.94994 -6.301859 -0.9612576 27
3.548838 -7.753044 -0.8037546 97
4.986121 -10.78881 -0.7597963 15
3.31441 -9.292547 -0.6871012 28
2.327691 -9.110589 -0.7073187 33
1.436 -8.929859 -0.7355995 35
6.638138 -14.11355 -0.6329978 22
4.82415 -13.31776 -0.6586896 16
nan nan nan 0
nan nan nan 0
9.711478 -20.83933 -0.40062 30
nan nan nan 0
4.218882 -16.38843 -0.4922231 11
2.537288 -15.57994 -0.5443453 9
0.903334 -5.400909 -0.9859847 18
1.198604 -7.506773 -0.8509184 17
7.768851 -48.522 1.972076 11
14.91428 -32.1872 2.061789 14
7.473303 -48.34896 3.976017 10
10.99187 -24.02107 3.238678 40
7.16577 -46.41156 8.552541 11
4.118816 -9.084029 2.661954 40
15.63962 -33.6137 0.2133051 36
11.05019 -31.08952 0 17
7.060517 -27.63174 -0.1491203 18
3.591338 -22.41214 -0.2649733 18
nan nan nan 0
nan nan nan 0
nan nan nan 0
7.288842 -44.96935 0.5561179 8
nan nan nan 0
0.1858042 -0.4053954 -0.1061528 45
2.925838 -6.307628 -0.9605696 25
3.548517 -7.824301 -0.809883 75
4.967147 -10.84697 -0.7626767 15
3.291913 -9.332282 -0.689194 22
2.286144 -9.079977 -0.7043056 33
1.399424 -8.900353 -0.7327499 34
6.582496 -14.12305 -0.6323879 19
4.775948 -13.32981 -0.6584567 15
3.208194 -12.49705 -0.6740871 17
nan nan nan 0
9.665936 -20.9321 -0.4017543 27
6.634143 -18.72935 -0.4603861 7
4.156736 -16.38368 -0.4916402 10
2.482104 -15.58376 -0.5441726 8
0.8844758 -5.40403 -0.9859847 19
1.172393 -7.510912 -0.8509184 18
7.587848 -48.47478 1.969066 9
14.79767 -32.22999 2.061208 17
7.294079 -48.30577 3.970342 10
nan nan nan 0
6.989792 -46.34388 8.535506 13
4.100951 -9.129184 2.671012 42
15.53685 -33.69988 0.2135067 36
10.94823 -31.14677 0 15
nan nan nan 0
3.522355 -22.48381 -0.2656749 22
nan nan nan 0
18.08931 -51.23043 1.260462 8
nan nan nan 0
7.106797 -44.83649 0.5541632 8
nan nan nan 0
0.1864455 -0.4104199 -0.1074166 61
2.90173 -6.313304 -0.9598815 28
3.588598 -7.986434 -0.8254395 41
4.916872 -10.83698 -0.7607564 16
3.259317 -9.343716 -0.689194 24
2.262831 -9.121778 -0.7069421 31
1.37287 -8.934739 -0.7351924 31
6.528965 -14.13687 -0.6319814 20
4.727721 -13.3417 -0.6582238 14
3.163328 -12.50333 -0.6738254 17
1.795332 -11.31374 -0.6642219 16
9.563676 -20.90207 -0.4005327 31
nan nan nan 0
4.094675 -16.37869 -0.4910574 10
2.426158 -15.58246 -0.5438271 9
0.8648339 -5.402226 -0.9850924 22
1.145423 -7.510046 -0.8503593 18
7.407271 -48.4269 1.966056 9
14.71402 -32.34505 2.065274 49
7.114522 -48.25698 3.964262 10
nan nan nan 0
6.813659 -46.27066 8.517574 15
4.086752 -9.183146 2.682659 47
15.46899 -33.86304 0.2141978 32
10.87556 -31.2887 0 18
6.877069 -27.71918 -0.1493297 16
3.451404 -22.54539 -0.2662596 22
nan nan nan 0
20.67243 -59.2026 1.454969 10
nan nan nan 0
6.940302 -44.79679 0.553369 9
nan nan nan 0
0.1850117 -0.4110682 -0.1074166 56
2.877619 -6.318889 -0.9591934 28
3.603265 -8.094384 -0.8353391 37
4.879013 -10.85408 -0.7607564 16
3.223428 -9.345606 -0.6884964 24
2.233342 -9.139307 -0.7076953 30
1.341673 -8.939478 -0.7351924 33
6.473337 -14.14595 -0.6313716 20
4.681121 -13.35812 -0.6582238 14
3.125699 -12.53852 -0.6751338 17
1.752778 -11.30021 -0.6630602 17
9.507176 -20.97175 -0.4012308 30
6.48359 -18.71853 -0.4589934 8
4.032699 -16.37347 -0.4904745 10
2.371 -15.58589 -0.5436543 10
0.8459712 -5.405212 -0.9850924 21
1.118472 -7.509084 -0.8498002 17
7.227858 -48.38328 1.963247 10
14.70156 -32.61919 2.079506 16
6.936103 -48.21246 3.958587 10
10.70541 -24.05779 3.228319 37
6.63952 -46.20652 8.501436 12
4.058574 -9.206192 2.685248 47
15.40432 -34.03526 0.2149466 33
10.76791 -31.3312 0 17
6.789763 -27.78188 -0.1495391 16
3.368256 -22.52763 -0.2659088 23
15.88413 -35.04624 1.134107 15
nan nan nan 0
nan nan nan 0
6.764451 -44.69221 0.5517808 9
nan nan nan 0
0.1835757 -0.4117115 -0.1074166 57
2.853504 -6.324383 -0.9585053 27
3.562921 -8.079592 -0.8325107 39
4.814682 -10.8118 -0.7565957 16
3.194007 -9.366242 -0.689194 23
2.201426 -9.147048 -0.7076953 32
1.31118 -8.949039 -0.7355995 35
6.413596 -14.14571 -0.6303552 25
4.632827 -13.36966 -0.6579909 14
3.072391 -12.51056 -0.6730404 17
1.724505 -11.38029 -0.6674168 18
9.382681 -20.89081 -0.3990493 23
6.42955 -18.77415 -0.4598058 9
3.963742 -16.33888 -0.4890173 11
2.315115 -15.58419 -0.5433088 9
0.8270984 -5.408132 -0.9850924 18
1.091543 -7.508025 -0.8492411 18
7.0474 -48.32912 1.960037 9
14.56929 -32.62929 2.076892 15
6.756699 -48.15741 3.952101 10
10.61736 -24.08593 3.2271 29
6.466594 -46.1466 8.486194 12
4.008997 -9.180478 2.673601 86
15.29156 -34.10251 0.215033 28
10.681 -31.43488 0 15
6.737196 -27.99013 -0.150534 17
3.270857 -22.41062 -0.2643887 22
15.69002 -34.94191 1.128946 37
nan nan nan 0
nan nan nan 0
6.593797 -44.61664 0.5505592 9
nan nan nan 0
0.1821375 -0.4123498 -0.1074166 62
2.829386 -6.329785 -0.9578173 29
3.52073 -8.060058 -0.8292108 37
4.750704 -10.7692 -0.7524351 17
3.143757 -9.325346 -0.6853573 26
2.169483 -9.154676 -0.7076953 28
1.279934 -8.953561 -0.7355995 33
6.349838 -14.13612 -0.6289323 27
4.586131 -13.38575 -0.6579909 15
3.014623 -12.46297 -0.6699002 16
1.700793 -11.49488 -0.6738063 16
9.311734 -20.928 -0.3991365 31
6.355959 -18.7728 -0.4592256 9
3.910167 -16.3672 -0.4894545 11
2.259987 -15.58723 -0.5431361 9
0.8074933 -5.40612 -0.9842001 23
1.065328 -7.511789 -0.8492411 18
6.867408 -48.27428 1.956826 10
14.34824 -32.43802 2.061499 14
6.579113 -48.11158 3.946427 10
10.54315 -24.14558 3.230147 26
6.294168 -46.08604 8.470951 11
4.036435 -9.3318 2.713718 113
15.20491 -34.22879 0.2154938 32
10.51229 -31.2966 0 15
6.652132 -28.067 -0.1508219 20
3.211606 -22.55555 -0.2659673 25
nan nan nan 0
19.4599 -57.66345 1.412029 32
nan nan nan 0
6.411632 -44.45629 0.548299 9
nan nan nan 0
0.180697 -0.412983 -0.1074166 61
2.807274 -6.339623 -0.9578173 29
3.492574 -8.072299 -0.8292108 39
4.695083 -10.74458 -0.7495547 17
3.096987 -9.293676 -0.6822183 25
2.136383 -9.157338 -0.7073187 25
1.246618 -8.943165 -0.7343782 33
6.278094 -14.108 -0.6266963 36
4.539377 -13.40168 -0.6579909 15
2.969945 -12.46856 -0.6696386 17
1.651414 -11.43652 -0.6700307 16
9.16398 -20.79114 -0.3959078 24
6.257066 -18.69534 -0.4567884 9
3.848436 -16.36129 -0.4888717 11
2.204866 -15.59007 -0.5429633 9
0.7886175 -5.408905 -0.9842001 18
1.038424 -7.51054 -0.848682 18
6.687198 -48.21383 1.953415 11
14.26098 -32.54734 2.065274 11
6.402585 -48.07003 3.941157 10
nan nan nan 0
6.121593 -46.01996 8.454813 13
3.914342 -9.137227 2.652895 47
15.10951 -34.33656 0.2158393 32
10.21231 -30.75893 0 16
6.57002 -28.15821 -0.1511885 24
3.146579 -22.66566 -0.2671366 26
nan nan nan 0
19.26957 -57.76421 1.412841 13
nan nan nan 0
4.435468 -31.52171 0.3884395 35
nan nan nan 0
0.1792543 -0.4136113 -0.1074166 59
2.783134 -6.344849 -0.9571292 25
3.458485 -8.070718 -0.8277965 37
4.67739 -10.80668 -0.7527551 16
3.069211 -9.318643 -0.6832646 28
2.102175 -9.155022 -0.7065654 31
1.214057 -8.937586 -0.7335641 30
6.22881 -14.12983 -0.6266963 28
4.486223 -13.3985 -0.6570592 13
2.946911 -12.56636 -0.6743488 17
1.644093 -11.67454 -0.683681 18
8.981271 -20.57104 -0.3911084 23
6.179206 -18.6791 -0.45586 10
3.791301 -16.37462 -0.4888717 12
2.149752 -15.59272 -0.5427906 9
0.7697321 -5.411625 -0.9842001 19
1.011541 -7.509194 -0.848123 17
4.306704 -31.85389 1.289435 30
14.16517 -32.63813 2.067888 12
6.221948 -47.99324 3.93305 10
nan nan nan 0
5.950191 -45.95811 8.439571 12
3.974966 -9.368641 2.716306 8
15.02554 -34.4716 0.2163577 34
10.0581 -30.65187 0 17
6.442601 -28.05427 -0.1505078 17
3.078816 -22.76074 -0.2681306 23
44.11033 -101.0267 3.251322 25
19.04904 -57.77416 1.411448 36
nan nan nan 0
4.330159 -31.57168 0.3888671 17
nan nan nan 0
0.1778094 -0.4142345 -0.1074166 59
2.760969 -6.354526 -0.9571292 25
3.430292 -8.082742 -0.8277965 38
4.661288 -10.87338 -0.7562757 16
3.036664 -9.3293 -0.6832646 28
2.075694 -9.18662 -0.7084486 30
1.1809 -8.926947 -0.7323428 31
6.175448 -14.14233 -0.6262897 25
4.444136 -13.4283 -0.6577579 14
2.890682 -12.52305 -0.6714703 16
1.549883 -11.28951 -0.6607368 16
8.806167 -20.36369 -0.3865708 20
6.073568 -18.57703 -0.4528426 7
3.73412 -16.38776 -0.4888717 10
2.093983 -15.59023 -0.5424451 9
0.7508374 -5.414279 -0.9842001 20
0.9853229 -7.51268 -0.848123 18
4.080217 -30.99198 1.253918 109
12.48343 -29.04189 1.836993 31
3.846904 -30.49149 2.496512 11
11.3349 -26.71693 3.558585 41
5.778679 -45.89075 8.423432 12
3.792391 -9.026331 2.612778 97
12.55387 -29.08 0.1822035 10
3.196026 -9.859875 0 17
6.336922 -28.04245 -0.1503245 19
3.009123 -22.8457 -0.2690076 30
43.76734 -101.203 3.252059 9
18.84105 -57.82129 1.410984 10
nan nan nan 0
4.21133 -31.52217 0.388073 30
nan nan nan 0
0.1744125 -0.4104253 -0.1061528 57
2.73681 -6.359577 -0.956441 26
3.402057 -8.094666 -0.8277965 36
4.597928 -10.82989 -0.7521151 25
3.002552 -9.335095 -0.6829159 21
2.050099 -9.223013 -0.7107084 28
1.147833 -8.916184 -0.7311215 30
6.120089 -14.15004 -0.6256799 29
nan nan nan 0
2.808263 -12.36264 -0.6623115 17
nan nan nan 0
8.740939 -20.40808 -0.3868326 31
3.197147 -9.89862 -0.2405799 28
3.675801 -16.39582 -0.488726 11
2.038904 -15.59249 -0.5422723 9
0.7312793 -5.411991 -0.9833078 20
0.9584675 -7.511144 -0.8475639 18
3.945385 -30.7979 1.24549 31
12.38002 -29.0807 1.836703 23
3.742868 -30.52452 2.498133 15
11.18195 -26.61451 3.539695 33
5.607711 -45.82276 8.407294 12
3.744142 -8.999393 2.601131 56
12.44245 -29.10065 0.1820595 47
3.170744 -9.89954 0 26
6.202116 -27.89845 -0.1494344 17
2.926821 -22.83623 -0.2687737 22
12.44062 -29.05443 0.9313506 39
3.17137 -9.854405 0.2394193 26
nan nan nan 0
4.076159 -31.34332 0.3856907 25
nan nan nan 0
0.1729788 -0.4110317 -0.1061528 63
2.714594 -6.369092 -0.956441 27
3.373781 -8.106492 -0.8277965 38
4.534927 -10.78609 -0.7479544 28
2.968436 -9.340765 -0.6825671 23
2.014701 -9.215501 -0.7095785 32
1.117934 -8.930028 -0.7319357 33
6.062784 -14.15296 -0.6248668 19
nan nan nan 0
2.737883 -12.25054 -0.6557695 20
1.449201 -11.13175 -0.650862 18
8.652068 -20.39705 -0.3860472 32
3.162575 -9.909719 -0.2405799 27
3.61747 -16.40367 -0.4885802 10
1.983206 -15.58959 -0.5419268 9
0.7123835 -5.41451 -0.9833078 21
0.9316347 -7.509512 -0.8470048 18
3.845255 -30.87098 1.247898 33
15.64033 -37.09409 2.340025 16
5.700204 -47.89741 3.920079 8
11.12903 -26.7496 3.552491 35
5.437868 -45.75902 8.392052 13
3.725599 -9.043658 2.61019 74
14.77881 -34.89868 0.2180568 32
3.13466 -9.905781 0 21
6.122845 -28.00297 -0.1498795 17
2.852643 -22.89096 -0.2692999 30
nan nan nan 0
3.138468 -9.870179 0.2395354 29
nan nan nan 0
3.918476 -30.97542 0.3809872 31
nan nan nan 0
0.171543 -0.411633 -0.1061528 51
2.690416 -6.373967 -0.955753 30
3.349262 -8.127421 -0.8287394 38
4.510689 -10.83409 -0.7501947 35
2.935813 -9.35107 -0.6825671 25
1.986708 -9.241975 -0.711085 29
1.087355 -8.938823 -0.7323428 34
6.007485 -14.16024 -0.624257 26
3.14338 -9.844047 -0.4800422 16
nan nan nan 0
1.424704 -11.25065 -0.657542 14
8.584691 -20.43635 -0.3862217 20
3.132477 -9.935 -0.240928 26
3.55913 -16.41131 -0.4884345 12
1.927553 -15.5865 -0.5415813 9
0.6934789 -5.416964 -0.9833078 19
0.904825 -7.507785 -0.8464457 18
3.777628 -31.21653 1.261342 30
12.28828 -29.43356 1.853548 9
3.598776 -31.14894 2.54718 44
11.01857 -26.74699 3.547007 32
5.268538 -45.69464 8.37681 12
3.723231 -9.128143 2.630896 95
14.70332 -35.0607 0.2187479 35
3.094092 -9.897575 0 24
6.017705 -27.98996 -0.1496962 23
2.781119 -22.97027 -0.2701184 26
nan nan nan 0
3.108493 -9.89538 0.2398836 26
nan nan nan 0
3.721979 -30.26937 0.3721298 30
nan nan nan 0
0.1701051 -0.4122293 -0.1061528 58
2.666236 -6.378752 -0.955065 25
3.313338 -8.120632 -0.8268537 35
4.488075 -10.88667 -0.7527551 46
2.903154 -9.361261 -0.6825671 28
1.942078 -9.190315 -0.7065654 29
1.056727 -8.947514 -0.7327499 36
5.952209 -14.1673 -0.6236472 22
3.101481 -9.831144 -0.4788776 15
nan nan nan 0
1.395143 -11.33482 -0.6621889 16
nan nan nan 0
3.087367 -9.912467 -0.2401156 24
3.50078 -16.41874 -0.4882888 11
1.87254 -15.58817 -0.5414085 10
0.674566 -5.419352 -0.9833078 19
0.8780388 -7.505963 -0.8458866 17
nan nan nan 0
nan nan nan 0
3.480056 -31.07216 2.539884 32
10.91576 -26.76231 3.54396 38
5.099724 -45.62965 8.361567 13
3.665994 -9.078401 2.612778 44
14.63839 -35.25033 0.2196118 35
3.068381 -9.936977 0 19
5.963375 -28.21625 -0.1507958 23
2.702085 -22.98977 -0.2702354 27
nan nan nan 0
3.087273 -9.949135 0.240928 22
10.3652 -48.58941 0.8491834 24
3.616889 -30.28714 0.372191 31
nan nan nan 0
0.1686651 -0.4128205 -0.1061528 55
2.642056 -6.383445 -0.9543768 29
3.273769 -8.104463 -0.8240253 36
4.476474 -10.96693 -0.7572358 31
2.871921 -9.376107 -0.6829159 30
1.900871 -9.153102 -0.7031758 31
1.026616 -8.961051 -0.7335641 34
5.895038 -14.16955 -0.622834 28
3.082014 -9.889592 -0.4812068 16
nan nan nan 0
1.368552 -11.44867 -0.6685784 17
nan nan nan 0
3.065983 -9.966181 -0.2411601 21
3.442422 -16.42597 -0.4881431 10
1.816962 -15.58469 -0.541063 10
0.655059 -5.416789 -0.9824155 19
0.8512763 -7.504045 -0.8453276 18
3.450054 -30.27913 1.222414 33
15.26616 -37.2928 2.342348 19
3.409127 -31.43094 2.568258 28
nan nan nan 0
4.931428 -45.56404 8.346326 13
3.637872 -9.10011 2.615366 35
14.57042 -35.43531 0.2204469 29
nan nan nan 0
5.879076 -28.30543 -0.1511623 20
2.621819 -22.99906 -0.2702354 28
nan nan nan 0
nan nan nan 0
nan nan nan 0
3.481838 -30.04629 0.3690756 29
nan nan nan 0
0.167223 -0.4134068 -0.1061528 51
2.617876 -6.388048 -0.9536887 28
3.236205 -8.092737 -0.8216683 37
4.421321 -10.94086 -0.7543554 38
2.84062 -9.390848 -0.6832646 30
1.866918 -9.14991 -0.7024224 32
0.9887679 -8.90514 -0.7286791 39
5.839827 -14.17618 -0.6222242 19
3.062177 -9.948023 -0.4835359 16
nan nan nan 0
1.314831 -11.33437 -0.661608 17
nan nan nan 0
nan nan nan 0
3.384056 -16.43299 -0.4879974 11
1.761431 -15.58101 -0.5407175 9
0.6361468 -5.419043 -0.9824155 18
0.8250771 -7.50697 -0.8453276 17
3.352002 -30.36051 1.225224 22
14.74953 -36.39294 2.282519 38
3.264087 -31.10562 2.540694 27
nan nan nan 0
4.763653 -45.49781 8.331084 13
nan nan nan 0
14.61826 -35.90734 0.2230676 27
nan nan nan 0
5.770242 -28.27679 -0.1509005 24
2.541522 -23.00807 -0.2702354 22
nan nan nan 0
nan nan nan 0
nan nan nan 0
3.370805 -30.00361 0.3684036 31
nan nan nan 0
0.165779 -0.413988 -0.1061528 53
2.593696 -6.39256 -0.9530006 30
3.196927 -8.076221 -0.8188397 40
4.403513 -11.00718 -0.757876 24
2.799253 -9.372033 -0.6811719 28
1.833989 -9.151482 -0.7020458 32
0.9608544 -8.938268 -0.7311215 29
5.782753 -14.17798 -0.6214111 27
nan nan nan 0
nan nan nan 0
1.279703 -11.37857 -0.6639315 17
nan nan nan 0
nan nan nan 0
3.324693 -16.43491 -0.4877059 11
1.705948 -15.57712 -0.540372 9
0.617227 -5.42123 -0.9824155 21
0.7983459 -7.504863 -0.8447685 17
3.248124 -30.3919 1.226026 24
14.63543 -36.47663 2.284552 37
3.122865 -30.79454 2.514347 33
nan nan nan 0
4.596894 -45.43585 8.316738 12
3.697719 -9.440007 2.705953 93
14.50218 -35.98133 0.2232115 29
nan nan nan 0
5.694095 -28.40952 -0.1515026 18
2.460663 -23.01183 -0.2701769 23
nan nan nan 0
nan nan nan 0
9.941085 -49.11668 0.8565379 15
3.282791 -30.16927 0.3702973 29
nan nan nan 0
0.1624917 -0.4100905 -0.1048891 50
2.571366 -6.401575 -0.9530006 28
3.175991 -8.105865 -0.8207254 36
4.357707 -11.00393 -0.7565957 34
2.758051 -9.353044 -0.6790792 26
1.802994 -9.162721 -0.7024224 33
0.9398934 -9.040708 -0.7392632 32
5.727611 -14.18419 -0.6208013 21
4.061716 -13.52802 -0.6568263 15
2.452131 -12.16324 -0.6481808 22
1.23298 -11.31846 -0.6601559 21
8.11347 -20.29991 -0.3808987 26
nan nan nan 0
3.265358 -16.43661 -0.4874145 12
1.651563 -15.58298 -0.540372 9
0.5977648 -5.418461 -0.9815232 21
0.7721442 -7.507605 -0.8447685 17
3.141504 -30.39808 1.225826 29
14.51354 -36.54141 2.285423 30
3.021653 -30.86973 2.519617 29
10.98468 -28.04415 3.69325 20
4.430626 -45.37329 8.302393 13
3.507417 -9.047663 2.589484 36
14.41912 -36.13854 0.2238739 32
nan nan nan 0
5.60937 -28.50281 -0.1518953 24
2.385452 -23.07001 -0.2707616 26
30.94528 -77.42306 2.458878 161
nan nan nan 0
9.767627 -49.14128 0.8563669 16
3.17746 -30.18055 0.3702973 36
nan nan nan 0
0.1610592 -0.4106552 -0.1048891 43
2.547172 -6.405911 -0.9523126 26
3.147677 -8.116902 -0.8207254 38
4.302861 -10.97727 -0.7537153 53
2.726781 -9.367403 -0.679428 21
1.772888 -9.17875 -0.7031758 34
0.9078348 -9.038975 -0.7388561 34
5.663215 -14.16699 -0.6191751 17
4.005948 -13.51338 -0.6554288 15
2.424193 -12.2452 -0.652106 19
1.216904 -11.54609 -0.6732254 17
8.031519 -20.30023 -0.3803752 27
5.363518 -18.33646 -0.4426298 8
3.207007 -16.443 -0.4872688 11
1.596651 -15.58368 -0.5401992 10
0.5788472 -5.420515 -0.9815232 18
0.7454456 -7.505309 -0.8442094 17
3.025469 -30.30944 1.221812 37
14.32743 -36.44321 2.276129 34
2.906403 -30.8007 2.513131 33
nan nan nan 0
4.264851 -45.31012 8.288048 14
3.444631 -8.978703 2.566191 43
14.30024 -36.20725 0.2239891 32
nan nan nan 0
5.517427 -28.56149 -0.1521048 26
2.308874 -23.118 -0.2712293 18
30.79254 -77.82803 2.468315 243
nan nan nan 0
9.594117 -49.16526 0.8561958 14
3.076638 -30.23622 0.3708471 37
nan nan nan 0
0.1596248 -0.4112149 -0.1048891 52
2.524795 -6.414763 -0.9523126 28
3.117538 -8.123194 -0.820254 40
4.25729 -10.97362 -0.7524351 53
2.69131 -9.367277 -0.6787304 25
1.757531 -9.27306 -0.7099552 26
0.8757996 -9.037128 -0.7384491 33
5.615569 -14.19131 -0.6193784 26
3.96577 -13.55125 -0.6565933 15
2.377627 -12.23398 -0.6510593 18
1.156451 -11.35162 -0.661608 17
7.966082 -20.3421 -0.380637 26
5.299479 -18.35507 -0.4426298 8
3.147712 -16.44428 -0.4869774 11
1.544695 -15.61403 -0.541063 9
0.5599226 -5.422502 -0.9815232 21
0.7192427 -7.507865 -0.8442094 16
2.901966 -30.13581 1.214388 35
14.02811 -36.0511 2.248538 27
2.785822 -30.66673 2.501376 23
10.61078 -27.65684 3.632315 42
4.099571 -45.24635 8.273703 14
3.363486 -8.859758 2.528662 49
14.17923 -36.27092 0.2240755 34
8.748847 -30.57795 0 16
5.454 -28.77217 -0.1531258 26
2.233902 -23.18564 -0.2719309 21
30.51885 -77.93038 2.468168 138
nan nan nan 0
9.407397 -49.11989 0.8548276 13
2.971076 -30.24678 0.3708471 35
nan nan nan 0
0.1581884 -0.4117696 -0.1048891 47
2.500587 -6.418924 -0.9516245 25
3.087394 -8.129375 -0.8197826 38
4.220749 -10.99307 -0.7527551 67
2.664041 -9.395808 -0.6801256 27
1.716049 -9.230119 -0.7061888 32
0.8465504 -9.06494 -0.7404845 34
5.569645 -14.22013 -0.619785 23
3.908736 -13.53142 -0.654963 16
nan nan nan 0
1.10126 -11.19662 -0.6523142 18
7.900448 -20.38376 -0.3808987 32
5.243598 -18.4023 -0.4433262 8
3.08937 -16.45025 -0.4868317 11
1.487345 -15.58948 -0.5400265 10
0.5409911 -5.424424 -0.9815232 19
0.692578 -7.505383 -0.8436503 22
2.784779 -30.01641 1.209171 25
13.8968 -36.08587 2.247667 28
2.730672 -31.27203 2.550017 19
10.43135 -27.47567 3.603676 36
3.934788 -45.18198 8.259356 12
3.308728 -8.808163 2.510545 50
14.03268 -36.2689 0.2237587 38
8.613521 -30.50726 0 15
5.335258 -28.69271 -0.1526022 23
2.153878 -23.20325 -0.2720478 18
nan nan nan 0
18.3796 -64.74351 1.561622 12
9.22111 -49.07381 0.8534592 13
2.874416 -30.35154 0.3720077 29
nan nan nan 0
0.1567501 -0.4123193 -0.1048891 43
2.47638 -6.422994 -0.9509364 25
3.048476 -8.112151 -0.8169541 38
4.164608 -10.9611 -0.7495547 71
2.633917 -9.414657 -0.6808231 24
nan nan nan 0
0.8055999 -8.963604 -0.7319357 37
5.523589 -14.2488 -0.6201915 20
3.864219 -13.55459 -0.6554288 16
2.361901 -12.6233 -0.670947 16
1.059357 -11.17058 -0.6505716 16
7.755795 -20.21986 -0.377321 23
5.156321 -18.33869 -0.4413532 9
3.031024 -16.45602 -0.4866859 11
1.431097 -15.57467 -0.5393355 9
0.5215867 -5.421381 -0.9806309 18
0.6659395 -7.502805 -0.8430912 16
nan nan nan 0
13.74764 -36.07353 2.243891 34
2.641428 -31.51975 2.569474 15
10.30395 -27.4283 3.592708 32
3.770506 -45.117 8.245012 14
3.293127 -8.860394 2.522192 67
13.86128 -36.20094 0.2230387 39
8.535161 -30.63828 0 15
5.235966 -28.71608 -0.1526283 23
2.075975 -23.24549 -0.2724571 12
nan nan nan 0
nan nan nan 0
9.035261 -49.02704 0.852091 12
2.75078 -30.1672 0.3696254 32
nan nan nan 0
0.1553099 -0.4128639 -0.1048891 38
2.452175 -6.426973 -0.9502483 27
3.028828 -8.146065 -0.8193111 37
4.07358 -10.83548 -0.7399532 89
2.603693 -9.433408 -0.6815207 26
1.660329 -9.290956 -0.7099552 33
0.7802654 -9.035873 -0.7376349 28
5.472026 -14.26333 -0.6199882 24
3.814175 -13.55838 -0.654963 15
nan nan nan 0
1.013585 -11.09964 -0.6462151 18
7.685166 -20.24681 -0.377321 26
5.084255 -18.32767 -0.4406569 10
2.974451 -16.47142 -0.4868317 11
1.37497 -15.55966 -0.5386444 9
0.5026593 -5.423169 -0.9806309 18
0.6397457 -7.505085 -0.8430912 17
2.640317 -30.79672 1.239872 30
13.95993 -37.01799 2.299654 36
2.497961 -31.1115 2.535425 22
10.36729 -27.89203 3.648768 30
3.606724 -45.05144 8.230666 13
3.307248 -8.994199 2.557132 86
13.74901 -36.28651 0.2232691 37
nan nan nan 0
5.132179 -28.71449 -0.1525236 26
1.993542 -23.23765 -0.2722817 10
nan nan nan 0
19.08568 -69.06192 1.662589 14
8.850739 -48.98448 0.8508083 13
2.679884 -30.57009 0.3744511 22
nan nan nan 0
0.1521207 -0.4088924 -0.1036254 40
2.427973 -6.430862 -0.9495602 27
3.005538 -8.170601 -0.8207254 36
4.018314 -10.80287 -0.7367527 79
2.564193 -9.418378 -0.6797768 28
1.629605 -9.306518 -0.7107084 30
0.7507612 -9.063375 -0.7396703 29
5.418654 -14.27301 -0.6195816 23
3.765488 -13.5668 -0.65473 16
nan nan nan 0
0.9717942 -11.06831 -0.6441821 17
7.626758 -20.30627 -0.3779318 26
5.01497 -18.32603 -0.4401927 11
2.916937 -16.4817 -0.4868317 12
1.319386 -15.54942 -0.5381262 10
0.4837258 -5.424891 -0.9806309 21
0.6135443 -7.507272 -0.8430912 17
2.526264 -30.72609 1.236661 35
13.9022 -37.25822 2.311562 37
2.389727 -31.125 2.53583 21
10.28872 -27.97928 3.655471 21
3.444946 -45.0049 8.219908 11
3.259298 -8.960309 2.544191 46
13.69425 -36.52621 0.2244498 35
8.355078 -30.82259 0 15
4.968973 -28.37271 -0.1506125 24
nan nan nan 0
nan nan nan 0
nan nan nan 0
8.665751 -48.93631 0.8494399 11
2.58278 -30.69384 0.375856 30
nan nan nan 0
0.1506925 -0.4094208 -0.1036254 39
2.403774 -6.43466 -0.9488721 26
2.982114 -8.195072 -0.8221397 34
3.894311 -10.58274 -0.7207502 93
2.532596 -9.432088 -0.6801256 24
1.576065 -9.189293 -0.7012925 36
0.7179466 -9.051036 -0.7384491 27
5.365282 -14.28248 -0.6191751 21
3.715469 -13.57023 -0.6542642 15
nan nan nan 0
0.9231492 -10.95225 -0.6372116 18
nan nan nan 0
4.940545 -18.30481 -0.4392643 8
2.863654 -16.51641 -0.4875602 11
1.26389 -15.53899 -0.537608 9
0.4643714 -5.421644 -0.9797386 18
0.5869514 -7.504413 -0.8425322 17
2.451066 -31.14313 1.253115 29
13.33627 -36.12655 2.238373 25
2.280703 -31.12818 2.535425 12
10.17402 -27.96839 3.649377 37
3.279959 -44.90872 8.200183 9
3.314792 -9.21244 2.612778 107
13.48839 -36.36285 0.2231539 31
8.211272 -30.71632 0 16
4.883424 -28.46873 -0.1510314 20
nan nan nan 0
nan nan nan 0
nan nan nan 0
8.48121 -48.88746 0.8480717 12
2.47442 -30.68772 0.3756728 26
nan nan nan 0
0.1475469 -0.4054211 -0.1023617 48
2.379577 -6.438368 -0.948184 26
2.958555 -8.219479 -0.8235539 32
3.787276 -10.40406 -0.7076283 107
2.494546 -9.421585 -0.6787304 26
1.539032 -9.165236 -0.6990328 30
0.68448 -9.028641 -0.7364137 39
5.31191 -14.29176 -0.6187685 23
3.666775 -13.57829 -0.6540313 15
nan nan nan 0
0.8952987 -11.08477 -0.6447629 16
nan nan nan 0
4.858613 -18.25432 -0.4376395 10
2.801803 -16.50166 -0.4868317 11
1.209255 -15.53833 -0.5374352 9
0.4454435 -5.423232 -0.9797386 19
0.5607526 -7.506416 -0.8425322 18
2.35131 -31.27106 1.257931 26
13.15699 -36.02754 2.229369 24
2.22357 -31.87671 2.595821 9
10.03934 -27.90101 3.635972 32
3.113643 -44.78249 8.175078 10
3.279371 -9.214856 2.61019 88
13.40445 -36.52706 0.2238739 32
8.082333 -30.66261 0 15
nan nan nan 0
nan nan nan 0
nan nan nan 0
nan nan nan 0
8.297113 -48.8379 0.8467034 11
2.34734 -30.43696 0.3724964 24
nan nan nan 0
0.1444311 -0.4014044 -0.1010979 42
2.35368 -6.437335 -0.9468078 30
2.923157 -8.211003 -0.8216683 35
3.813565 -10.59089 -0.7194701 103
2.45534 -9.406106 -0.6769865 24
1.51026 -9.190232 -0.7005394 30
0.6526037 -9.026005 -0.7360066 35
5.260264 -14.30552 -0.6185653 22
3.618069 -13.58618 -0.6537983 14
nan nan nan 0
0.8569824 -11.0928 -0.6450533 16
nan nan nan 0
4.780901 -18.21799 -0.4363629 9
2.741728 -16.49655 -0.4863946 10
1.15464 -15.53747 -0.5372624 9
0.4265102 -5.424754 -0.9797386 22
0.5345469 -7.508327 -0.8425322 17
2.243922 -31.304 1.258934 31
13.07017 -36.18121 2.236049 32
6.924127 -104.7145 8.532486 73
9.915251 -27.86108 3.626222 40
2.948248 -44.65566 8.149974 12
3.279301 -9.317343 2.636072 73
13.34855 -36.771 0.2250834 35
7.955126 -30.6132 0 14
4.729951 -28.77842 -0.1524975 14
nan nan nan 0
nan nan nan 0
nan nan nan 0
8.112648 -48.78273 0.8452497 12
2.268177 -30.81394 0.3770166 19
nan nan nan 0
0.144713 -0.4064413 -0.1023617 39
2.329507 -6.440856 -0.9461198 27
2.902757 -8.244628 -0.8240253 31
nan nan nan 0
2.415029 -9.385638 -0.6748939 22
1.465526 -9.116684 -0.6945132 35
0.6170257 -8.968564 -0.7311215 37
5.206878 -14.31441 -0.6181588 28
3.570622 -13.59873 -0.6537983 16
nan nan nan 0
0.8200795 -11.12062 -0.6465055 17
7.002115 -19.46534 -0.3603922 11
4.703504 -18.18133 -0.4350863 9
2.680921 -16.48629 -0.4858117 12
1.100397 -15.54141 -0.5372624 9
0.4075716 -5.426209 -0.9797386 22
0.5083346 -7.510148 -0.8425322 18
2.151244 -31.55588 1.268767 20
13.22438 -37.01157 2.284552 34
6.541759 -104.4694 8.510596 86
9.83607 -27.94701 3.632925 33
2.786533 -44.5724 8.132938 14
3.265836 -9.383459 2.651601 117
13.20152 -36.76561 0.2247666 32
7.817194 -30.5197 0 16
4.644541 -28.88855 -0.1529949 12
1.552071 -22.74515 -0.2661427 8
13.48255 -37.48636 1.174215 31
nan nan nan 0
7.929471 -48.7318 0.8438814 12
nan nan nan 0
nan nan nan 0
0.1432934 -0.4069439 -0.1023617 41
2.305338 -6.444286 -0.9454317 25
2.865762 -8.23121 -0.8216683 33
nan nan nan 0
2.377345 -9.374672 -0.6734987 20
1.453794 -9.249806 -0.7043056 32
0.5902181 -9.040287 -0.7368208 32
5.155186 -14.3278 -0.6179554 27
3.52188 -13.60627 -0.6535655 15
nan nan nan 0
0.7802144 -11.10848 -0.6456342 16
nan nan nan 0
4.62642 -18.14436 -0.4338098 9
2.621788 -16.48568 -0.4855202 11
1.046475 -15.55014 -0.5374352 8
0.3886282 -5.427598 -0.9797386 19
0.4818016 -7.506918 -0.8419731 17
2.051691 -31.72772 1.275388 13
13.06017 -36.95867 2.278453 41
nan nan nan 0
9.705815 -27.88744 3.620738 33
2.626881 -44.5131 8.120386 14
nan nan nan 0
13.09487 -36.87272 0.225141 33
7.714285 -30.56134 0 16
4.535911 -28.85519 -0.1527331 16
1.472667 -22.75043 -0.2661427 8
nan nan nan 0
nan nan nan 0
7.746749 -48.68019 0.8425131 12
2.135506 -32.0712 0.3922268 10
nan nan nan 0
0.141872 -0.4074417 -0.1023617 40
2.281173 -6.447627 -0.9447436 26
2.830521 -8.222341 -0.8197826 38
3.460866 -9.937678 -0.6724229 108
2.340976 -9.368397 -0.6724523 24
1.425277 -9.279467 -0.7061888 35
0.5613961 -9.087059 -0.7404845 31
5.103465 -14.341 -0.6177522 28
3.474364 -13.61849 -0.6535655 15
1.996033 -12.60542 -0.6667601 16
0.7470427 -11.1958 -0.6505716 16
6.86107 -19.4996 -0.3601304 22
4.548433 -18.10223 -0.4324171 9
2.562692 -16.48485 -0.4852288 11
0.9925045 -15.55868 -0.537608 9
0.36968 -5.428923 -0.9797386 18
0.4555947 -7.508554 -0.8419731 17
1.928763 -31.53522 1.267362 17
12.90802 -36.93807 2.274387 31
2.617317 -47.00641 3.82604 6
9.610028 -27.92585 3.621347 36
2.468221 -44.46307 8.109627 12
nan nan nan 0
12.96111 -36.90406 0.2250546 31
7.654635 -30.77732 0 15
nan nan nan 0
1.391722 -22.73048 -0.2658503 8
nan nan nan 0
nan nan nan 0
7.564484 -48.6279 0.8411449 11
nan nan nan 0
nan nan nan 0
0.1404489 -0.4079344 -0.1023617 41
2.257014 -6.450877 -0.9440555 26
2.795376 -8.213326 -0.817897 38
3.408259 -9.897812 -0.6689023 98
2.313033 -9.395884 -0.6738475 24
1.409866 -9.397792 -0.7148514 30
0.5285254 -9.069062 -0.7388561 34
5.050054 -14.3493 -0.6173456 29
3.426805 -13.63053 -0.6535655 15
nan nan nan 0
0.710458 -11.2382 -0.652895 18
6.822556 -19.60842 -0.3617011 23
4.470797 -18.05977 -0.4310244 9
2.504384 -16.48875 -0.4850831 12
0.9381886 -15.56205 -0.537608 8
0.3507273 -5.43018 -0.9797386 20
0.4293821 -7.510099 -0.8419731 17
1.770504 -30.70382 1.233651 13
12.72844 -36.83666 2.265383 39
2.448813 -46.93065 3.819149 8
nan nan nan 0
2.309943 -44.41246 8.098867 10
3.088751 -9.183725 2.585602 48
12.86503 -37.04353 0.2256306 37
7.567388 -30.88641 0 16
4.316556 -28.76748 -0.1521048 12
1.307778 -22.65533 -0.2649149 9
nan nan nan 0
nan nan nan 0
7.384181 -48.58481 0.8399476 11
nan nan nan 0
nan nan nan 0
0.1390241 -0.4084222 -0.1023617 38
2.23286 -6.454038 -0.9433674 25
2.761918 -8.208882 -0.8164827 35
