# .PCD v0.7 - Point Cloud Data file format
VERSION 0.7
FIELDS x y z intensity
SIZE 4 4 4 4
TYPE F F F F
COUNT 1 1 1 1
WIDTH 1632
HEIGHT 1
VIEWPOINT 0 0 0 1 0 0 0
POINTS 1632
DATA ascii
-6.856831 1.921554 -0.5784653 27
nan nan nan 0
-22.89155 1.956401 -1.069555 12
-9.774404 1.758661 -0.5183876 21
-6.997916 1.923292 -0.4199672 11
-40.14825 -0.1346507 -0.7001032 10
-33.98105 3.028591 -0.7911399 14
-9.7246 1.777664 -0.2870573 12
-6.89423 1.91536 -0.2460006 32
-7.44974 2.040938 -1.393763 15
-6.815167 1.918878 -0.792215 20
-6.912155 1.938507 0.2867416 44
-95.43317 -0.1111138 5.550479 7
-7.056961 2.020286 0.5938286 17
-90.48482 0.3211599 11.10534 5
-7.674822 2.199145 1.447988 10
nan nan nan 0
nan nan nan 0
-71.97884 6.590438 0 9
-9.612375 1.774506 -0.05097211 28
-6.869088 1.926458 -0.08296495 34
-96.44211 -0.3141904 2.844336 7
-78.70445 7.095353 1.833769 5
-9.742343 1.779295 0.168725 27
-6.930501 1.929499 0.08741264 38
nan nan nan 0
-0.3588712 0.002241316 -0.08340581 9
-9.468997 -0.01597011 -1.310118 17
-13.04115 0.089393 -1.231324 12
-17.48368 0.05719614 -1.118891 9
-16.58138 1.557453 -1.161794 8
-9.402403 1.771188 -0.7197476 16
-6.782984 1.926364 -0.5727662 27
-24.8489 -0.08546524 -1.009463 10
-22.91443 2.038949 -1.070953 12
-9.655252 1.772018 -0.512369 23
-6.899818 1.922187 -0.4144489 10
-40.37844 0.005493658 -0.7041172 13
-33.80104 3.13152 -0.7871941 11
-9.566031 1.783177 -0.2825401 16
-6.815369 1.919043 -0.2434093 30
-7.456789 2.070889 -1.39644 14
-6.751104 1.926251 -0.7855061 22
-6.833276 1.94208 0.2837318 44
-94.19009 0.2191907 5.478161 15
-7.107288 2.061611 0.5986927 15
nan nan nan 0
-7.870185 2.285039 1.486541 8
nan nan nan 0
nan nan nan 0
-72.1097 6.856319 0 6
-9.493114 1.786757 -0.05036997 20
-6.795007 1.931236 -0.08214641 36
nan nan nan 0
-63.02195 5.903777 1.468663 4
-9.608293 1.78947 0.1665015 21
-6.851562 1.93326 0.08649637 38
nan nan nan 0
-0.3588611 0.003493997 -0.08340581 9
-9.468994 0.01708296 -1.310118 16
-13.05072 0.1350136 -1.232267 13
-17.52329 0.118483 -1.121452 9
-16.5957 1.617257 -1.163189 8
-9.263968 1.778589 -0.7095785 16
-6.709187 1.930681 -0.567067 29
-24.85904 0.001272381 -1.009869 10
-22.93204 2.121222 -1.072117 12
-9.472328 1.772614 -0.5029485 31
-6.830631 1.928581 -0.4106733 10
-40.45317 0.1467025 -0.7054262 14
-33.73517 3.244228 -0.7859175 12
-9.387902 1.78387 -0.2774401 28
-6.741369 1.923573 -0.2409907 31
-7.458984 2.099578 -1.398224 12
-6.672758 1.92905 -0.7771199 22
-6.759259 1.946512 0.2809225 44
-92.67634 0.5392632 5.39016 8
-7.186094 2.111765 0.6059889 15
-88.54005 0.9325304 10.86709 8
-7.715899 2.269367 1.458747 9
nan nan nan 0
-83.84244 0.356777 0.4826795 37
-72.21471 7.120741 0 10
-9.368972 1.797253 -0.04974166 18
-6.720978 1.935521 -0.08132787 34
nan nan nan 0
-88.62334 8.613453 2.066341 7
-9.46938 1.797798 0.1641926 17
-6.782295 1.939249 0.08570226 37
nan nan nan 0
-0.3540091 0.004760989 -0.08214208 9
-9.473829 0.05015915 -1.310806 17
-13.05514 0.1806352 -1.232738 12
-17.54771 0.1798981 -1.123052 9
-16.6098 1.677179 -1.164584 8
-9.145165 1.788877 -0.7009159 13
-6.635444 1.934508 -0.5613679 31
-24.91883 0.08824541 -1.012309 11
-22.94935 2.203641 -1.073282 12
-9.323851 1.77851 -0.4953598 30
-6.751888 1.931762 -0.4063168 10
-40.5124 0.2883283 -0.7064734 14
-33.70375 3.359983 -0.7854533 10
-9.283488 1.797608 -0.2745259 18
-6.667423 1.927611 -0.2385722 33
-7.461071 2.128308 -1.400009 10
-6.599243 1.932725 -0.7692928 25
-6.680499 1.949049 0.2779126 45
-92.27459 0.8590669 5.366925 7
-7.092722 2.111179 0.5986927 16
-88.67023 1.243458 10.88354 9
-7.571247 2.255461 1.432746 9
nan nan nan 0
nan nan nan 0
nan nan nan 0
-9.249783 1.807866 -0.04913952 13
-6.647003 1.939312 -0.08050933 36
-74.61516 0.5395691 2.200382 5
nan nan nan 0
-9.355069 1.809931 0.1623112 13
-6.708269 1.943384 0.08484707 39
nan nan nan 0
-0.3539904 0.005996682 -0.08214208 9
-9.473597 0.08322868 -1.310806 16
-13.06439 0.2263736 -1.233681 13
-17.57691 0.2415523 -1.124972 9
-16.62369 1.737219 -1.165979 9
-9.016629 1.796408 -0.6915001 11
-6.561756 1.937843 -0.5556687 30
-24.92336 0.1752618 -1.012512 11
-23.00116 2.289668 -1.076077 11
-9.199956 1.788159 -0.4890795 29
-6.678 1.935811 -0.4022507 12
-40.29119 0.4274378 -0.7026338 14
-33.43822 3.45145 -0.7795345 9
-9.154577 1.805798 -0.270883 15
-6.598326 1.932564 -0.2363264 36
-7.463046 2.157077 -1.401794 10
-6.516259 1.933077 -0.7603475 28
-6.606595 1.95248 0.2751034 44
-90.61396 1.160047 5.270501 29
-7.070999 2.131598 0.5974767 14
-88.75964 1.554613 10.89512 8
-7.45033 2.247696 1.411228 11
nan nan nan 0
nan nan nan 0
-76.94165 8.129478 0 7
-9.125731 1.816691 -0.0485112 10
-6.577876 1.944032 -0.07974926 36
-90.7299 0.9716184 2.675937 12
-75.71909 7.893531 1.766574 11
-9.230982 1.819353 0.1602588 9
-6.634297 1.947026 0.08399189 39
nan nan nan 0
-0.3588049 0.007251722 -0.08340581 8
-9.478201 0.1163551 -1.311494 17
-13.07347 0.2721787 -1.234624 12
-17.60091 0.3033281 -1.126572 8
-16.64232 1.797912 -1.167723 8
-8.893038 1.804056 -0.6824608 3
-6.492899 1.942119 -0.5503766 29
-24.97256 0.262774 -1.014545 12
-23.01787 2.372501 -1.077242 9
-9.081007 1.797936 -0.4830608 27
-6.604167 1.939367 -0.3981847 11
-39.92954 0.563052 -0.6963509 11
-33.20727 3.544816 -0.7744281 7
-9.030623 1.814095 -0.2673858 11
-6.524487 1.935634 -0.2339078 33
-7.464913 2.185887 -1.403578 9
-6.442869 1.935741 -0.7525204 17
-6.537534 1.956855 0.2724949 45
-90.71416 1.478043 5.2766 8
-7.082576 2.162102 0.599098 17
-88.75366 1.864432 10.89512 5
-7.31545 2.234792 1.38702 9
nan nan nan 0
nan nan nan 0
-77.86215 8.50164 0 5
-8.996833 1.823678 -0.04785671 7
-6.508799 1.948293 -0.07898918 35
nan nan nan 0
-75.4724 8.134229 1.761467 17
nan nan nan 0
-6.565174 1.951604 0.08319778 38
nan nan nan 0
-0.3587774 0.008504141 -0.08340581 9
-9.477737 0.1494395 -1.311494 16
-13.08737 0.318169 -1.236038 12
-17.62967 0.3653761 -1.128493 8
-16.65577 1.858204 -1.169118 8
-8.769506 1.810863 -0.6734216 4
-6.424094 1.945939 -0.5450845 31
-25.02144 0.3506317 -1.016577 12
-23.09885 2.462357 -1.081434 11
-8.971891 1.80888 -0.4775656 19
-6.530391 1.942432 -0.3941186 10
-39.58744 0.6964958 -0.6904171 11
-33.1947 3.66071 -0.7744281 9
-8.901828 1.820547 -0.263743 8
-6.455493 1.939653 -0.231662 32
-7.461953 2.213333 -1.40447 8
-6.355284 1.933566 -0.7430161 4
-6.468524 1.960772 0.2698863 45
-89.06655 1.762299 5.181047 11
-6.917901 2.138126 0.5857217 15
-88.16118 2.159921 10.82322 5
-7.161961 2.215146 1.359226 16
nan nan nan 0
-74.17103 1.352035 0.4270422 9
-77.09666 8.690507 0 10
-8.853308 1.826754 -0.04712367 3
-6.439774 1.952096 -0.07822911 37
-88.82202 1.571527 2.619903 6
-75.68697 8.424717 1.767154 4
-8.914388 1.821639 0.1549567 5
-6.4961 1.955723 0.08240367 39
nan nan nan 0
-0.3587455 0.009756456 -0.08340581 9
-9.48211 0.1826146 -1.312182 16
-13.10608 0.364396 -1.237924 11
-17.65323 0.4275095 -1.130093 9
-16.669 1.918612 -1.170514 8
-8.641155 1.815803 -0.6640058 3
-6.355342 1.949302 -0.5397924 32
-25.06003 0.4386613 -1.018204 13
-23.14472 2.548981 -1.083996 11
-8.848139 1.81607 -0.4712853 14
-6.451898 1.943563 -0.3897621 10
-39.2299 0.827244 -0.6842215 11
-33.05259 3.761869 -0.7714108 5
-8.768206 1.825102 -0.2599544 4
-6.39133 1.944674 -0.229589 33
-7.458892 2.240785 -1.405363 10
-6.301023 1.94107 -0.7374253 6
-6.399568 1.964231 0.2672777 46
nan nan nan 0
-6.919905 2.165245 0.5865324 16
-86.67975 2.426494 10.64224 5
-7.074402 2.215084 1.343984 6
nan nan nan 0
-73.85594 1.604224 0.4252567 11
-59.6382 6.933875 0 9
-8.675622 1.821651 -0.04620738 11
-6.370802 1.955441 -0.07746904 37
-87.4469 1.852647 2.579499 7
nan nan nan 0
-8.800299 1.830329 0.1530754 17
-6.427079 1.959384 0.08160956 39
nan nan nan 0
-0.3587093 0.01100865 -0.08340581 10
-9.486365 0.215822 -1.31287 16
-13.12463 0.4107575 -1.239809 11
-17.68156 0.4899484 -1.132013 9
-16.67706 1.978547 -1.17156 7
-8.547008 1.827174 -0.6572264 3
-6.291403 1.953692 -0.5349074 32
-25.11329 0.5272757 -1.02044 13
-23.25479 2.643284 -1.089586 62
nan nan nan 0
-6.383023 1.947089 -0.3859864 10
-39.28175 0.9655206 -0.6851814 16
-32.99457 3.87198 -0.7703662 3
-8.634662 1.828747 -0.2561658 4
-6.322436 1.947795 -0.2273432 34
-7.451025 2.266808 -1.405363 10
-6.246789 1.948219 -0.7318345 18
-6.335435 1.96872 0.2648698 45
-86.83163 2.324745 5.051805 12
-6.921804 2.192404 0.587343 16
-86.76995 2.732165 10.65443 23
nan nan nan 0
nan nan nan 0
-74.03482 1.866668 0.4263222 11
nan nan nan 0
-8.58609 1.834149 -0.04576232 18
-6.306658 1.959817 -0.07676743 38
-86.99523 2.146937 2.566375 18
-59.57769 7.053422 1.391951 4
-8.676478 1.836173 0.151023 25
-6.358112 1.962587 0.08081546 40
nan nan nan 0
-0.3538318 0.01217375 -0.08214208 9
-9.490506 0.2490613 -1.313558 16
-13.14302 0.457253 -1.241695 12
-17.70468 0.5524362 -1.133613 9
-16.67996 2.037958 -1.172258 7
-8.370068 1.819883 -0.6440442 14
-6.218007 1.954661 -0.5292083 36
-25.13627 0.6155402 -1.021456 13
-23.18093 2.716889 -1.086558 104
-8.532446 1.81338 -0.4550611 6
-6.323738 1.953113 -0.3827917 10
-39.41306 1.106402 -0.6875376 19
-37.50174 4.533416 -0.8760914 4
-8.49143 1.829376 -0.2520858 17
-6.2536 1.950458 -0.2250974 37
-7.447767 2.294254 -1.406255 9
-6.192582 1.955014 -0.7262437 27
-6.271351 1.972785 0.2624619 47
-86.94273 2.631446 5.058775 8
nan nan nan 0
-87.04755 3.045078 10.68977 9
-8.92716 2.865373 1.701722 11
nan nan nan 0
-74.23777 2.131096 0.4275317 12
nan nan nan 0
-8.462379 1.838608 -0.04513401 25
-6.242562 1.963768 -0.07606582 37
-87.02717 2.451717 2.567555 12
-89.23989 10.88018 2.086302 6
-8.562501 1.843281 0.1491416 30
-6.303514 1.969818 0.08020461 41
nan nan nan 0
-0.3537872 0.01340878 -0.08214208 9
-9.499478 0.2824764 -1.314934 15
-13.15626 0.5036934 -1.243109 12
-17.72259 0.6149198 -1.134894 9
-16.68264 2.097413 -1.172955 7
-8.2517 1.824308 -0.6353816 23
-6.163671 1.961203 -0.5251374 34
-25.21886 0.7056349 -1.024912 108
-23.22585 2.80437 -1.08912 9
-8.43334 1.823088 -0.4500892 15
-6.274016 1.961733 -0.3801778 10
-39.39397 1.243502 -0.6872757 24
nan nan nan 0
-8.377592 1.83545 -0.2488801 25
-6.184823 1.952666 -0.2228516 36
-7.444409 2.321706 -1.407147 10
-6.128941 1.958421 -0.7195348 27
-6.207316 1.976427 0.260054 47
-87.01781 2.937775 5.063712 9
nan nan nan 0
-87.07111 3.350245 10.69403 5
-8.542912 2.774718 1.629995 33
nan nan nan 0
-74.62466 2.402905 0.4298068 18
nan nan nan 0
-8.353387 1.845463 -0.04458423 30
-6.173755 1.965775 -0.07530575 38
-87.13297 2.759115 2.570946 10
nan nan nan 0
-8.453463 1.850686 0.1473457 33
-6.25371 1.978204 0.07965485 76
nan nan nan 0
-0.3537382 0.01464365 -0.08214208 9
-9.503384 0.3157957 -1.315622 15
-13.16934 0.5502317 -1.244523 11
-17.74028 0.6775352 -1.136174 9
-16.68017 2.156272 -1.173304 7
-8.167454 1.83559 -0.6293554 25
-6.099882 1.964326 -0.5202525 31
-25.24121 0.794441 -1.025928 129
-23.2407 2.888505 -1.090285 7
-8.29526 1.823542 -0.4430239 23
-6.195765 1.96097 -0.3758213 10
-39.35442 1.379784 -0.6866649 25
nan nan nan 0
-8.273572 1.842928 -0.2459658 29
-6.135141 1.960517 -0.2212968 35
-7.44095 2.349162 -1.40804 8
-6.074804 1.964474 -0.713944 23
-6.143333 1.979646 0.2576461 47
-87.0619 3.243546 5.066907 10
-6.079539 1.995201 0.5172186 3
-87.20764 3.660394 10.71232 12
-8.640632 2.839914 1.650616 9
nan nan nan 0
-74.88564 2.672989 0.4313619 5
nan nan nan 0
-8.249331 1.852678 -0.04406064 33
-6.124039 1.973476 -0.07477955 39
-87.21771 3.066579 2.573748 8
nan nan nan 0
-8.34448 1.857353 0.1455499 35
-6.189642 1.981681 0.07892182 17
nan nan nan 0
-0.3536849 0.01587833 -0.08214208 9
-9.512123 0.3493246 -1.316999 15
-13.17729 0.5966444 -1.245466 10
-17.75276 0.7400751 -1.137134 9
-16.68243 2.215796 -1.174001 7
-8.156137 1.862977 -0.6289788 31
-6.045619 1.970124 -0.5161816 3
-25.26325 0.883412 -1.026944 133
-23.23543 2.970245 -1.090518 6
-8.225499 1.838316 -0.439622 29
-6.131855 1.964264 -0.3723361 10
-39.32938 1.51638 -0.6863159 18
nan nan nan 0
-8.174478 1.850808 -0.2431973 34
-6.066468 1.961879 -0.219051 36
-7.432704 2.375121 -1.40804 9
-6.020701 1.970173 -0.7083532 3
-6.084152 1.983995 0.2554389 46
-87.10491 3.549662 5.070102 14
-6.011071 1.995939 0.5119491 9
-87.29844 3.969511 10.72511 10
nan nan nan 0
nan nan nan 0
nan nan nan 0
nan nan nan 0
-8.145327 1.859188 -0.04353704 36
-6.069593 1.979299 -0.07419487 11
-87.33133 3.375825 2.577435 10
nan nan nan 0
-8.240429 1.864386 0.1438395 36
-6.120873 1.98319 0.07812772 41
nan nan nan 0
-0.3487922 0.01695834 -0.08087836 9
-9.520742 0.3829183 -1.318375 15
-13.19004 0.6433598 -1.24688 10
-17.76004 0.802487 -1.137774 9
-16.67953 2.274688 -1.17435 7
-8.270996 1.919645 -0.6383947 17
nan nan nan 0
-25.22007 0.9700645 -1.025318 26
-23.28435 3.059136 -1.093313 6
-8.121655 1.844876 -0.4343884 32
-6.067997 1.967137 -0.3688509 10
-39.32385 1.653656 -0.6863159 15
nan nan nan 0
-8.07056 1.856896 -0.240283 36
-6.031096 1.973694 -0.2180145 2
-7.429049 2.402569 -1.408932 10
nan nan nan 0
-6.062961 2.000513 0.2548369 5
-87.21168 3.858981 5.077072 15
-5.980453 2.008954 0.5099224 6
-87.38318 4.279064 10.7373 8
-6.042946 2.03119 1.154804 5
nan nan nan 0
nan nan nan 0
nan nan nan 0
-8.04138 1.864996 -0.04301345 36
-5.996196 1.978485 -0.07337634 3
-87.38892 3.68359 2.579499 9
nan nan nan 0
-8.131559 1.869594 0.1420437 37
-6.080667 1.993613 0.07770012 10
nan nan nan 0
-0.3535654 0.01834711 -0.08214208 9
-9.524296 0.416363 -1.319063 14
-13.19766 0.6899136 -1.247823 11
-17.76211 0.8647172 -1.138094 9
-16.67643 2.333588 -1.174699 7
-8.264244 1.948504 -0.6383947 18
nan nan nan 0
nan nan nan 0
-23.32797 3.147738 -1.095875 8
-8.047055 1.857478 -0.4307249 47
nan nan nan 0
-38.47883 1.752813 -0.6716558 15
nan nan nan 0
-7.971567 1.86342 -0.2375144 37
nan nan nan 0
-7.420617 2.428487 -1.408932 9
-5.940861 1.990005 -0.7005261 3
nan nan nan 0
-87.2924 4.167901 5.082591 17
-5.954536 2.023386 0.508301 14
-87.45196 4.588478 10.74766 7
-5.97995 2.03322 1.144045 10
nan nan nan 0
-87.42 4.036459 0.5038171 9
-56.26255 7.939089 0 5
-7.942358 1.871248 -0.04251603 37
nan nan nan 0
-76.03226 3.471533 2.244472 6
-56.18416 7.84812 1.316168 15
-8.027625 1.875203 0.1403333 36
nan nan nan 0
nan nan nan 0
-0.3534992 0.01958118 -0.08214208 9
-9.532678 0.4500678 -1.320439 14
-13.20511 0.7365282 -1.248766 10
-17.76397 0.9269719 -1.138414 9
-16.67312 2.392493 -1.175048 7
-8.029515 1.922716 -0.6206929 11
nan nan nan 0
-25.39235 1.154236 -1.032636 12
-23.36137 3.235311 -1.097971 7
-8.171771 1.916364 -0.4377902 37
nan nan nan 0
-38.42753 1.88492 -0.6708705 13
nan nan nan 0
-7.872629 1.869277 -0.2347458 39
nan nan nan 0
-7.412095 2.454375 -1.408932 10
-5.980923 2.026718 -0.7061169 7
-5.958939 2.012341 0.2510243 5
-87.39198 4.478451 5.089271 9
-7.761351 2.669448 0.6643584 16
-87.48991 4.896761 10.75436 6
-5.935616 2.04125 1.136872 5
nan nan nan 0
-76.45401 3.798313 0.4406635 11
nan nan nan 0
-7.843393 1.876832 -0.04201861 39
nan nan nan 0
-75.89487 3.730788 2.240786 11
nan nan nan 0
-7.928614 1.881265 0.1387085 37
nan nan nan 0
nan nan nan 0
-0.3534288 0.020815 -0.08214208 10
-9.540941 0.4838362 -1.321815 15
-13.2124 0.7832034 -1.249709 11
-17.76561 0.9892499 -1.138734 9
-16.69428 2.455029 -1.17714 8
-7.882269 1.916537 -0.6097705 11
-5.729925 1.955876 -0.4913495 22
-25.39316 1.243108 -1.032839 12
-23.37466 3.320348 -1.099136 8
-8.233028 1.961089 -0.4414538 30
nan nan nan 0
-38.88002 2.043117 -0.6788986 9
nan nan nan 0
-7.768888 1.873293 -0.2318315 38
-5.825578 1.974034 -0.2112772 2
-7.403482 2.480233 -1.408932 10
-5.926824 2.031431 -0.7005261 6
nan nan nan 0
-87.48048 4.789202 5.09537 6
-7.761397 2.699805 0.6651691 21
-87.41284 5.198596 10.74705 6
-5.905232 2.053857 1.132389 14
nan nan nan 0
-87.67427 4.661777 0.5054585 9
nan nan nan 0
-7.744486 1.881748 -0.04152119 39
-6.107584 2.086535 -0.07501341 7
-75.81651 3.992277 2.238869 10
nan nan nan 0
-7.829661 1.886659 0.1370837 39
nan nan nan 0
nan nan nan 0
-0.3533539 0.02204857 -0.08214208 8
-9.549086 0.5176679 -1.323192 15
-13.21952 0.8299384 -1.250652 11
-17.76703 1.051551 -1.139054 9
-16.69054 2.514031 -1.177489 8
-7.778727 1.920119 -0.6022378 12
-5.741899 1.982388 -0.4929779 6
-25.37869 1.331218 -1.032433 12
-23.43707 3.412709 -1.10263 9
-8.245546 1.994516 -0.4425005 24
nan nan nan 0
-38.98745 2.185239 -0.6809056 8
nan nan nan 0
-7.674926 1.878986 -0.2292087 39
-5.771396 1.978113 -0.2095496 4
-7.399437 2.507643 -1.409824 18
-5.943162 2.060265 -0.7033215 10
-6.846391 2.366292 0.2893502 17
-87.57784 5.101205 5.102049 12
-7.770725 2.733509 0.6667904 12
nan nan nan 0
-8.876146 3.124971 1.707998 7
nan nan nan 0
-87.7523 4.973158 0.5060056 8
nan nan nan 0
-7.650496 1.887195 -0.04104996 39
-6.095539 2.106205 -0.07495494 7
-75.73225 4.252984 2.236805 9
-78.17477 11.755 1.834465 7
-7.735623 1.892574 0.1355444 37
-6.127875 2.104362 0.07867749 10
nan nan nan 0
-0.3581066 0.02352072 -0.08340581 9
-9.557109 0.5515622 -1.324568 13
-13.22647 0.8767326 -1.251594 11
-17.76325 1.113563 -1.139054 10
-16.71124 2.576834 -1.179582 8
-7.646241 1.915724 -0.5924453 20
-5.650284 1.972771 -0.4856503 6
-25.41379 1.422022 -1.034059 13
-23.45465 3.498918 -1.104027 9
-8.238534 2.023286 -0.4425005 25
-5.593844 1.921528 -0.3418405 23
-38.9197 2.31776 -0.6798584 10
-42.33646 6.472682 -0.993422 6
-7.581019 1.884048 -0.2265858 41
-5.670057 1.965429 -0.2060946 23
-7.399945 2.536653 -1.411609 8
-5.940621 2.082646 -0.7038806 18
-6.842803 2.391828 0.2895509 15
-87.66412 5.413332 5.108149 11
-7.770525 2.763964 0.6676011 12
-86.51281 5.751493 10.64102 5
-8.851284 3.150978 1.705308 8
nan nan nan 0
nan nan nan 0
nan nan nan 0
-7.556563 1.89201 -0.04057872 40
-6.107023 2.134083 -0.07518882 15
-76.146 4.542878 2.249486 8
-77.58982 11.94416 1.821699 8
-7.646493 1.899062 0.1340906 38
-6.120492 2.125739 0.07867749 10
nan nan nan 0
-0.3531914 0.02451489 -0.08214208 10
-9.565013 0.5855189 -1.325944 14
-13.2283 0.923241 -1.252066 12
-17.77419 1.176546 -1.140014 10
-10.6814 1.685868 -0.7533699 5
-7.596021 1.931334 -0.5890556 33
-5.652759 1.995809 -0.4864645 2
-25.40369 1.510429 -1.033856 15
-23.44229 3.580769 -1.104027 9
-7.824472 1.950492 -0.4205194 18
-5.568248 1.934473 -0.3406788 24
-38.91138 2.453601 -0.6798584 10
-42.2741 6.614244 -0.9924935 8
-7.496864 1.890923 -0.2242544 40
-5.502881 1.92886 -0.200221 38
-7.400339 2.565698 -1.413393 4
-5.74605 2.036798 -0.6815174 5
-6.857958 2.424042 0.2905542 13
-87.72938 5.724824 5.113086 15
-7.770206 2.794451 0.6684118 11
-86.61102 6.061752 10.65565 10
-8.821722 3.175181 1.701722 11
nan nan nan 0
nan nan nan 0
-10.42382 1.658431 0 26
-7.467536 1.897424 -0.04013366 40
-6.104249 2.157058 -0.07524728 9
-87.93605 5.553512 2.598521 6
-61.62821 9.707776 1.447541 18
-7.552565 1.903728 0.1325513 39
-6.103603 2.143769 0.07855532 23
nan nan nan 0
-0.3531037 0.02574761 -0.08214208 9
-9.572794 0.6195375 -1.32732 13
-13.22996 0.9697728 -1.252537 11
-17.80482 1.241 -1.142255 10
-10.5228 1.698528 -0.7425576 18
-7.540959 1.945371 -0.5852893 29
-5.575382 1.990331 -0.4803583 2
-25.42319 1.600659 -1.034872 15
nan nan nan 0
-7.682086 1.943473 -0.4131924 16
-5.500259 1.932333 -0.3369031 23
-38.88761 2.588418 -0.6795967 10
-10.24653 1.641251 -0.2399996 36
-7.412753 1.897234 -0.221923 41
-5.566739 1.973164 -0.2028123 38
-5.692533 1.994603 -1.086814 2
-5.678121 2.034995 -0.6742494 8
-6.840048 2.444596 0.2901528 12
-87.82339 6.038891 5.119766 11
-7.779134 2.828381 0.6700332 12
-86.67843 6.370586 10.66661 5
-8.759748 3.187423 1.691859 15
nan nan nan 0
-71.28761 4.790497 0.4112898 16
-10.47719 1.704431 0 32
-7.383407 1.903489 -0.03971479 40
-6.073149 2.169921 -0.07495494 6
-88.00091 5.866079 2.601028 11
-10.5705 1.704532 0.2476592 28
-7.463541 1.909002 0.1310975 39
-6.105503 2.168416 0.07867749 6
nan nan nan 0
-0.3530116 0.02698001 -0.08214208 9
-9.580456 0.6536174 -1.328696 12
-13.23146 1.016327 -1.253009 12
-17.83024 1.30532 -1.144175 9
-10.46267 1.726326 -0.738721 11
-7.456954 1.951466 -0.5792632 13
-5.516857 1.991121 -0.4758804 4
-25.47228 1.693025 -1.037108 14
-10.62809 1.700509 -0.5000731 21
-7.588206 1.94791 -0.4084821 14
-5.516991 1.959897 -0.3383553 23
-38.75366 2.715427 -0.6774151 4
-10.46766 1.714128 -0.2453381 34
-7.328691 1.902982 -0.2195915 39
-5.56452 1.994274 -0.202985 30
-5.606726 1.986461 -1.071645 3
-5.577584 2.020864 -0.6630678 11
-6.845565 2.473562 0.2907548 11
-87.87645 6.350807 5.124122 5
-7.778567 2.858963 0.6708438 9
-86.83874 6.6872 10.68916 8
-8.734724 3.212878 1.68917 6
nan nan nan 0
nan nan nan 0
-10.3824 1.726247 0 27
-7.299325 1.908991 -0.03929591 40
-6.065537 2.191107 -0.07495494 7
-88.06963 6.179514 2.603682 10
-10.47571 1.726801 0.2455702 31
-7.374574 1.913678 0.1296437 38
-6.083784 2.184634 0.07849423 6
nan nan nan 0
-0.3529153 0.02821209 -0.08214208 9
-9.583056 0.6874071 -1.329384 13
-13.23279 1.062904 -1.25348 12
-17.85045 1.369452 -1.145775 8
-10.25984 1.729702 -0.7247697 10
-7.315176 1.941635 -0.5687174 11
-5.449034 1.988103 -0.4705883 7
-25.531 1.786449 -1.039751 13
-10.54322 1.724711 -0.4963464 19
-7.518548 1.958013 -0.4050803 15
-5.463155 1.962227 -0.335451 22
nan nan nan 0
-10.34822 1.731701 -0.2426689 25
-7.24468 1.908165 -0.2172601 39
-5.529345 2.003445 -0.2019485 25
-5.562717 1.992713 -1.064507 6
-5.444571 1.994064 -0.6479726 4
-6.855655 2.504313 0.2915575 11
-78.10817 5.919609 4.555453 12
nan nan nan 0
-86.96822 7.002621 10.70805 9
-8.737284 3.248499 1.691859 7
nan nan nan 0
nan nan nan 0
-10.24321 1.739894 0 21
-7.215298 1.913929 -0.03887703 41
-6.057852 2.212266 -0.07495494 5
-88.20703 6.498638 2.608401 8
-10.33159 1.740137 0.2423207 24
-7.2905 1.919029 0.1282754 38
-6.099612 2.214407 0.07879966 6
nan nan nan 0
-0.3479879 0.02912068 -0.08087836 9
-9.590476 0.7215915 -1.33076 14
-13.23396 1.109503 -1.253951 13
-17.87043 1.433741 -1.147375 8
-10.09644 1.738448 -0.7136087 11
-7.072463 1.903598 -0.5502623 41
-5.385974 1.986364 -0.4657033 17
-25.58441 1.879938 -1.04219 14
-10.40905 1.740115 -0.4902905 14
-7.183414 1.897456 -0.387286 46
-5.42813 1.971037 -0.3337084 23
nan nan nan 0
-10.22878 1.748461 -0.2399996 18
-7.160724 1.912786 -0.2149287 39
nan nan nan 0
-5.48174 1.985248 -1.05023 8
-5.381681 1.992303 -0.6412637 6
-6.823445 2.519558 0.2905542 2
-76.0867 6.033738 4.438699 12
nan nan nan 0
-77.7746 6.536242 9.578321 28
-8.702874 3.270313 1.687376 6
nan nan nan 0
nan nan nan 0
-10.07942 1.748323 0 24
-7.131326 1.918303 -0.03845815 40
-5.431169 2.004329 -0.06723728 4
-75.09837 5.797332 2.221174 7
-10.19244 1.753334 0.2391872 19
-7.20648 1.923818 0.1269072 38
nan nan nan 0
nan nan nan 0
-0.3478841 0.03033521 -0.08087836 9
-9.592835 0.7554501 -1.331449 13
-13.23497 1.156122 -1.254423 12
-17.89018 1.498187 -1.148976 9
-9.94293 1.7478 -0.7031452 11
-6.988823 1.907251 -0.5442362 41
-5.351001 1.994682 -0.4632608 5
-25.68229 1.977263 -1.046459 122
-10.24536 1.749565 -0.4828372 18
-7.11405 1.905708 -0.3838842 44
-5.383743 1.976177 -0.3313849 37
nan nan nan 0
-10.08966 1.760974 -0.2368661 17
-7.081647 1.918152 -0.212743 40
nan nan nan 0
-5.414739 1.982329 -1.03863 14
-5.342132 1.998857 -0.6373501 7
-5.410823 2.018228 0.2303565 6
-75.75675 6.273773 4.420692 8
-5.386532 2.042204 0.4653346 9
-77.58322 6.79298 9.557603 9
nan nan nan 0
nan nan nan 0
nan nan nan 0
-9.95017 1.761726 0 18
-7.052235 1.923433 -0.03806546 42
-5.39136 2.011013 -0.06682801 3
-75.25204 6.073497 2.226335 6
-10.05332 1.765582 0.2360538 17
-7.122515 1.928043 0.1255389 40
-5.427955 2.012954 0.07024775 6
nan nan nan 0
-0.3477761 0.03154937 -0.08087836 8
-9.595075 0.7893338 -1.332137 13
-13.23581 1.202762 -1.254894 12
-17.91467 1.56322 -1.150896 9
-9.779661 1.754341 -0.6919842 14
-6.929268 1.916997 -0.5400932 42
-5.306712 1.999256 -0.4600041 5
-25.63539 2.063701 -1.044833 142
-10.05713 1.753608 -0.4742192 22
-7.025445 1.90826 -0.3794357 44
-5.376812 1.994958 -0.3313849 3
nan nan nan 0
-9.960416 1.774289 -0.2339648 16
-6.997802 1.921665 -0.2104115 40
-5.386424 2.015589 -0.1974569 3
-5.3755 1.989236 -1.032384 9
-5.297956 2.003396 -0.6328775 8
-5.38038 2.028269 0.2293532 5
-75.00833 6.475546 4.378289 15
-5.332852 2.043119 0.4612812 6
-77.42065 7.05116 9.540541 10
-5.355717 2.052985 1.038247 16
nan nan nan 0
nan nan nan 0
-9.806186 1.771583 0 17
-6.968378 1.926699 -0.03764658 41
-5.332864 2.010371 -0.06618486 6
-75.26525 6.339073 2.227367 11
-9.909328 1.775999 0.2328043 15
-7.03861 1.931706 0.1241706 40
-5.416215 2.03013 0.07018667 4
nan nan nan 0
-0.3476638 0.03276314 -0.08087836 9
-9.602131 0.8236629 -1.333513 14
-13.24144 1.249888 -1.255837 13
-17.93395 1.627992 -1.152496 9
-9.596844 1.756177 -0.679428 14
-6.85053 1.92096 -0.5344437 42
-5.262457 2.003545 -0.4567474 3
-25.6131 2.151921 -1.044223 36
-9.869004 1.756359 -0.4656013 22
-6.956163 1.915523 -0.3760338 45
-5.332439 1.999658 -0.3290614 5
nan nan nan 0
-9.831206 1.786724 -0.2310635 10
-6.918835 1.925958 -0.2082258 43
-5.318615 2.011343 -0.1952111 6
-5.327065 1.992438 -1.024353 9
-5.244534 2.004096 -0.6272867 3
-5.317264 2.025641 0.2269453 6
-74.0158 6.650301 4.321654 14
-5.302459 2.052702 0.4592544 5
-78.38371 7.414773 9.66241 8
-5.321007 2.06098 1.032868 16
nan nan nan 0
nan nan nan 0
-9.681924 1.784078 0 15
-6.889397 1.930755 -0.03725388 43
-5.288451 2.014699 -0.06571713 9
-75.39201 6.614852 2.231791 11
-9.760466 1.784534 0.2294387 10
-6.954768 1.934807 0.1228024 41
-5.334315 2.020617 0.06920931 5
nan nan nan 0
-0.3475474 0.03397651 -0.08087836 9
-9.60413 0.8576133 -1.334201 13
-13.24195 1.296585 -1.256309 13
-17.95797 1.693385 -1.154417 8
-9.448458 1.763157 -0.6693133 16
-6.771851 1.924398 -0.5287942 42
-5.213588 2.005757 -0.4530837 3
nan nan nan 0
-9.754697 1.771189 -0.4604772 19
-6.8773 1.919639 -0.3721086 45
-5.260103 1.993433 -0.3249953 8
-49.22813 4.485627 -0.8621488 8
-9.67254 1.792818 -0.2274658 8
-6.839923 1.929723 -0.2060401 41
-5.236905 2.001283 -0.1924471 2
-5.278676 1.995326 -1.016323 7
-5.24214 2.024185 -0.6278458 9
-5.291518 2.036992 0.2261426 4
-74.27045 6.93459 4.337918 13
-5.267426 2.060279 0.4568224 7
-77.89307 7.642816 9.605131 13
-5.281728 2.066961 1.026592 10
nan nan nan 0
nan nan nan 0
-9.542955 1.792961 0 12
-6.815285 1.93565 -0.03688737 41
-5.248738 2.020542 -0.06530786 3
-75.56257 6.895679 2.237542 10
-9.596925 1.789306 0.225725 4
-6.875803 1.938704 0.1215196 41
-5.294557 2.026683 0.06878171 4
nan nan nan 0
-0.3522471 0.0355968 -0.08214208 8
-9.606009 0.8915877 -1.334889 13
-13.24725 1.343801 -1.257251 12
-17.98174 1.758966 -1.156337 10
-9.309943 1.770985 -0.6598962 14
-6.693231 1.92731 -0.5231447 42
-5.160125 2.005841 -0.4490129 24
nan nan nan 0
-9.615849 1.780699 -0.4541884 15
-6.803298 1.924588 -0.3684451 45
-5.206516 1.993885 -0.322091 2
-49.15244 4.651792 -0.8611017 9
-9.518866 1.798754 -0.2239842 13
-6.765876 1.934335 -0.2040001 42
-5.150671 1.988872 -0.1895103 6
-5.230331 1.997902 -1.008292 4
nan nan nan 0
nan nan nan 0
-63.14159 6.118718 3.688799 10
-5.260201 2.078653 0.4568224 11
-75.17509 7.641342 9.273038 6
-5.228755 2.067253 1.017626 3
nan nan nan 0
-63.00793 6.005988 0.3643206 21
-9.399132 1.799956 0 7
-6.741223 1.940051 -0.03652085 42
-5.246311 2.040668 -0.06536632 11
-63.1688 5.987983 1.870959 9
-9.423649 1.791094 0.2217791 4
-6.801701 1.943449 0.1203224 40
-5.236176 2.025265 0.06810978 7
nan nan nan 0
-0.3521207 0.03682616 -0.08214208 9
-9.60777 0.9255856 -1.335577 14
-13.24743 1.390552 -1.257723 89
-18.00032 1.824232 -1.157937 10
-9.17149 1.777868 -0.6504791 12
-6.614675 1.929697 -0.5174952 43
-5.097452 2.001924 -0.4441279 23
-25.88261 2.447706 -1.056216 10
-9.423069 1.779081 -0.4453375 17
-6.729345 1.929044 -0.3647816 45
-5.15299 1.993988 -0.3191867 22
-49.09113 4.818947 -0.8603163 10
-9.36527 1.803639 -0.2205025 12
-6.68708 1.937063 -0.2018144 43
-5.069242 1.977706 -0.1867462 36
-5.172857 1.996612 -0.9984767 3
nan nan nan 0
-6.866791 2.700373 0.294768 11
-74.7616 7.507244 4.369576 14
-6.941587 2.773107 0.6047729 25
-75.12328 7.901111 9.269991 13
-5.226073 2.087321 1.018523 13
nan nan nan 0
nan nan nan 0
nan nan nan 0
-6.667214 1.943959 -0.03615433 41
-6.08572 2.39261 -0.07600736 16
nan nan nan 0
-9.28974 1.799291 0.2187617 15
-6.727651 1.9477 0.1191251 42
-5.270969 2.059948 0.06865954 12
nan nan nan 0
-0.3568075 0.03849603 -0.08340581 9
-9.609407 0.9596066 -1.336265 14
-13.25239 1.437856 -1.258666 96
-18.01369 1.889129 -1.159217 8
-9.057571 1.788633 -0.6428059 9
-6.540965 1.932974 -0.5122223 43
-5.03487 1.997594 -0.4392429 24
-25.88883 2.539498 -1.056826 11
-9.328514 1.794993 -0.441145 14
-6.655446 1.933008 -0.3611181 46
-5.099527 1.993742 -0.3162823 21
-49.07401 4.990278 -0.8603163 12
-9.211758 1.807474 -0.2170209 5
-6.617939 1.942082 -0.1999201 42
-5.094837 2.008248 -0.1879555 22
-5.133783 2.002113 -0.9922307 5
-5.049927 2.010785 -0.6071599 3
-6.861965 2.726174 0.2949687 27
-74.64558 7.758883 4.364347 12
-6.973445 2.814137 0.6084209 17
-77.22167 8.394297 9.53262 5
-7.06092 2.850955 1.380744 13
nan nan nan 0
-77.14524 7.896151 0.4464231 6
-9.087176 1.806131 0 10
-6.598056 1.948792 -0.03581399 41
-6.1052 2.424935 -0.07635815 5
-75.98344 7.737169 2.252288 7
-9.146083 1.804642 0.2155122 18
-6.658452 1.952865 0.1180134 41
nan nan nan 0
nan nan nan 0
-0.356671 0.03974129 -0.08340581 8
-9.610927 0.9936504 -1.336953 14
-13.26213 1.485764 -1.26008 96
-18.02187 1.953606 -1.160177 9
-8.938799 1.797642 -0.6347839 5
-6.472089 1.93719 -0.507326 42
-4.977005 1.99471 -0.4347649 24
-25.92951 2.634891 -1.058859 13
-9.199656 1.803549 -0.4353221 8
-6.586391 1.93789 -0.3577163 46
-5.050771 1.994986 -0.3136685 23
-49.15075 5.171476 -0.8619743 11
-9.058334 1.81026 -0.2135393 4
-6.544055 1.945217 -0.1978801 40
-5.055311 2.013047 -0.1867462 16
-5.021526 1.97844 -0.9717079 20
-5.019839 2.019106 -0.6043645 6
-6.889488 2.765024 0.2965739 17
-74.41455 7.997543 4.35244 11
-7.065075 2.879923 0.6173385 16
-74.53366 8.36563 9.204182 8
-7.000838 2.855115 1.370881 19
nan nan nan 0
nan nan nan 0
-8.938692 1.809106 0 16
-6.528946 1.953167 -0.03547365 41
-6.105976 2.449963 -0.07647509 7
-78.11311 8.229458 2.316285 9
-9.007402 1.809995 0.2123788 26
-6.589301 1.957572 0.1169017 40
-6.129171 2.445755 0.08014353 7
nan nan nan 0
-0.3565301 0.04098606 -0.08340581 9
-9.6074 1.027193 -1.336953 14
-13.26676 1.533187 -1.261023 95
-18.02486 2.017609 -1.160818 9
nan nan nan 0
-6.403265 1.94095 -0.5024298 43
-4.933074 1.997072 -0.4315083 24
-25.98971 2.732685 -1.061704 12
nan nan nan 0
-6.512599 1.940887 -0.3540527 44
-5.002068 1.995914 -0.3110546 23
-49.19701 5.350032 -0.8631087 10
-8.900108 1.811002 -0.2099416 16
-6.475016 1.949301 -0.1959858 41
-5.038986 2.026942 -0.1864007 12
-4.909498 1.954008 -0.9511852 20
-4.994355 2.029117 -0.6021281 12
-6.889051 2.792817 0.2969753 15
nan nan nan 0
-7.073408 2.91217 0.6189598 5
-74.42019 8.616052 9.193823 10
-6.945361 2.860766 1.361915 15
nan nan nan 0
-77.87354 8.520395 0.4509731 6
-8.819684 1.817114 0 25
-6.459887 1.957082 -0.03513332 41
-6.125179 2.482552 -0.07682589 7
-76.11141 8.287444 2.257744 11
-8.88839 1.818407 0.2097095 33
-6.520197 1.961821 0.11579 40
-6.134503 2.472754 0.08032678 8
nan nan nan 0
-0.3563848 0.04223033 -0.08340581 9
-9.603755 1.060723 -1.336953 14
-13.27615 1.581248 -1.262437 93
-18.03257 2.082228 -1.161778 10
-8.652577 1.803074 -0.6152521 3
-6.33926 1.945717 -0.4979102 43
-4.884576 1.997261 -0.4278446 24
-26.00982 2.826621 -1.062924 13
-8.834425 1.796158 -0.4185521 5
-6.443647 1.944836 -0.3506509 46
-4.95342 1.996526 -0.3084406 23
-49.28236 5.533431 -0.8649412 9
-8.756672 1.813699 -0.2066921 21
-6.406029 1.952928 -0.1940915 42
-5.008742 2.035091 -0.1855369 26
-4.847895 1.949056 -0.9404777 19
-5.01481 2.057884 -0.6054826 13
-6.888505 2.820641 0.2973766 13
-74.04447 8.481093 4.334143 11
-8.535259 3.550206 0.7486699 12
-76.19324 9.090838 9.416843 9
-6.899011 2.869851 1.354743 7
nan nan nan 0
-78.01226 8.811241 0.4519523 7
-8.700729 1.824313 0 29
-6.39566 1.962007 -0.03481916 43
-6.125727 2.507714 -0.07694283 7
-77.88985 8.756172 2.311419 8
-8.769428 1.82601 0.2070403 35
-6.455928 1.967069 0.1147638 40
-6.130464 2.496042 0.08038787 8
nan nan nan 0
-0.3514243 0.0429659 -0.08214208 9
-9.599995 1.094239 -1.336953 14
-13.28043 1.628789 -1.26338 16
-18.03511 2.146338 -1.162418 9
-8.509603 1.804324 -0.6054861 17
-6.275301 1.950062 -0.4933906 44
-4.840742 1.999042 -0.4245878 23
-26.03951 2.921844 -1.06455 13
-8.749844 1.810807 -0.4148254 18
-6.379523 1.949788 -0.3475107 47
-4.909451 1.99871 -0.3061172 21
-49.31738 5.711746 -0.8659011 11
-8.637786 1.820567 -0.2040229 27
-6.341871 1.957572 -0.192343 41
-4.96464 2.037348 -0.1841549 13
-4.777273 1.939986 -0.9279855 19
-4.984655 2.065841 -0.6026872 6
-6.892462 2.850407 0.2979786 13
-59.76753 7.058317 3.499436 9
-8.550375 3.591574 0.7511019 12
-73.511 9.031363 9.089016 10
-8.620789 3.622981 1.697239 3
nan nan nan 0
-59.80407 6.967495 0.3465524 9
-8.591615 1.832789 0 33
-6.326704 1.965024 -0.03447882 42
-6.126173 2.53291 -0.07705976 7
-59.79263 6.934481 1.774816 9
-8.655413 1.833839 0.2044871 38
-6.396478 1.973367 0.1138231 40
-6.130959 2.521236 0.08051004 7
nan nan nan 0
-0.3512722 0.04419234 -0.08214208 9
-9.591197 1.127168 -1.336265 15
-13.28948 1.677 -1.264794 10
-18.03741 2.21049 -1.163058 9
-8.410611 1.814055 -0.5988593 17
-6.211389 1.953984 -0.488871 44
-4.764774 1.987081 -0.4184816 23
-26.07382 3.01788 -1.06638 15
-8.62128 1.815634 -0.4090025 29
-6.315443 1.954317 -0.3443706 46
-4.860912 1.998708 -0.3035032 21
-49.46096 5.903395 -0.8687807 9
-8.523847 1.827674 -0.2014697 32
-6.28253 1.963284 -0.1907401 40
-4.929812 2.043158 -0.1831184 10
-4.720424 1.936063 -0.9181703 18
-4.853716 2.031307 -0.5875921 3
-6.891689 2.878306 0.2983799 13
-79.60253 9.680778 4.663495 4
-8.546959 3.625296 0.7519126 12
-75.17274 9.501875 9.29863 11
-8.580928 3.641504 1.691859 7
nan nan nan 0
-89.38667 10.72763 0.5183023 9
-8.482547 1.840525 0 35
-6.262573 1.969084 -0.03416466 43
-6.126518 2.558139 -0.0771767 7
nan nan nan 0
-8.536565 1.839843 0.2018178 38
-6.337063 1.979275 0.1128824 42
-6.159045 2.557992 0.08099871 7
nan nan nan 0
-0.3511159 0.04541824 -0.08214208 9
-9.587204 1.16064 -1.336265 15
-13.29836 1.725294 -1.266208 11
-18.04444 2.275307 -1.164018 9
-8.297038 1.819914 -0.591186 33
-6.147526 1.957483 -0.4843514 43
-4.693539 1.976552 -0.4127824 23
-26.10281 3.113602 -1.068006 14
-8.497674 1.820631 -0.4034125 34
-6.256174 1.959916 -0.3414921 46
-4.817043 2.000312 -0.3011798 22
-49.45493 6.077837 -0.8690425 8
-8.41485 1.835073 -0.1990325 34
-6.223227 1.968607 -0.1891372 40
-4.871967 2.03908 -0.1812181 15
-4.668204 1.933654 -0.9092474 17
-4.78255 2.021091 -0.579765 4
-6.890803 2.906235 0.2987812 13
-75.89812 9.499493 4.448283 12
-8.543413 3.659039 0.7527233 12
nan nan nan 0
-8.595285 3.683076 1.697239 4
nan nan nan 0
-89.48761 11.05674 0.5191087 8
-8.373532 1.847522 0 36
-6.203258 1.974238 -0.03387669 43
-6.135972 2.587294 -0.07741057 7
-78.24033 9.626233 2.32469 12
-8.422667 1.84611 0.1992647 38
-6.277686 1.984792 0.1119417 48
-6.154688 2.581413 0.0810598 8
nan nan nan 0
-0.3509552 0.04664358 -0.08214208 9
-9.583095 1.194099 -1.336265 15
-13.31199 1.774327 -1.268094 8
-18.05123 2.3402 -1.164978 8
-8.203004 1.829341 -0.584908 34
-6.088461 1.962092 -0.4802084 43
-4.636189 1.971417 -0.4083045 19
-26.12154 3.208347 -1.069226 14
-8.388781 1.827974 -0.3985212 36
-6.187426 1.962105 -0.3380903 47
-4.773222 2.001633 -0.2988563 21
-49.44334 6.251684 -0.8692171 7
-8.315666 1.843894 -0.1968275 37
-6.178242 1.978115 -0.1879715 38
-4.818811 2.036573 -0.1794906 11
-4.620595 1.932807 -0.9012167 18
-4.624726 1.973259 -0.5613154 6
-6.894402 2.936153 0.2993832 11
-75.91895 9.771374 4.451478 7
nan nan nan 0
-75.67519 10.10258 9.369314 11
-8.53273 3.691542 1.687376 12
nan nan nan 0
nan nan nan 0
-8.264573 1.853782 0 37
-6.143983 1.979003 -0.03358871 44
-6.131502 2.610659 -0.07746904 7
-78.3897 9.922492 2.330146 9
-8.313705 1.852689 0.1968275 38
-6.208827 1.986869 0.11083 43
-6.14564 2.602881 0.0810598 8
nan nan nan 0
-0.3507902 0.04786836 -0.08214208 10
-9.578868 1.227543 -1.336265 15
-13.32545 1.823475 -1.269979 7
-18.05284 2.404511 -1.165618 8
-8.138192 1.844744 -0.5807226 48
-6.043658 1.970954 -0.4771953 10
-4.546894 1.952108 -0.400977 32
-26.1647 3.306386 -1.071462 13
-8.289695 1.836738 -0.3940958 39
-6.133 1.968419 -0.3354735 47
-4.72945 2.002673 -0.2965329 19
nan nan nan 0
-8.211648 1.850949 -0.1945065 38
-6.104742 1.978082 -0.1859315 37
-4.78411 2.041584 -0.1784541 3
-4.577581 1.933571 -0.8940784 16
-4.499223 1.938147 -0.5467793 18
-8.471623 3.644221 0.3688112 5
-61.82566 8.177965 3.626356 11
nan nan nan 0
-75.56572 10.35657 9.360175 15
-8.501765 3.713417 1.68379 9
nan nan nan 0
-87.60854 11.44619 0.5086551 3
-8.155673 1.859303 0 37
-6.089504 1.984928 -0.03332691 36
nan nan nan 0
-78.7709 10.25021 2.342533 6
-8.209682 1.859635 0.1945065 38
-6.130518 1.985407 0.1095472 41
-6.136517 2.624318 0.0810598 7
nan nan nan 0
-0.350621 0.04909256 -0.08214208 9
-9.574525 1.260972 -1.336265 14
-13.33872 1.872739 -1.271865 6
-18.04928 2.468187 -1.165938 7
-8.214336 1.892157 -0.5866519 27
-5.984665 1.974836 -0.4730523 3
-4.626884 2.005723 -0.4087116 19
-26.25704 3.411192 -1.07573 12
-8.19065 1.844833 -0.3896703 40
-6.06911 1.971289 -0.3323333 42
-4.699493 2.009334 -0.2950807 22
-49.5967 6.623155 -0.8727075 5
-8.107683 1.8573 -0.1921854 38
-6.074057 1.991587 -0.185203 8
nan nan nan 0
-4.498432 1.918579 -0.8798017 23
-4.6245 2.011457 -0.5629926 35
nan nan nan 0
-61.96985 8.417226 3.636521 12
-4.69783 2.067718 0.4142613 6
-89.64336 12.60391 11.11022 6
-8.51575 3.754996 1.68917 2
nan nan nan 0
nan nan nan 0
-8.051708 1.865214 0 37
-6.030312 1.988931 -0.03303893 17
nan nan nan 0
-78.69501 10.51981 2.341353 5
-8.105709 1.865876 0.1921854 40
-6.085549 1.994329 0.1088631 29
nan nan nan 0
nan nan nan 0
-0.3504474 0.05031615 -0.08214208 9
-9.574973 1.295047 -1.336953 16
-13.34688 1.921411 -1.273279 5
-18.08503 2.537403 -1.168819 6
-8.246536 1.929904 -0.5894421 25
nan nan nan 0
-4.665485 2.041892 -0.4127824 40
-26.24002 3.502166 -1.075527 13
-8.091651 1.852259 -0.3852449 41
-6.014761 1.976859 -0.3297165 12
-4.609998 1.990029 -0.2898529 41
nan nan nan 0
-8.008644 1.864079 -0.1899803 39
nan nan nan 0
-4.710198 2.048958 -0.1762083 4
-4.51429 1.944024 -0.8842632 34
-4.649281 2.041607 -0.5669062 41
-4.685922 2.051944 0.2038695 6
-62.03897 8.647263 3.642329 7
-4.676928 2.078018 0.4130453 10
-89.68724 12.92949 11.12119 10
nan nan nan 0
nan nan nan 0
-56.25211 7.751223 0.3268259 9
-7.95267 1.871567 0 37
-5.947454 1.984624 -0.03262006 38
-4.666446 2.043458 -0.05911034 14
-78.65782 10.79445 2.341353 4
-8.001795 1.871415 0.1898643 39
-6.002634 1.990364 0.1074948 6
nan nan nan 0
nan nan nan 0
-0.3502697 0.05153913 -0.08214208 9
-9.575298 1.32914 -1.337641 13
-13.35487 1.970162 -1.274693 4
-18.10076 2.604061 -1.170419 6
-8.244601 1.95983 -0.5897909 18
-5.876269 1.984631 -0.4655197 3
-4.644661 2.052108 -0.4115612 38
-26.09894 3.576133 -1.070242 12
-8.017027 1.864668 -0.3819841 47
nan nan nan 0
-4.63504 2.020103 -0.2918859 15
nan nan nan 0
-7.909658 1.870191 -0.1877753 39
nan nan nan 0
-4.666432 2.049274 -0.1748262 2
-4.557082 1.981401 -0.8940784 28
-4.628505 2.051767 -0.5652289 39
-4.678731 2.068288 0.2038695 6
-56.22203 8.037152 3.302232 13
-4.628742 2.075931 0.4093972 3
-77.97169 11.51922 9.672769 18
-4.627206 2.076217 0.9172083 18
nan nan nan 0
-56.23956 7.949629 0.3269123 2
-7.853686 1.877251 0 37
-5.916807 1.99737 -0.03248915 36
-4.641002 2.051629 -0.05887647 2
-56.18555 7.912044 1.672922 13
-7.902806 1.877406 0.1876593 38
-5.976692 2.00494 0.1071528 5
-4.681468 2.05895 0.06200128 6
nan nan nan 0
-0.3548825 0.05340381 -0.08340581 10
-9.570601 1.362556 -1.337641 11
-13.3676 2.019735 -1.276579 5
-18.13105 2.673039 -1.172979 6
-7.888598 1.904396 -0.5646787 14
-5.812696 1.985771 -0.4610001 10
-4.614725 2.058134 -0.4095258 40
-25.87851 3.638048 -1.061704 9
-8.224354 1.943123 -0.3922324 34
-5.920368 1.991713 -0.3252679 4
-4.64166 2.042315 -0.2927572 24
nan nan nan 0
-7.810727 1.875634 -0.1855703 38
-5.863585 1.990757 -0.1793744 3
-4.627288 2.05134 -0.173617 3
-4.604171 2.021082 -0.9047859 29
-4.589584 2.053671 -0.5613154 39
-4.635002 2.068281 0.2022642 3
nan nan nan 0
-4.607855 2.085894 0.4081811 13
-77.96535 11.79652 9.677034 11
-4.637844 2.100494 0.9207945 4
nan nan nan 0
nan nan nan 0
-7.75962 1.883445 0 38
-6.042272 2.063289 -0.03322219 10
-4.615558 2.059648 -0.0586426 5
nan nan nan 0
-7.803874 1.882728 0.1854542 39
-6.05013 2.053123 0.1086065 8
-4.624011 2.052911 0.06132935 3
nan nan nan 0
-0.3546939 0.05464226 -0.08340581 10
-9.570687 1.396667 -1.338329 9
-13.37031 2.067902 -1.277522 5
-18.14135 2.739287 -1.17426 7
-7.814076 1.915311 -0.5597957 15
-5.744474 1.984861 -0.4561038 6
-4.575719 2.059875 -0.4066762 42
-25.70247 3.704873 -1.054996 8
-8.256376 1.981133 -0.3940958 25
-5.837756 1.986607 -0.3210811 4
-4.629943 2.056474 -0.2924668 13
-53.84658 7.956924 -0.9494109 6
-7.716713 1.881593 -0.1834813 39
-5.799883 1.991717 -0.1776258 4
-4.569951 2.044974 -0.1717167 5
-4.592593 2.035144 -0.9038936 24
-4.550705 2.055327 -0.5574018 37
-4.564012 2.055654 0.199455 12
-76.33939 11.45541 4.489234 12
-4.586954 2.095738 0.4069651 23
-77.97765 12.07695 9.683738 12
-4.590241 2.098221 0.9127253 4
nan nan nan 0
nan nan nan 0
-7.660753 1.887811 0 38
-6.124818 2.115407 -0.03371961 10
-4.558221 2.053106 -0.05799946 19
-61.8443 9.149087 1.843384 7
-7.709857 1.888571 0.1833653 39
-6.142215 2.10834 0.1104024 13
-4.598577 2.060841 0.061085 7
nan nan nan 0
-0.354501 0.05588004 -0.08340581 10
-9.570652 1.430796 -1.339018 7
-13.36792 2.115336 -1.277993 7
-18.13661 2.803356 -1.17458 6
-7.749258 1.928136 -0.5556102 16
-5.699861 1.991732 -0.4530907 4
-4.536758 2.061368 -0.4038266 42
-25.46698 3.761766 -1.045849 9
-8.259116 2.012304 -0.3945616 26
-5.79302 1.993961 -0.3189876 6
-4.609079 2.066482 -0.2915955 13
-54.10517 8.188195 -0.9544721 8
-7.622753 1.886918 -0.1813924 40
-5.731526 1.990615 -0.1757315 6
-4.508164 2.03617 -0.1696436 5
-4.558527 2.039081 -0.8985398 17
-4.516391 2.058804 -0.5540473 37
-4.574992 2.079863 0.2002576 24
-61.47308 9.445191 3.616481 6
nan nan nan 0
nan nan nan 0
-4.556104 2.101837 0.9073458 18
nan nan nan 0
nan nan nan 0
-7.566801 1.892722 0 39
-6.136276 2.143374 -0.03382433 17
-4.610166 2.095968 -0.05875953 4
-61.17453 9.268389 1.824362 14
-7.615896 1.893781 0.1812763 40
-6.120651 2.124845 0.1101459 15
-4.559483 2.062423 0.06065741 23
nan nan nan 0
-0.3590916 0.05780964 -0.08466953 10
-9.570496 1.464942 -1.339706 36
-13.37029 2.163573 -1.278936 7
-18.14643 2.869759 -1.17586 6
-7.640918 1.929551 -0.5482858 15
-5.63647 1.991664 -0.4485711 5
-4.497842 2.062615 -0.400977 44
-25.46357 3.852132 -1.046255 13
-8.266587 2.044716 -0.3952603 29
-5.743588 1.999385 -0.3166325 6
-4.556384 2.06193 -0.2886911 11
-54.3381 8.417542 -0.9590969 10
-7.5337 1.892828 -0.1794194 39
-5.672678 1.992376 -0.1741287 12
-4.482851 2.043583 -0.1689526 6
-4.52001 2.040776 -0.8922938 17
-4.477596 2.059984 -0.5501338 37
nan nan nan 0
-61.2277 9.626397 3.603992 23
nan nan nan 0
-90.10928 14.59989 11.20345 7
-4.56211 2.123972 0.9100356 17
nan nan nan 0
nan nan nan 0
-7.477756 1.898229 0 39
-6.128757 2.16478 -0.03382433 17
-6.174306 2.835183 -0.07898918 7
-60.44542 9.373941 1.80357 15
-7.521993 1.898359 0.1791873 40
-6.13678 2.154483 0.1105734 30
-4.615898 2.107463 0.0615126 7
nan nan nan 0
-0.3588876 0.05906275 -0.08466953 10
-9.570217 1.499104 -1.340394 23
-13.36756 2.211041 -1.279408 10
-10.53552 1.70611 -0.6820243 25
-7.556825 1.936418 -0.5427053 15
-5.582537 1.994536 -0.4448048 24
-4.463494 2.065714 -0.3985345 45
-25.66721 3.974584 -1.0552 19
-8.2594 2.073559 -0.3952603 27
-5.670643 1.99619 -0.312969 6
-4.512853 2.061193 -0.2863677 14
-10.50121 1.66879 -0.1849082 20
-7.439854 1.896905 -0.1773305 39
-5.580923 1.982031 -0.1715058 40
-4.448466 2.046657 -0.1679161 26
-4.486011 2.044272 -0.88694 17
-4.443353 2.063017 -0.5467793 37
-7.745793 3.591056 0.3413209 23
-61.0853 9.822639 3.597603 15
-6.06158 2.848646 0.5415392 14
-10.41304 1.729246 1.291206 26
-4.568017 2.146173 0.9127253 11
nan nan nan 0
-10.44218 1.667 0.06067691 36
-7.393608 1.904384 0 39
-6.097622 2.177745 -0.03369343 11
-6.159837 2.854612 -0.07893071 4
-60.25438 9.559833 1.798852 14
-7.432994 1.903543 0.1772144 41
-6.129222 2.175891 0.1105734 16
-6.183389 2.851258 0.0827091 9
nan nan nan 0
-0.3586793 0.06031514 -0.08466953 10
-9.569817 1.533282 -1.341082 13
-13.37449 2.260172 -1.280822 11
-10.47534 1.73394 -0.6785038 27
-7.429328 1.931437 -0.5339858 14
-5.523965 1.995361 -0.4406618 23
-4.424666 2.066484 -0.3956849 45
-10.66218 1.692497 -0.4376507 18
-7.981058 2.033387 -0.382217 28
-5.611901 1.997539 -0.3100905 7
-4.469384 2.060177 -0.2840442 14
-10.16468 1.651884 -0.1790617 43
-7.350914 1.901601 -0.1753575 39
-5.564564 1.99812 -0.1712144 43
-4.418645 2.051625 -0.1670523 6
-4.447575 2.045495 -0.880694 18
-4.404646 2.063722 -0.5428658 37
-7.746782 3.624432 0.3419228 14
-10.58865 1.745205 0.6221091 16
-6.038096 2.86337 0.5403232 17
-10.33354 1.753169 1.282065 38
-6.119767 2.903502 1.227427 25
nan nan nan 0
-10.51033 1.715482 0.06110888 29
-7.309509 1.909975 0 40
-6.10409 2.204115 -0.03377197 11
-4.6106 2.154738 -0.05905187 16
-10.44763 1.699716 0.3111384 45
-7.348891 1.909384 0.1753575 41
-6.107474 2.192203 0.1103169 13
-6.159806 2.866486 0.08252583 3
nan nan nan 0
-0.3632469 0.0623094 -0.08593326 9
-9.569294 1.567475 -1.34177 9
-13.37633 2.308533 -1.281765 12
-10.26749 1.736483 -0.6653818 8
-7.273021 1.917965 -0.5231735 13
-5.474822 1.999225 -0.4372721 34
-4.390394 2.069139 -0.3932424 45
-10.55264 1.712949 -0.4333819 100
-7.640233 1.975063 -0.3661457 17
-5.548522 1.996809 -0.3069504 6
-4.439548 2.065214 -0.282592 14
-10.37093 1.722465 -0.1828139 34
-7.262031 1.9057 -0.1733846 39
-5.515279 2.002169 -0.1699029 42
-4.388844 2.056411 -0.1661886 26
-4.413646 2.048551 -0.8753402 17
-4.370479 2.066311 -0.5395113 37
-6.148828 2.901766 0.2714916 26
-10.44958 1.759842 0.6142673 15
-6.041545 2.890894 0.5415392 17
-10.43005 1.806968 1.294862 9
-6.10516 2.922719 1.226531 17
nan nan nan 0
-10.3859 1.732478 0.06041773 19
-7.230297 1.916282 0 39
-6.091662 2.223693 -0.03374578 8
-4.598531 2.168682 -0.0589934 8
-10.43177 1.73454 0.3108434 31
-7.264839 1.914663 0.1735007 38
-6.118581 2.220335 0.1106589 13
-6.104525 2.866683 0.08191499 43
nan nan nan 0
-0.3630272 0.06357698 -0.08593326 10
-9.568649 1.601683 -1.342458 15
-13.36329 2.354349 -1.281293 12
-10.13352 1.750298 -0.6570605 10
-7.097624 1.898276 -0.5109661 41
-5.430397 2.004499 -0.434259 9
-4.356157 2.071579 -0.3907999 43
-10.39873 1.725321 -0.4272837 50
-7.241939 1.899197 -0.3472794 46
-5.489909 1.997371 -0.3040719 6
-4.409731 2.070068 -0.2811399 14
-10.2367 1.736979 -0.1805451 15
-7.168381 1.907917 -0.1712956 39
-5.475417 2.009346 -0.1688829 16
-4.359064 2.061013 -0.1653248 7
-4.375298 2.049304 -0.8690942 18
-4.331866 2.066543 -0.5355977 36
-6.14317 2.925363 0.2716922 8
-10.3007 1.771843 0.6058447 4
-6.031417 2.911966 0.5415392 17
-10.47744 1.852844 1.301564 6
-7.277065 3.516247 1.465919 12
nan nan nan 0
-10.24177 1.745277 0.05961139 13
-7.146299 1.920762 0 39
-5.474126 2.019757 -0.03034241 5
-4.599957 2.189026 -0.05911034 9
-10.29753 1.74925 0.3070095 18
-7.185669 1.920667 0.1717599 40
nan nan nan 0
-6.139643 2.90942 0.08252583 11
nan nan nan 0
-0.3675781 0.06561975 -0.08719698 10
-9.563001 1.635074 -1.342458 27
-9.866531 1.775194 -0.9456491 7
-10.02414 1.767518 -0.6503395 10
-7.009113 1.900865 -0.5050368 42
-5.386001 2.009487 -0.431246 7
-4.321957 2.073806 -0.3883575 43
-10.21531 1.731646 -0.4199658 54
-7.167686 1.906508 -0.3440186 43
-5.421989 1.994098 -0.3006701 19
-4.375427 2.072597 -0.2793972 15
-10.09263 1.748875 -0.1781018 11
-7.103761 1.917312 -0.169903 38
-5.412146 2.00757 -0.1671344 6
-4.324797 2.063276 -0.1642883 6
-4.341444 2.051922 -0.8637404 18
-4.297778 2.06869 -0.5322433 37
-4.705985 2.259744 0.2080833 5
nan nan nan 0
-6.034651 2.93956 0.5427552 17
-10.51487 1.897316 1.307049 7
-7.255907 3.537309 1.464126 17
nan nan nan 0
-10.08782 1.755383 0.05874746 9
-7.067186 1.925994 0 39
-5.429569 2.024865 -0.03013297 4
-4.601297 2.209408 -0.05922727 8
-10.13377 1.757936 0.3022908 14
-7.101722 1.924836 0.169903 39
-5.465508 2.026447 0.09902864 7
-4.659574 2.226586 0.06261213 10
nan nan nan 0
-0.3673468 0.06690244 -0.08719698 9
-9.562113 1.669294 -1.343146 32
-9.6889 1.778264 -0.9291497 17
-9.82637 1.768138 -0.6378576 11
-6.944719 1.909466 -0.5008515 44
-5.341638 2.014189 -0.4282329 9
