# .PCD v0.7 - Point Cloud Data file format
VERSION 0.7
FIELDS x y z intensity
SIZE 4 4 4 4
TYPE F F F F
COUNT 1 1 1 1
WIDTH 1613
HEIGHT 1
VIEWPOINT 0 0 0 1 0 0 0
POINTS 1613
DATA ascii
nan nan nan 0
-14.57804 -11.80398 1.522471 30
nan nan nan 0
-14.02436 -11.35188 3.281507 25
-7.630428 -10.73602 3.518645 41
-18.83935 -27.05617 0.1896621 9
-20.33941 -24.04004 0 12
nan nan nan 0
-17.46312 -14.29534 -0.2634532 6
-26.82584 -38.5731 1.385082 10
-28.98664 -34.35885 1.042745 34
-21.99623 -21.72393 0.5281528 6
-34.222 -28.11716 0.5406634 7
nan nan nan 0
-0.1912648 -0.2687434 -0.07582346 8
-3.858019 -5.526871 -0.9309819 29
-5.000423 -7.035145 -0.8136542 28
-6.071433 -8.607141 -0.6730629 88
-6.639091 -7.809289 -0.7139574 17
-7.275486 -7.107578 -0.7653204 18
-7.785087 -6.333981 -0.8166091 14
-7.806182 -11.22597 -0.554737 106
-8.330358 -9.896607 -0.601392 13
-8.746174 -8.624366 -0.6416388 11
-9.335826 -7.672753 -0.7008166 10
-10.86902 -15.51299 -0.3299377 26
-11.30187 -13.32859 -0.4047962 24
-11.42309 -11.20061 -0.4652659 36
-11.80981 -9.649173 -0.5258607 36
-4.715789 -3.885936 -1.101091 44
-6.38808 -5.185649 -0.9213623 20
-23.65382 -19.22317 1.222615 9
nan nan nan 0
nan nan nan 0
-7.087823 -9.964375 1.496555 13
-13.4848 -10.83774 3.146123 49
nan nan nan 0
-18.97387 -27.04755 0.1900653 9
-16.83041 -19.75186 0 13
nan nan nan 0
nan nan nan 0
nan nan nan 0
-29.13876 -34.29556 1.043905 34
-21.94343 -21.521 0.5250741 7
-23.57226 -19.23194 0.3712136 7
nan nan nan 0
-0.2059473 -0.2879772 -0.08214208 9
-3.877288 -5.513371 -0.9309819 33
-5.03074 -7.025745 -0.814597 30
-6.08411 -8.561482 -0.6711426 80
-6.68577 -7.808803 -0.7160501 18
-7.307411 -7.08908 -0.7660736 21
-7.814907 -6.313027 -0.8174232 14
-7.833861 -11.18229 -0.5539239 101
-8.358395 -9.859848 -0.6009262 14
nan nan nan 0
-9.378028 -7.652736 -0.7019784 12
-10.8597 -15.38508 -0.328018 33
-11.39377 -13.34228 -0.406421 25
-11.46928 -11.16764 -0.4655574 29
-11.79295 -9.566983 -0.5236149 32
nan nan nan 0
nan nan nan 0
-38.07759 -30.72084 1.963448 11
nan nan nan 0
-14.12636 -11.27615 1.466939 37
-7.116785 -9.931502 1.495337 40
-13.53408 -10.7998 3.148813 52
-6.875007 -9.530561 3.138181 42
-19.14894 -27.0955 0.1908716 9
nan nan nan 0
nan nan nan 0
nan nan nan 0
nan nan nan 0
-29.30379 -34.24681 1.04553 34
-21.88589 -21.31523 0.52191 7
-34.58842 -28.016 0.5433511 11
nan nan nan 0
nan nan nan 0
-3.899369 -5.503846 -0.93167 30
-5.058144 -7.01218 -0.8150684 27
-6.099446 -8.519899 -0.6695424 77
-6.72927 -7.804308 -0.7177941 18
-7.339294 -7.070446 -0.7668269 19
-7.844674 -6.291941 -0.8182374 14
-7.852694 -11.12629 -0.552501 106
-8.344125 -9.773626 -0.5974324 14
-8.795428 -8.552655 -0.6408538 11
-9.424081 -7.635655 -0.7034305 10
-10.86122 -15.27373 -0.3264472 28
-11.44027 -13.30243 -0.406421 20
-11.53334 -11.15186 -0.4665774 29
-11.8146 -9.516359 -0.5230967 37
nan nan nan 0
-6.455178 -5.16574 -0.925835 21
-38.28598 -30.66893 1.968665 7
-25.87306 -36.22312 2.587765 7
-14.31409 -11.34435 1.482342 44
-7.186244 -9.954902 1.502649 6
-13.47528 -10.67616 3.126398 42
-6.908234 -9.506505 3.138181 42
-19.31589 -27.13033 0.1915916 8
-8.83768 -10.2249 0 10
nan nan nan 0
-17.74845 -14.22107 -0.2654995 14
nan nan nan 0
nan nan nan 0
-21.87751 -21.15877 0.5199431 7
-34.75224 -27.94835 0.5443895 11
nan nan nan 0
-0.1996222 -0.2746484 -0.07835092 9
-3.918558 -5.490201 -0.93167 29
-5.085513 -6.99851 -0.8155398 29
-6.132065 -8.502605 -0.6698625 79
-6.77282 -7.799604 -0.719538 18
-7.37474 -7.055122 -0.7679568 19
-7.874389 -6.270724 -0.8190516 14
-7.877017 -11.07845 -0.5514846 99
-8.391212 -9.759591 -0.5983641 13
-8.807267 -8.504562 -0.6395453 12
-9.474021 -7.621475 -0.7051731 10
-10.96394 -15.30483 -0.3279307 28
-8.911446 -10.28848 -0.3150865 10
-11.56859 -11.10807 -0.4664316 27
nan nan nan 0
-4.790711 -3.864109 -1.109121 32
-6.356403 -5.050527 -0.9090626 32
-38.45928 -30.58796 1.972076 8
-25.54753 -35.50452 2.542747 31
-13.40167 -10.54575 1.383844 16
-7.229701 -9.941801 1.504477 39
-13.4738 -10.59866 3.117432 40
-6.801674 -9.291316 3.07477 44
-19.48622 -27.16839 0.1923403 9
-8.879883 -10.20154 0 32
-22.24741 -21.28489 -0.1610059 12
-17.49274 -13.91632 -0.2609391 15
-25.75544 -35.95189 1.303684 9
-8.879689 -10.23 0.3135778 30
-21.82503 -20.96107 0.51695 7
-34.9629 -27.91733 0.546161 11
nan nan nan 0
-0.2145329 -0.2937079 -0.08466953 8
-3.940586 -5.480512 -0.932358 30
-5.115788 -6.988752 -0.8164827 27
-6.076715 -8.364037 -0.6605811 80
-6.796721 -7.772159 -0.7191892 23
-7.406553 -7.036203 -0.7687101 20
-7.904051 -6.249376 -0.8198657 13
-7.889473 -11.01432 -0.5496551 96
-8.431767 -9.737794 -0.5988299 14
-8.8369 -8.473767 -0.6395453 13
-9.516174 -7.600812 -0.7063349 10
nan nan nan 0
-8.921022 -10.22717 -0.3141581 24
-11.60368 -11.06417 -0.4662859 29
-11.90423 -9.452283 -0.5241332 40
-4.815699 -3.856579 -1.111798 34
-6.389606 -5.040607 -0.9112989 30
-38.65601 -30.52473 1.976691 9
-25.7211 -35.48383 2.547685 48
nan nan nan 0
-7.155913 -9.768329 1.481931 32
nan nan nan 0
-6.885628 -9.337507 3.098064 37
-19.65998 -27.20964 0.1931179 9
-8.951689 -10.21184 0 30
nan nan nan 0
-18.27503 -14.4345 -0.2718725 18
-25.56203 -35.41999 1.287611 44
-8.921925 -10.20647 0.3138099 37
-21.73164 -20.72606 0.5130162 7
-35.16593 -27.87897 0.5478103 9
nan nan nan 0
nan nan nan 0
-3.959692 -5.466724 -0.932358 31
-5.143104 -6.974861 -0.8169541 29
-6.123543 -8.366943 -0.6625013 98
-6.827105 -7.752131 -0.719538 18
-7.438323 -7.017148 -0.7694634 19
-7.933661 -6.227898 -0.8206799 14
-7.954166 -11.02319 -0.5514846 102
-8.426323 -9.663124 -0.5960349 15
-8.880892 -8.45664 -0.6405921 14
-9.581771 -7.598547 -0.7092392 9
-11.19393 -15.39778 -0.3315957 27
-8.966562 -10.20724 -0.3145062 26
-11.58416 -10.96863 -0.4639545 33
-11.97641 -9.441594 -0.5258607 35
nan nan nan 0
-6.094063 -4.773389 -0.8665726 35
-38.83703 -30.44817 1.980504 10
-25.87718 -35.43818 2.55088 49
-13.78219 -10.69007 1.41546 102
-7.210582 -9.771253 1.486197 42
-13.5669 -10.5194 3.121915 40
-6.964231 -9.375468 3.118769 35
-19.82544 -27.23788 0.193809 10
-8.997205 -10.19178 0 25
nan nan nan 0
nan nan nan 0
-25.84125 -35.54481 1.295427 60
-8.967403 -10.18652 0.3141581 36
-21.72037 -20.57102 0.5110493 8
-35.31411 -27.79624 0.5486044 8
nan nan nan 0
-0.2109418 -0.284339 -0.08214208 8
-3.981667 -5.456872 -0.9330461 29
-5.173351 -6.964861 -0.817897 28
-6.18526 -8.389712 -0.6660219 93
-6.860741 -7.735716 -0.7202355 19
-7.47005 -6.997955 -0.7702166 19
-7.967148 -6.209349 -0.8219011 14
-7.995533 -10.9994 -0.5516878 85
-8.427051 -9.596117 -0.5937058 15
nan nan nan 0
-9.592545 -7.552709 -0.7080774 9
-11.13246 -15.20128 -0.3281925 23
-8.985579 -10.15715 -0.313926 18
-11.64787 -10.95209 -0.4649745 29
-12.04472 -9.427438 -0.5274155 35
-4.359494 -3.442227 -1.000261 107
-6.09499 -4.739898 -0.8643363 73
-39.02194 -30.37378 1.984517 9
-25.70205 -34.94149 2.521546 29
nan nan nan 0
-7.274236 -9.785866 1.49229 37
-13.77899 -10.60694 3.162261 19
-6.979565 -9.327891 3.111005 34
-19.97656 -27.24513 0.1943562 9
-9.029405 -10.15657 0 8
-21.43642 -20.08339 -0.153597 12
-18.02419 -14.03329 -0.2666689 16
-25.87364 -35.32939 1.290856 35
-9.006223 -10.1589 0.3142741 9
-21.71192 -20.41973 0.509168 7
-35.44244 -27.69743 0.5490931 8
nan nan nan 0
-0.2091012 -0.2796788 -0.08087836 8
-4.003621 -5.446933 -0.9337342 30
-5.20061 -6.950747 -0.8183683 24
-6.256128 -8.424174 -0.6705025 85
-6.891025 -7.715443 -0.7205843 20
-7.501735 -6.978628 -0.7709699 19
-8.008491 -6.196739 -0.8239366 13
-8.045678 -10.98755 -0.552501 99
-8.414182 -9.514257 -0.5904449 15
nan nan nan 0
-9.626718 -7.525324 -0.7086583 9
-11.23589 -15.23073 -0.3296759 27
-11.72056 -13.15673 -0.4081618 17
-11.69333 -10.91818 -0.4652659 34
-12.10518 -9.40679 -0.5286248 36
-4.336611 -3.399705 -0.9922307 114
nan nan nan 0
-39.2147 -30.30458 1.988932 10
-25.79119 -34.80744 2.518351 41
-13.61492 -10.40904 1.390734 86
-7.474826 -9.982946 1.526413 28
-14.13258 -10.80061 3.234885 15
nan nan nan 0
-20.13094 -27.25568 0.1949321 9
nan nan nan 0
nan nan nan 0
nan nan nan 0
-25.74169 -34.89294 1.278174 53
nan nan nan 0
-21.71364 -20.27898 0.5075431 9
-35.68507 -27.68692 0.5513532 7
nan nan nan 0
nan nan nan 0
-4.025553 -5.436907 -0.9344223 27
-5.230828 -6.940505 -0.8193111 26
-6.261601 -8.370308 -0.6679422 71
-6.927918 -7.702468 -0.7216306 18
-7.533376 -6.959164 -0.7717232 17
-8.077515 -6.20515 -0.8288215 6
-8.02174 -10.87494 -0.5482322 107
-8.440699 -9.477367 -0.5899791 15
-8.877652 -8.278061 -0.6340501 13
-9.641093 -7.482498 -0.707787 9
-11.25322 -15.14326 -0.3286288 32
nan nan nan 0
-11.71671 -10.8637 -0.4646831 43
-12.12607 -9.355326 -0.5281065 32
nan nan nan 0
nan nan nan 0
-39.41934 -30.24353 1.993948 10
-26.2409 -35.15725 2.550299 42
-13.57574 -10.30423 1.383033 52
-7.446908 -9.873563 1.513617 45
-13.49209 -10.23707 3.079775 36
-7.161262 -9.432856 3.162769 9
-20.30055 -27.28554 0.1956521 6
nan nan nan 0
-21.56142 -19.91968 -0.1534923 14
-18.41925 -14.13533 -0.2710539 12
nan nan nan 0
nan nan nan 0
-21.76963 -20.18947 0.5072011 13
-35.83299 -27.60184 0.5521474 8
nan nan nan 0
-0.2110486 -0.2782122 -0.08087836 9
-4.047465 -5.426795 -0.9351104 31
-5.258031 -6.926171 -0.8197826 30
-6.266774 -8.316508 -0.6653818 60
-6.961459 -7.685632 -0.7223282 18
-7.564971 -6.939565 -0.7724764 19
-8.071376 -6.155777 -0.825972 12
-8.068586 -10.85891 -0.548842 98
-8.530412 -9.511065 -0.5939386 14
-8.899165 -8.240237 -0.6335267 13
-9.702751 -7.476203 -0.7104009 9
nan nan nan 0
-11.62784 -12.87057 -0.4017788 30
-10.83527 -9.976522 -0.4282545 8
-12.24198 -9.37672 -0.5317343 35
-4.87448 -3.765937 -1.110013 39
-6.630892 -5.045565 -0.933103 20
-39.60417 -30.16628 1.997961 8
-26.48942 -35.23303 2.562497 50
-13.58774 -10.23879 1.380601 43
-7.442322 -9.796119 1.505696 41
-13.55918 -10.21358 3.086948 77
-7.188281 -9.400126 3.160181 10
-17.31687 -23.10497 0.1660768 34
nan nan nan 0
-21.64924 -19.86119 -0.1536232 21
nan nan nan 0
-26.42485 -35.30059 1.299851 45
nan nan nan 0
-21.82158 -20.09642 0.5067735 7
-36.01253 -27.54037 0.5534301 8
nan nan nan 0
-0.217764 -0.2852584 -0.08340581 8
-4.069355 -5.416595 -0.9357985 28
-5.285197 -6.91173 -0.820254 28
-6.347015 -8.362176 -0.6708226 74
-6.998327 -7.672343 -0.7233746 18
-7.59652 -6.919829 -0.7732297 19
-8.116664 -6.145603 -0.8284145 9
-8.070537 -10.78267 -0.5464027 105
-8.603725 -9.525713 -0.5967336 14
-8.946256 -8.226019 -0.6348351 13
-9.740686 -7.451381 -0.7112722 10
-11.3015 -14.98847 -0.3269708 22
-11.70297 -12.86318 -0.4028233 22
-10.88479 -9.952127 -0.4288373 14
-12.25872 -9.321837 -0.5310434 31
-4.848533 -3.718991 -1.101091 43
-6.656396 -5.028371 -0.9342211 18
-37.68074 -28.49428 1.895826 43
-26.64539 -35.18412 2.565692 56
-13.61142 -10.18235 1.379385 42
-7.331788 -9.580843 1.476447 45
-13.4923 -10.08963 3.063637 46
-7.745338 -10.05627 3.390529 47
nan nan nan 0
-17.43865 -19.07496 0 12
-21.77019 -19.83264 -0.1539897 20
nan nan nan 0
-26.34033 -34.93276 1.289676 40
nan nan nan 0
-21.88791 -20.01676 0.506688 6
-36.23588 -27.51122 0.5553849 10
nan nan nan 0
-0.2100994 -0.2728498 -0.07961464 8
-4.091222 -5.406309 -0.9364865 30
-5.312326 -6.897185 -0.8207254 29
-6.397367 -8.367728 -0.6730629 69
-7.035186 -7.658889 -0.724421 18
-7.628026 -6.899959 -0.7739829 20
-8.130095 -6.111248 -0.8276004 14
-8.132174 -10.78635 -0.5480289 105
-8.653725 -9.5141 -0.5978982 13
-9.070797 -8.282263 -0.6416388 12
-9.790496 -7.435438 -0.7130148 10
-11.55022 -15.20776 -0.3326429 31
-11.7478 -12.82225 -0.4028233 26
nan nan nan 0
-12.2872 -9.275981 -0.5308706 34
-4.610821 -3.511502 -1.043984 101
-6.626184 -4.969365 -0.9275122 24
-37.78797 -28.36857 1.896227 31
-26.77712 -35.10281 2.566563 52
nan nan nan 0
-7.334907 -9.515872 1.470353 38
-13.50374 -10.02489 3.058258 41
-7.780393 -10.02917 3.390529 43
-17.20241 -22.62129 0.1634562 17
nan nan nan 0
-21.86895 -19.78336 -0.1541991 21
nan nan nan 0
-26.72505 -35.1869 1.302505 54
nan nan nan 0
-21.93544 -19.92006 0.5061749 7
-36.50338 -27.51394 0.5580115 13
nan nan nan 0
-0.2168503 -0.279859 -0.08214208 9
-4.113068 -5.395936 -0.9371747 27
-5.339419 -6.882535 -0.8211968 30
-6.396113 -8.305797 -0.6698625 94
-7.068651 -7.64161 -0.7251185 18
-7.663195 -6.883283 -0.7751129 19
-8.151378 -6.082831 -0.8276004 14
-8.073142 -10.63054 -0.5415241 115
-8.643033 -9.435948 -0.5948703 14
-9.070056 -8.223722 -0.6395453 12
-9.820377 -7.404221 -0.7133052 9
-11.63663 -15.21104 -0.3336027 24
-11.85349 -12.8473 -0.4049123 17
-11.77444 -10.6154 -0.4610402 29
-12.3235 -9.23603 -0.5310434 36
-4.713371 -3.563547 -1.064507 74
nan nan nan 0
-37.91481 -28.25739 1.897632 21
-26.94206 -35.06454 2.570629 53
-14.06735 -10.37085 1.418298 52
-7.346786 -9.462762 1.466088 82
-13.53073 -9.971854 3.056464 14
nan nan nan 0
nan nan nan 0
-21.63334 -23.33466 0 16
-21.99739 -19.76035 -0.154618 16
-14.38117 -10.72227 -0.2093126 15
-26.89326 -35.15294 1.304717 57
-31.05153 -33.58852 1.061081 18
-22.02712 -19.86346 0.506688 6
-36.67527 -27.44326 0.5591722 13
nan nan nan 0
-0.2061723 -0.2636524 -0.07708719 8
-4.134891 -5.385477 -0.9378628 30
-5.366474 -6.867778 -0.8216683 28
-6.403673 -8.25581 -0.6676221 86
-7.105479 -7.627839 -0.7261649 19
-7.694618 -6.863127 -0.7758662 18
-8.180574 -6.060269 -0.8284145 14
-8.216379 -10.74123 -0.5486388 106
-8.686076 -9.416737 -0.5955691 14
-9.087574 -8.181991 -0.6387603 12
-9.83417 -7.360928 -0.7124339 11
-11.68661 -15.16636 -0.3335155 26
-11.87105 -12.77655 -0.4039838 25
-11.84122 -10.6009 -0.4622059 35
-12.33161 -9.175067 -0.5300068 32
-4.678534 -3.511675 -1.053799 91
nan nan nan 0
-37.63967 -27.84857 1.878971 14
-27.08873 -35.00187 2.572953 58
-14.10346 -10.32168 1.418298 44
-7.18423 -9.186775 1.42709 75
-13.2994 -9.730055 2.996393 48
-7.939781 -10.08851 3.429352 55
-16.56297 -21.46728 0.1559399 7
-21.76926 -23.31748 0 16
-22.10355 -19.71673 -0.1548798 17
-14.43057 -10.68093 -0.209488 30
-27.0585 -35.11428 1.306781 53
-31.20264 -33.51651 1.062242 15
-22.18944 -19.86982 0.508826 6
-36.81499 -27.34786 0.5598441 12
nan nan nan 0
nan nan nan 0
-4.153665 -5.37101 -0.9378628 28
-5.396566 -6.856831 -0.822611 27
-6.426312 -8.22554 -0.6669821 91
-7.138886 -7.610267 -0.7268624 18
-7.725993 -6.842835 -0.7766194 18
-8.205693 -6.034626 -0.8288215 13
-8.272108 -10.73623 -0.5498584 104
-8.712095 -9.379038 -0.5951033 13
-9.112356 -8.146892 -0.6384987 12
-9.891869 -7.350359 -0.7147574 10
-11.54644 -14.87662 -0.328018 22
-11.88484 -12.70218 -0.4029393 27
-11.88936 -10.56946 -0.4626431 42
-12.43191 -9.182412 -0.5329436 34
-4.852614 -3.615699 -1.090383 45
nan nan nan 0
-14.38862 -10.57245 0.7155498 41
-27.24143 -34.94647 2.575857 57
-14.26039 -10.36022 1.430458 50
-7.16715 -9.099242 1.41734 37
-13.26163 -9.631566 2.980254 42
-7.513164 -9.477685 3.230062 41
-17.49356 -22.51099 0.1639745 18
nan nan nan 0
-22.22464 -19.68587 -0.1552463 17
-14.45568 -10.62161 -0.2093126 32
-27.1901 -35.03146 1.307224 57
-31.37073 -33.46209 1.063983 14
-22.25119 -19.7856 0.5086549 6
-14.39903 -10.6225 0.2181346 37
nan nan nan 0
nan nan nan 0
-4.175427 -5.360388 -0.9385508 27
-5.423558 -6.841854 -0.8230824 27
-6.516658 -8.281514 -0.673383 74
-7.172256 -7.592553 -0.7275599 18
-7.757321 -6.82241 -0.7773727 21
-8.238789 -6.014756 -0.8300428 13
-8.330963 -10.73493 -0.5512813 96
-8.748194 -9.352219 -0.5953361 14
-9.181818 -8.151493 -0.6413772 12
-9.941576 -7.333553 -0.7165 11
-11.71526 -14.98592 -0.3313339 27
-11.96681 -12.70064 -0.404216 32
-11.90744 -10.51136 -0.4619145 39
-12.44373 -9.124194 -0.5320799 35
-4.983941 -3.686406 -1.117152 38
-6.771267 -4.931894 -0.9381347 21
-14.46581 -10.55159 0.7175564 16
-27.39407 -34.89043 2.578761 58
-14.19944 -10.24045 1.42073 61
-7.174208 -9.043054 1.412466 39
nan nan nan 0
-7.600414 -9.519361 3.253355 64
-17.41798 -22.25289 0.1625346 7
-22.48149 -23.74591 0 11
-22.33076 -19.64119 -0.1555081 21
-14.49267 -10.57109 -0.2093126 14
-27.33376 -34.9639 1.308256 53
-31.52509 -33.39237 1.065259 13
-22.36884 -19.75082 0.5097666 6
-14.48443 -10.6076 0.2188676 38
nan nan nan 0
nan nan nan 0
-4.194113 -5.34578 -0.9385508 26
-5.453614 -6.830664 -0.8240253 27
-6.486678 -8.184387 -0.6673021 82
-7.20559 -7.5747 -0.7282575 17
-7.788601 -6.801848 -0.7781259 21
-8.267808 -5.991805 -0.830857 14
-8.334559 -10.66247 -0.5490453 90
-8.749969 -9.288899 -0.5932399 15
-9.240184 -8.145803 -0.6434706 13
-9.991284 -7.31649 -0.7182426 10
-11.85715 -15.05887 -0.3338645 30
-12.13492 -12.78934 -0.4083939 22
-11.94406 -10.46973 -0.4619145 42
-12.70585 -9.24824 -0.5419268 43
-4.818219 -3.538108 -1.076999 69
-6.788441 -4.908227 -0.9381347 20
-37.8928 -27.42653 1.877164 34
-27.54665 -34.83375 2.581666 46
-14.21078 -10.17342 1.418298 43
-7.165481 -8.967536 1.404544 29
-13.48459 -9.650343 3.015221 39
-7.685021 -9.556777 3.275355 49
nan nan nan 0
nan nan nan 0
-22.39165 -19.55654 -0.1554558 28
nan nan nan 0
-27.47419 -34.89184 1.30914 53
-31.68967 -33.33285 1.066884 14
-22.50155 -19.72865 0.5112204 6
nan nan nan 0
nan nan nan 0
nan nan nan 0
-4.215815 -5.334995 -0.9392389 29
-5.480541 -6.815467 -0.8244967 29
-6.530762 -8.181201 -0.6689023 69
-7.242336 -7.560309 -0.7293039 17
-7.819832 -6.78115 -0.7788792 19
-8.296766 -5.968724 -0.8316712 14
-8.356283 -10.61368 -0.5480289 100
-8.796088 -9.272797 -0.5941716 14
-9.324924 -8.162825 -0.6473958 12
-10.02888 -7.290369 -0.7191139 8
-11.85375 -14.94687 -0.3322938 27
-12.14841 -12.71437 -0.4073494 20
-11.96168 -10.41157 -0.4611859 34
-12.75021 -9.212609 -0.5424451 34
nan nan nan 0
-6.797456 -4.878713 -0.9370165 20
-38.08569 -27.36404 1.88198 32
-27.69917 -34.77642 2.58457 48
-13.81143 -9.815013 1.374926 93
-7.218507 -8.969543 1.40881 68
-13.47006 -9.569044 3.004462 42
-7.779095 -9.604981 3.301237 41
-16.17101 -20.36453 0.1495468 37
-20.1848 -21.02381 0 24
-22.51267 -19.52412 -0.1558223 18
nan nan nan 0
-27.61134 -34.8153 1.309878 53
nan nan nan 0
-22.58536 -19.66311 0.5115625 6
nan nan nan 0
nan nan nan 0
nan nan nan 0
-4.237494 -5.324125 -0.939927 29
-5.510559 -6.804034 -0.8254395 27
-6.59365 -8.201148 -0.6724229 71
-7.275607 -7.542164 -0.7300014 18
-7.85479 -6.76357 -0.780009 18
-8.329721 -5.948408 -0.8328924 13
-8.374666 -10.56095 -0.5468093 102
-8.869794 -9.285381 -0.5969666 14
-9.338285 -8.117124 -0.646349 13
-10.06641 -7.264075 -0.7199852 11
-11.96823 -14.98354 -0.334039 30
-12.30015 -12.78357 -0.4109471 27
-11.95635 -10.33381 -0.4595831 33
-12.73355 -9.133114 -0.540372 32
-5.034236 -3.642655 -1.119829 38
-6.773959 -4.826152 -0.9314258 26
-38.28674 -27.30634 1.887197 22
-27.85162 -34.71847 2.587474 47
-13.82932 -9.755259 1.373305 47
-7.462146 -9.206551 1.450245 54
-13.53957 -9.547466 3.012532 42
-7.989542 -9.794907 3.376294 35
-16.22639 -20.28843 0.1494028 16
-20.23374 -20.92806 0 34
-22.68298 -19.5335 -0.1565291 20
nan nan nan 0
-27.77325 -34.76948 1.311795 51
-20.20606 -20.95779 0.6749699 35
-22.76732 -19.68223 0.514128 6
nan nan nan 0
nan nan nan 0
-0.2116486 -0.2592768 -0.07708719 9
-4.256052 -5.309301 -0.939927 26
-5.537421 -6.788617 -0.8259109 27
-6.647342 -8.209117 -0.6749833 76
-7.308839 -7.523877 -0.730699 17
-7.885931 -6.742589 -0.7807624 18
-8.362637 -5.927935 -0.8341137 14
-8.370969 -10.48089 -0.5441667 102
-8.912539 -9.265164 -0.5976654 13
-9.366562 -8.084476 -0.646349 13
-10.10388 -7.237607 -0.7208565 11
-12.03612 -14.96115 -0.3344753 34
-12.35513 -12.75132 -0.4112952 28
-11.99235 -10.29201 -0.4595831 35
-12.72871 -9.062538 -0.5388172 45
-5.054917 -3.630793 -1.121613 37
-6.709591 -4.745152 -0.9202442 34
-38.71621 -27.4092 1.903651 16
-28.01028 -34.66763 2.590959 49
-13.87554 -9.715498 1.374521 42
-7.459735 -9.138142 1.443542 37
nan nan nan 0
-7.747906 -9.43098 3.259826 40
nan nan nan 0
nan nan nan 0
-22.83844 -19.52894 -0.1571313 18
nan nan nan 0
-27.93203 -34.71905 1.313564 47
-20.30695 -20.91582 0.6758983 9
-22.90417 -19.66125 0.5156673 5
-38.0643 -27.05743 0.5701063 10
nan nan nan 0
-0.221573 -0.2699055 -0.08087836 8
-4.274559 -5.294412 -0.939927 30
-5.56424 -6.773094 -0.8263823 29
-6.685411 -8.197469 -0.6759434 62
-7.342032 -7.505452 -0.7313966 17
-7.920825 -6.7247 -0.7818923 19
-8.39551 -5.907304 -0.835335 13
-8.426282 -10.47497 -0.5453864 98
-8.969148 -9.259112 -0.5992957 15
-9.432642 -8.08422 -0.6489658 13
-10.13723 -7.208075 -0.7214375 10
nan nan nan 0
-12.23202 -12.53637 -0.4057247 30
-12.07766 -10.29222 -0.4614774 32
-12.73577 -9.000756 -0.5377807 33
-5.059544 -3.607421 -1.119829 34
-6.652879 -4.670366 -0.9101807 47
nan nan nan 0
-28.15317 -34.59675 2.592993 47
nan nan nan 0
nan nan nan 0
-13.71499 -9.528451 3.036739 52
-7.860786 -9.500659 3.293472 41
nan nan nan 0
nan nan nan 0
-22.98651 -19.51705 -0.157681 22
nan nan nan 0
-28.09081 -34.66795 1.315334 50
nan nan nan 0
-36.10708 -30.77526 0.8108718 11
-38.28925 -27.01661 0.5720611 9
nan nan nan 0
nan nan nan 0
-4.286771 -5.271769 -0.9385508 26
-5.59102 -6.757467 -0.8268537 28
-6.739305 -8.204942 -0.6785038 69
-7.375186 -7.486885 -0.7320942 17
-7.951875 -6.703435 -0.7826455 18
-8.424253 -5.883665 -0.836149 14
-8.478512 -10.46491 -0.5464027 79
-9.022334 -9.249202 -0.6006932 14
-9.479819 -8.067422 -0.6502743 12
-10.17864 -7.184153 -0.7225991 11
nan nan nan 0
-12.34577 -12.56491 -0.4080457 32
-12.14023 -10.2726 -0.4624974 27
-12.88987 -9.042295 -0.5429633 38
-5.096214 -3.60677 -1.125183 33
-6.59165 -4.593197 -0.8995582 49
-39.23036 -27.364 1.919504 12
-28.28642 -34.51371 2.594154 46
nan nan nan 0
-7.659374 -9.250267 1.469744 103
-13.76842 -9.494473 3.041222 77
-7.940255 -9.528836 3.312884 40
nan nan nan 0
-23.24432 -23.54387 0 8
-23.10802 -19.48181 -0.1580476 27
nan nan nan 0
-28.2464 -34.61227 1.316956 48
nan nan nan 0
-36.241 -30.67165 0.8114704 16
-38.46933 -26.94302 0.5733439 11
nan nan nan 0
-0.2204186 -0.2645834 -0.07961464 8
-4.302013 -5.252939 -0.9378628 28
-5.620943 -6.745562 -0.8277965 28
-6.75837 -8.169828 -0.6775436 87
-7.408299 -7.468179 -0.7327917 18
-7.982873 -6.682036 -0.7833987 21
-8.457031 -5.862734 -0.8373703 13
-8.496049 -10.41202 -0.5451831 86
-9.068564 -9.231907 -0.6016249 15
-9.54988 -8.069726 -0.6531527 13
-10.22002 -7.160028 -0.7237609 10
nan nan nan 0
-12.60399 -12.73851 -0.415125 22
-12.17601 -10.23016 -0.4624974 25
-13.01569 -9.062888 -0.5469366 42
-5.028212 -3.532465 -1.107337 43
nan nan nan 0
-39.63784 -27.443 1.934754 11
-28.47026 -34.49176 2.599963 42
-15.35436 -10.51239 1.510311 34
nan nan nan 0
-13.76493 -9.421363 3.033153 29
-8.0045 -9.53807 3.325824 43
-22.17459 -26.94862 0.2007781 6
-23.31227 -23.4484 0 10
-23.11837 -19.35289 -0.1576549 21
nan nan nan 0
-28.40195 -34.55594 1.318578 42
nan nan nan 0
-36.42056 -30.60606 0.8130952 15
-38.71504 -26.91414 0.575604 9
nan nan nan 0
-0.2213409 -0.2638124 -0.07961464 8
-4.304582 -5.218775 -0.9344223 34
-5.647653 -6.729715 -0.8282679 28
-6.780463 -8.138517 -0.6769035 64
-7.441372 -7.449331 -0.7334893 17
-8.013819 -6.660502 -0.784152 21
-8.485658 -5.838823 -0.8381845 13
-8.506979 -10.35141 -0.5435569 86
-9.104246 -9.203747 -0.6018578 15
-9.62007 -8.07164 -0.6560312 13
-10.26134 -7.135702 -0.7249226 11
-12.23109 -14.77623 -0.3341263 24
-12.38732 -12.43238 -0.406537 28
-12.19629 -10.17479 -0.4619145 27
-13.08426 -9.042956 -0.5484914 40
-5.10108 -3.557051 -1.120721 36
-6.717815 -4.61168 -0.9124171 38
-39.62632 -27.23091 1.929536 7
-18.37784 -22.10407 1.670284 11
nan nan nan 0
-7.398388 -8.8088 1.407591 42
-13.64308 -9.268272 2.999083 36
-8.0097 -9.47686 3.314178 41
-22.26214 -26.86335 0.2007205 7
-23.51424 -23.48703 0 10
-23.2896 -19.35836 -0.1583617 24
nan nan nan 0
-28.56382 -34.50664 1.320495 39
nan nan nan 0
-36.6193 -30.55561 0.8151477 13
-38.92399 -26.85833 0.5773144 10
nan nan nan 0
nan nan nan 0
-4.344903 -5.230401 -0.9392389 31
-5.677532 -6.717567 -0.8292108 27
-6.828062 -8.137743 -0.6788238 73
-7.474403 -7.430345 -0.7341868 18
-8.044713 -6.638834 -0.7849053 20
-8.518337 -5.817591 -0.8394057 13
-8.546245 -10.3255 -0.5437602 65
-9.175084 -9.21084 -0.6044199 14
-9.663534 -8.050793 -0.6570779 13
-10.29441 -7.105507 -0.7255035 9
-12.2538 -14.69888 -0.3333409 24
-12.3563 -12.31495 -0.4040999 27
-12.28947 -10.17997 -0.4641002 29
-13.03743 -8.943547 -0.5452091 35
-4.971797 -3.441347 -1.089491 54
-6.750304 -4.599382 -0.9146533 40
-42.54858 -29.02045 2.066988 7
-18.44527 -22.0283 1.669413 13
-14.7703 -9.96207 1.445861 81
nan nan nan 0
-13.73654 -9.261821 3.012532 72
nan nan nan 0
-22.31093 -26.73173 0.2003173 10
-23.72743 -23.5351 0 7
nan nan nan 0
nan nan nan 0
-28.7193 -34.44896 1.322117 44
-22.04034 -21.92253 0.7208112 5
-23.6134 -19.5647 0.5238769 10
-39.14951 -26.81268 0.5792691 11
nan nan nan 0
-0.2293223 -0.269734 -0.08214208 8
-4.372658 -5.226606 -0.9413031 30
-5.707393 -6.705293 -0.8301535 28
-6.795273 -8.041416 -0.672743 65
-7.507393 -7.411219 -0.7348844 17
-8.079408 -6.62019 -0.7860352 21
-8.546845 -5.79341 -0.8402199 14
-8.511895 -10.21115 -0.5392881 77
-9.217791 -9.189338 -0.6051187 15
-9.753143 -8.067924 -0.6612648 12
-10.3315 -7.077988 -0.7263748 10
-12.46249 -14.84367 -0.3376168 31
-12.48447 -12.35615 -0.4068852 22
-12.39056 -10.19098 -0.4665774 34
-13.03965 -8.878308 -0.5439999 37
nan nan nan 0
-7.013381 -4.742627 -0.9481981 16
-40.49401 -27.41284 1.962445 16
nan nan nan 0
-14.50675 -9.710951 1.416676 93
-7.848894 -9.214231 1.481322 43
-13.74426 -9.197411 3.007152 42
-7.519582 -8.77146 3.085123 40
-22.46844 -26.73024 0.2008933 7
-23.85574 -23.49775 0 8
nan nan nan 0
nan nan nan 0
-28.89079 -34.40975 1.324476 45
-21.95315 -21.68386 0.7154727 5
-37.0132 -30.44848 0.819167 9
-39.37106 -26.76298 0.5811628 11
nan nan nan 0
-0.2271769 -0.265206 -0.08087836 8
-4.403627 -5.22647 -0.9440555 28
-5.737239 -6.692892 -0.8310964 29
-6.923491 -8.135495 -0.6826645 52
-7.543901 -7.395445 -0.7359308 17
-8.110204 -6.598238 -0.7867885 19
-8.579426 -5.771878 -0.8414412 14
-8.582804 -10.22348 -0.5415241 78
-9.313692 -9.220365 -0.6093112 14
-9.76967 -8.024324 -0.6604797 12
-10.35202 -7.039076 -0.7260844 11
-12.61749 -14.92227 -0.3404092 26
-12.51683 -12.30198 -0.406537 22
-12.38734 -10.11605 -0.4651202 46
nan nan nan 0
-5.194989 -3.542192 -1.133213 33
-6.807014 -4.568742 -0.9180079 49
-40.53139 -27.23233 1.959635 16
-18.43062 -21.70112 1.654311 34
-14.45337 -9.602368 1.408164 72
-7.926224 -9.23953 1.489853 63
nan nan nan 0
-7.540691 -8.734186 3.081241 39
-22.59714 -26.69363 0.20121 11
-23.98051 -23.45629 0 9
-23.70436 -19.28696 -0.1598016 12
nan nan nan 0
-29.03653 -34.33922 1.325656 45
-21.94664 -21.52659 0.7128035 5
-23.43578 -19.14321 0.51695 15
-39.59687 -26.71485 0.5831174 11
nan nan nan 0
nan nan nan 0
-4.425045 -5.214846 -0.9447436 29
-5.763818 -6.676594 -0.8315678 25
-7.000525 -8.168133 -0.6874652 60
-7.576815 -7.376026 -0.7366283 18
-8.144824 -6.579285 -0.7879184 19
-8.611958 -5.75019 -0.8426624 14
-8.634558 -10.21254 -0.5425405 96
-9.449093 -9.289354 -0.6160658 13
-9.801491 -7.993329 -0.6607414 12
-10.42619 -7.036384 -0.7295696 10
-12.51397 -14.69539 -0.3362206 24
-12.47743 -12.1779 -0.4038678 22
-12.41093 -10.06331 -0.4646831 32
-13.22999 -8.873301 -0.5493551 35
-5.203244 -3.521283 -1.132321 34
-7.000813 -4.663279 -0.9420483 31
-40.54722 -27.03803 1.955823 16
-18.56141 -21.70115 1.659248 40
nan nan nan 0
-8.120565 -9.399644 1.52032 46
-14.01353 -9.236516 3.051981 40
-7.688322 -8.842716 3.129122 42
-22.7291 -26.66026 0.2015556 9
-24.13755 -23.4456 0 8
-23.85322 -19.27008 -0.1603514 21
nan nan nan 0
-29.18214 -34.2681 1.326836 44
-21.95003 -21.38009 0.7104824 6
nan nan nan 0
-39.82698 -26.66825 0.5851333 10
nan nan nan 0
-0.2321343 -0.2673178 -0.08214208 8
-4.449651 -5.206903 -0.9461198 29
-5.793616 -6.663951 -0.8325107 28
-7.015961 -8.128531 -0.6861849 55
-7.613274 -7.359936 -0.7376747 18
-8.17552 -6.557052 -0.7886716 20
-8.64029 -5.725595 -0.8434765 13
-8.67339 -10.18614 -0.5427437 82
-9.424288 -9.200483 -0.6123391 14
-9.837093 -7.965349 -0.6612648 11
-10.47973 -7.019379 -0.7316025 10
-12.68882 -14.79586 -0.3395365 29
-12.7029 -12.31172 -0.4097865 30
-12.44209 -10.01679 -0.4645374 36
-13.0695 -8.699761 -0.5414085 31
-5.235936 -3.516798 -1.136782 35
-7.112421 -4.701772 -0.9549071 37
-40.52886 -26.82189 1.950405 8
-18.6631 -21.66649 1.661571 42
-15.02475 -9.831243 1.457211 35
nan nan nan 0
-14.0004 -9.15794 3.042119 49
-7.773201 -8.87762 3.151122 39
-22.88389 -26.65284 0.2021028 7
-24.13648 -23.28136 0 6
-23.95545 -19.21485 -0.160587 22
-21.24508 -14.063 -0.2974811 14
-29.34713 -34.21914 1.3289 36
-21.90956 -21.19213 0.7067686 5
-37.03407 -29.82093 0.8126677 14
-40.06142 -26.62314 0.5872101 10
nan nan nan 0
-0.2361905 -0.2701992 -0.08340581 9
-4.471026 -5.195095 -0.9468078 28
-5.820119 -6.647434 -0.8329821 28
-7.037749 -8.096456 -0.6855449 55
-7.649711 -7.343679 -0.738721 17
-8.210062 -6.537789 -0.7898015 20
-8.676885 -5.706344 -0.8451049 13
-8.715395 -10.16339 -0.5431503 85
-9.463517 -9.174483 -0.6128049 13
-9.849271 -7.91845 -0.6602181 12
-10.53743 -7.004847 -0.7339261 9
nan nan nan 0
-12.67378 -12.19797 -0.4074655 31
-12.47698 -9.9733 -0.4645374 29
-13.07893 -8.640322 -0.5405447 39
-5.256371 -3.50395 -1.138567 37
-7.174508 -4.706867 -0.961057 34
-40.75587 -26.768 1.956826 6
-18.74188 -21.60498 1.661862 23
-15.04643 -9.770597 1.455995 14
nan nan nan 0
-13.89197 -9.017999 3.011635 44
-7.864801 -8.919286 3.175709 31
-21.25039 -24.57557 0.1868976 6
nan nan nan 0
-24.10451 -19.19652 -0.1611368 15
-21.93346 -14.40862 -0.3064266 17
-8.930902 -10.33429 0.4018256 8
-21.92933 -21.06357 0.7050279 6
-37.00127 -29.58222 0.8096746 28
-40.29185 -26.57396 0.5892259 11
nan nan nan 0
-0.2371322 -0.2693731 -0.08340581 8
-4.492374 -5.183201 -0.9474959 27
-5.846577 -6.630813 -0.8334535 30
-7.065968 -8.07184 -0.6855449 49
-7.682518 -7.323816 -0.7394186 18
-8.244567 -6.518365 -0.7909315 18
-8.705098 -5.681464 -0.845919 13
-8.747556 -10.12913 -0.5429471 101
-9.549449 -9.193361 -0.6162987 14
-9.908073 -7.908937 -0.6623115 12
-10.59099 -6.987252 -0.7359591 10
-8.931485 -10.26612 -0.2368291 23
-12.70183 -12.13984 -0.4070013 24
-12.52738 -9.942112 -0.4651202 28
-13.09648 -8.586401 -0.5400265 37
-5.264465 -3.482869 -1.137675 34
-7.161734 -4.662836 -0.9571434 35
-40.81977 -26.60648 1.955422 6
-8.921334 -10.20758 0.7864946 37
-16.12793 -10.39256 1.557331 33
-8.333418 -9.444382 1.541647 105
-13.87373 -8.937499 3.000876 34
-7.879861 -8.873715 3.169239 34
-8.864408 -10.17447 0.07749481 37
-21.91471 -20.84469 0 8
-24.28904 -19.20529 -0.1619222 18
nan nan nan 0
-8.888213 -10.21254 0.3982866 35
-21.87252 -20.86269 0.7008499 5
-36.92419 -29.30992 0.8057408 39
-40.48058 -26.49611 0.5906309 10
nan nan nan 0
-0.2317708 -0.2612008 -0.08087836 8
-4.510439 -5.167489 -0.9474959 26
-5.876293 -6.617813 -0.8343962 26
-7.123782 -8.080828 -0.6884253 57
-7.715279 -7.303814 -0.7401161 17
-8.275115 -6.495702 -0.7916847 18
-8.724877 -5.651042 -0.845919 13
-8.805799 -10.12493 -0.5443699 78
-9.570653 -9.149617 -0.6156 14
-9.959102 -7.892909 -0.6638815 12
-10.6362 -6.963902 -0.7374113 11
-8.931044 -10.19351 -0.2358693 37
-12.71875 -12.07133 -0.4061889 25
-12.53845 -9.879766 -0.4642459 28
-13.36935 -8.698611 -0.5500462 35
-5.280705 -3.467168 -1.138567 31
-7.219717 -4.664746 -0.9627342 40
nan nan nan 0
-8.956912 -10.17638 0.7864946 40
-16.1851 -10.34961 1.559357 46
-8.297142 -9.337302 1.528851 47
-13.8924 -8.881075 2.998186 36
-7.910789 -8.846155 3.169239 29
-8.922942 -10.16979 0.0776964 43
-21.92555 -20.70969 0 11
-24.35987 -19.12347 -0.1619484 21
-21.45415 -13.88048 -0.2983581 18
-8.920514 -10.17769 0.3981391 41
-21.85812 -20.7037 0.6980646 6
-36.92025 -29.0973 0.8034319 27
-40.7028 -26.43907 0.5925245 10
nan nan nan 0
-0.2200293 -0.2457484 -0.07582346 9
-4.531717 -5.155436 -0.948184 28
-5.902673 -6.600972 -0.8348677 27
-7.171811 -8.07831 -0.6903456 59
-7.747994 -7.283673 -0.7408137 18
-8.309539 -6.475969 -0.7928146 18
-8.773906 -5.639399 -0.8487687 12
-8.857538 -10.11293 -0.5453864 99
-9.606154 -9.119592 -0.6158329 14
-10.00229 -7.870445 -0.6649283 13
-10.67301 -6.934886 -0.7382826 11
-8.966572 -10.16227 -0.2358693 36
-12.68806 -11.95829 -0.4038678 23
-12.52168 -9.795911 -0.4623516 33
-13.50881 -8.722326 -0.5545378 35
-5.292776 -3.448714 -1.138567 34
-7.215035 -4.626121 -0.9599388 35
nan nan nan 0
-8.989069 -10.14132 0.7862042 16
-16.22955 -10.29839 1.560168 41
-8.319761 -9.297184 1.527023 46
-13.85269 -8.787757 2.982944 35
-8.002997 -8.886702 3.193827 23
-8.978241 -10.16107 0.07786918 39
-21.85184 -20.4962 0 5
-24.54478 -19.13053 -0.1627338 17
-21.91904 -14.07283 -0.3041463 19
-8.969209 -10.16149 0.398729 35
-21.88656 -20.58618 0.696672 6
nan nan nan 0
-40.95034 -26.39704 0.5947847 10
nan nan nan 0
nan nan nan 0
-4.549685 -5.139585 -0.948184 29
-5.932337 -6.58773 -0.8358105 28
-7.219909 -8.075555 -0.6922659 48
-7.784309 -7.266796 -0.7418601 17
-8.339981 -6.453025 -0.7935679 19
nan nan nan 0
-8.89939 -10.08944 -0.5457929 81
-9.6779 -9.123697 -0.618395 14
-10.05331 -7.853923 -0.6664984 13
-10.70554 -6.902994 -0.7388634 11
-9.001989 -10.13091 -0.2358693 11
-12.72973 -11.91393 -0.4038678 22
-12.61896 -9.801188 -0.4646831 46
-13.6023 -8.715536 -0.5571291 33
-5.308916 -3.432886 -1.139459 36
-7.151456 -4.550281 -0.9493163 48
-44.50529 -28.3486 2.117755 8
-21.75951 -24.38837 1.899437 22
-15.02953 -9.464014 1.441402 34
nan nan nan 0
-13.95823 -8.78649 2.999083 85
-8.079369 -8.908816 3.211944 46
nan nan nan 0
nan nan nan 0
nan nan nan 0
-21.76561 -13.86733 -0.3013399 16
nan nan nan 0
-21.92907 -20.48236 0.6957435 6
-37.5094 -29.13939 0.8118125 14
-41.32022 -26.43171 0.5988163 7
nan nan nan 0
-0.2217396 -0.2442064 -0.07582346 9
-4.570891 -5.127372 -0.9488721 29
-5.958638 -6.570671 -0.836282 28
-7.264739 -8.068854 -0.6938662 53
-7.816941 -7.246362 -0.7425576 18
-8.374318 -6.432983 -0.7946978 18
-8.82991 -5.58866 -0.850397 11
-8.967718 -10.09568 -0.5478256 82
-9.673231 -9.05572 -0.6160658 15
-10.10434 -7.83714 -0.6680684 13
-10.74219 -6.873649 -0.7397347 10
-12.95591 -14.48216 -0.3384894 29
nan nan nan 0
-12.88663 -9.937119 -0.4732802 37
-13.68325 -8.70016 -0.5592021 32
-5.325009 -3.416987 -1.140352 34
-7.238749 -4.570338 -0.9588206 49
-44.56174 -28.16639 2.115748 30
-18.17215 -20.22367 1.579669 27
-15.10898 -9.440527 1.445861 30
-8.267789 -9.110201 1.505696 39
-13.94709 -8.711669 2.990117 50
-8.152737 -8.926938 3.228767 40
nan nan nan 0
-21.74481 -20.11227 0 5
-24.68963 -18.96785 -0.1628123 17
-21.91109 -13.8527 -0.3026847 14
nan nan nan 0
nan nan nan 0
-37.15959 -28.66024 0.8020636 16
-28.41055 -18.0362 0.4106745 7
nan nan nan 0
nan nan nan 0
-4.58876 -5.111385 -0.9488721 27
-5.984892 -6.553509 -0.8367534 28
-7.319658 -8.073031 -0.6964266 60
-7.849526 -7.225788 -0.7432552 19
-8.408618 -6.41278 -0.7958277 18
-8.874693 -5.573692 -0.8528395 13
-8.969609 -10.02707 -0.5457929 89
-9.64992 -8.970881 -0.612572 16
-10.15538 -7.820098 -0.6696386 13
-10.77876 -6.844131 -0.7406061 12
-13.08667 -14.52601 -0.3405837 33
-13.13582 -12.12313 -0.4140806 18
-12.93314 -9.901187 -0.4737174 39
-13.68817 -8.636353 -0.5581656 32
-5.345208 -3.403656 -1.142136 34
-7.330479 -4.592476 -0.9688841 40
nan nan nan 0
-18.25938 -20.17863 1.581121 37
nan nan nan 0
-8.386546 -9.176569 1.521539 107
-14.27433 -8.846813 3.053774 102
-8.066208 -8.770402 3.18218 39
nan nan nan 0
-21.73019 -19.95845 0 9
nan nan nan 0
-21.78141 -13.66457 -0.300229 17
nan nan nan 0
nan nan nan 0
-37.46978 -28.69143 0.806596 13
-41.7322 -26.28646 0.6021149 12
nan nan nan 0
-0.2427215 -0.2643479 -0.08340581 9
-4.609893 -5.099012 -0.9495602 28
-6.0111 -6.536244 -0.8372248 26
-7.381419 -8.084295 -0.699627 50
-7.885745 -7.208442 -0.7443016 17
-8.442878 -6.392416 -0.7969576 21
-8.885634 -5.537413 -0.8520253 13
-9.051348 -10.04768 -0.5486388 80
-9.728878 -8.981192 -0.6156 14
-10.21435 -7.808857 -0.671732 13
-10.82371 -6.81976 -0.7420582 9
-13.06342 -14.39876 -0.3386639 33
-13.12278 -12.02654 -0.4123397 15
-12.9159 -9.816673 -0.4718231 46
-13.70129 -8.577918 -0.5574746 34
-5.361217 -3.387602 -1.143028 37
-7.430893 -4.619268 -0.9800656 31
-45.19421 -28.12645 2.136416 17
-18.27592 -20.05572 1.576474 37
nan nan nan 0
-8.478992 -9.212994 1.532507 48
nan nan nan 0
-8.270623 -8.930066 3.250767 40
nan nan nan 0
-21.83297 -19.9128 0 10
nan nan nan 0
-22.11339 -13.76542 -0.3041463 17
nan nan nan 0
nan nan nan 0
-37.10007 -28.20347 0.796505 14
-42.01873 -26.2625 0.6049248 13
nan nan nan 0
-0.2275111 -0.2454757 -0.07708719 8
-4.630994 -5.086555 -0.9502483 31
-6.037258 -6.518876 -0.8376962 29
-7.412971 -8.062156 -0.6999471 55
-7.918244 -7.187577 -0.7449991 20
-8.473113 -6.368896 -0.7977109 18
nan nan nan 0
-9.133338 -10.06785 -0.5514846 66
-9.796981 -8.980932 -0.6179291 14
-10.24552 -7.776173 -0.6719937 13
-10.86862 -6.795159 -0.7435104 11
-13.19113 -14.43798 -0.340671 28
-12.8172 -11.66437 -0.4014307 15
nan nan nan 0
nan nan nan 0
-5.37718 -3.371477 -1.143921 35
-7.468126 -4.606331 -0.982861 33
-45.35588 -28.00789 2.139426 31
-18.35257 -19.99916 1.577055 42
nan nan nan 0
-8.453777 -9.121438 1.522148 42
-14.96993 -9.1336 3.189159 35
-8.226016 -8.819876 3.221003 39
-24.14504 -26.39688 0.2058177 10
-21.96535 -19.89353 0 9
nan nan nan 0
-22.2549 -13.74593 -0.3054326 17
nan nan nan 0
nan nan nan 0
nan nan nan 0
-42.20789 -26.17626 0.6063297 10
nan nan nan 0
-0.2413222 -0.2590536 -0.08214208 9
-4.652066 -5.074012 -0.9509364 29
-6.06337 -6.501404 -0.8381675 27
-7.441067 -8.03623 -0.6999471 58
-7.950694 -7.166574 -0.7456967 18
-8.503284 -6.345243 -0.7984641 20
-8.941072 -5.485661 -0.8536537 13
-9.218946 -10.09125 -0.5545337 65
-9.802419 -8.923141 -0.6162987 14
-10.28058 -7.746371 -0.672517 13
-10.91348 -6.770326 -0.7449626 10
-13.38695 -14.55009 -0.3444232 43
-12.84301 -11.60615 -0.4009665 24
-13.23614 -9.915009 -0.4810031 42
-13.74382 -8.471576 -0.5567836 38
-5.397275 -3.357877 -1.145705 34
nan nan nan 0
nan nan nan 0
-18.41211 -19.92398 1.576184 40
-45.82671 -27.73844 4.353797 7
-8.428027 -9.030172 1.511789 14
-15.07327 -9.12457 3.204401 12
-8.326156 -8.865066 3.248179 41
nan nan nan 0
-22.15733 -19.92708 0 8
-24.01035 -17.91858 -0.15666 9
nan nan nan 0
-30.90582 -33.58975 1.345563 28
nan nan nan 0
-37.51612 -28.10864 0.8012084 13
-42.44804 -26.12047 0.6084678 10
nan nan nan 0
-0.2259678 -0.2402993 -0.07582346 9
-4.669749 -5.057742 -0.9509364 27
-6.089432 -6.48383 -0.838639 28
-7.475876 -8.017509 -0.7005872 63
-7.98681 -7.148759 -0.746743 18
-8.537403 -6.324423 -0.799594 20
-8.968683 -5.459595 -0.8544678 11
-9.254116 -10.05901 -0.5545337 78
-9.870554 -8.922368 -0.6186278 14
-10.30756 -7.710437 -0.672517 14
-10.95831 -6.745265 -0.7464147 12
-13.15234 -14.19515 -0.3370932 29
-12.92064 -11.59464 -0.402127 25
-13.35088 -9.928385 -0.4839174 39
-13.7861 -8.431365 -0.5573018 35
-5.413152 -3.341598 -1.146598 32
nan nan nan 0
-45.93027 -27.9215 2.157284 10
nan nan nan 0
-46.04343 -27.63953 4.364741 7
-8.534007 -9.073689 1.524585 106
-14.96898 -8.983143 3.174814 33
-9.516684 -10.05253 3.698524 21
-24.4241 -26.30288 0.2065088 11
-22.33016 -19.91396 0 17
-14.42575 -10.67284 -0.09374993 11
nan nan nan 0
-31.05209 -33.45458 1.345563 31
nan nan nan 0
-37.62321 -27.92321 0.8007808 9
-42.6857 -26.00038 0.6101781 10
nan nan nan 0
-0.2464343 -0.2608902 -0.08340581 8
-4.691626 -5.044221 -0.9516245 28
-6.121123 -6.467635 -0.8395818 28
-7.52368 -8.006934 -0.7021874 49
-8.021657 -7.124665 -0.7474406 18
-8.570759 -6.296003 -0.8003473 19
-9.011868 -5.436408 -0.8565032 13
-9.347115 -10.07512 -0.5575829 73
-9.855781 -8.834265 -0.6153671 14
-10.36116 -7.680253 -0.6738254 13
-11.00895 -6.710367 -0.7478669 11
-13.32585 -14.25221 -0.3398856 21
-12.91136 -11.48499 -0.4002701 28
-13.33946 -9.826206 -0.4818774 42
-13.81713 -8.361135 -0.5569563 39
-5.433619 -3.317665 -1.14749 32
-7.526529 -4.51993 -0.9834201 35
-46.0833 -27.70701 2.158087 17
-19.25163 -20.48573 1.633399 29
-16.27167 -9.668043 1.536253 43
nan nan nan 0
-14.59928 -8.671596 3.087845 85
-9.957232 -10.4267 3.852521 17
-24.59448 -26.24651 0.2069408 11
-22.52172 -19.90907 0 14
-14.43588 -10.58319 -0.09351431 33
-16.32478 -9.815261 -0.2222923 10
-31.28415 -33.42274 1.349544 25
nan nan nan 0
-14.43383 -10.62422 0.3058942 21
-42.91814 -25.90632 0.6120107 10
nan nan nan 0
-0.2312543 -0.2419525 -0.07708719 9
-4.722117 -5.029284 -0.9530006 29
-6.153845 -6.443394 -0.8400532 25
-7.561328 -7.971391 -0.7021874 47
-8.066376 -7.09667 -0.7484869 18
-8.607306 -6.262911 -0.8011006 18
-9.015045 -5.382696 -0.8544678 12
-9.384162 -10.02694 -0.5571763 77
-9.827035 -8.731453 -0.6111745 16
-10.42141 -7.657477 -0.6756572 13
-11.05523 -6.672577 -0.7490286 12
-13.50543 -14.3236 -0.3429398 33
-13.30795 -11.73835 -0.4110631 31
nan nan nan 0
-13.8763 -8.321013 -0.5579928 30
-5.450528 -3.299321 -1.148382 37
-7.556641 -4.498613 -0.9850973 37
-16.22839 -9.676628 0.7572869 42
-19.31643 -20.39717 1.632238 30
-16.35163 -9.630772 1.540306 40
nan nan nan 0
-14.50528 -8.540645 3.060947 26
-8.36019 -8.686098 3.219709 40
nan nan nan 0
-22.67347 -19.89565 0 11
-14.49075 -10.54198 -0.09361903 29
-16.31769 -9.729767 -0.2217076 39
-31.45786 -33.3624 1.351756 27
nan nan nan 0
-14.45248 -10.5565 0.3054666 31
-16.31611 -9.7712 0.2318787 29
nan nan nan 0
nan nan nan 0
-4.744794 -5.014715 -0.9536887 29
-6.18544 -6.426894 -0.840996 29
-7.576713 -7.929187 -0.7009072 33
-8.103601 -7.076903 -0.7495333 18
-8.638287 -6.237157 -0.8018538 18
-9.043292 -5.354692 -0.855282 11
-9.437977 -10.01066 -0.5581927 70
-9.89268 -8.725115 -0.6132708 14
-10.47362 -7.636876 -0.6772273 13
-11.09987 -6.64676 -0.7504808 11
-13.73085 -14.46132 -0.3473901 34
-13.63292 -11.93649 -0.4197672 18
nan nan nan 0
-13.93533 -8.2904 -0.5592021 32
-5.470451 -3.285334 -1.150167 34
-7.615096 -4.497449 -0.9906881 34
-16.30938 -9.647889 0.7594941 46
-19.4185 -20.36213 1.634851 30
-16.41957 -9.593738 1.543549 9
-9.119414 -9.468821 1.609285 37
nan nan nan 0
-8.363581 -8.629107 3.209356 12
-24.89877 -26.19307 0.2079199 9
-22.78047 -19.84923 0 11
nan nan nan 0
-16.36016 -9.677837 -0.2218245 41
-31.6223 -33.30314 1.35382 28
nan nan nan 0
-40.37749 -29.27351 0.8524331 21
-16.35012 -9.714186 0.2318787 44
nan nan nan 0
-0.2528655 -0.2614341 -0.08466953 8
-4.765684 -5.001709 -0.9543768 28
-6.211298 -6.408841 -0.8414675 24
-7.593971 -7.8919 -0.6999471 24
-8.139558 -7.058378 -0.7505797 18
-8.672167 -6.215677 -0.8029838 19
nan nan nan 0
-9.483179 -9.988526 -0.5588025 73
-9.979428 -8.739898 -0.6167645 15
-10.52853 -7.62076 -0.679059 13
-11.14017 -6.618165 -0.7516425 9
-13.46349 -14.08078 -0.339362 37
-13.55758 -11.78715 -0.4161695 26
-13.67559 -9.840034 -0.4900374 33
-14.0804 -8.310243 -0.5638664 35
-5.486114 -3.268733 -1.151059 33
-7.647121 -4.482212 -0.9929245 38
-16.3973 -9.626618 0.7621027 15
-19.50311 -20.32264 1.636594 19
-20.22652 -11.73149 1.89863 17
-9.15092 -9.445287 1.609894 38
-14.6495 -8.4986 3.079775 38
-8.377538 -8.595337 3.205474 43
-25.02363 -26.17766 0.2083519 7
-22.55277 -19.54717 0 14
nan nan nan 0
nan nan nan 0
-31.72428 -33.24747 1.354705 29
-36.07075 -31.37539 1.109012 8
nan nan nan 0
-16.40486 -9.70027 0.2323674 27
nan nan nan 0
-0.2338171 -0.2394768 -0.07708719 9
-4.785669 -4.989456 -0.955065 28
-6.238348 -6.396426 -0.8424102 25
-7.608318 -7.857245 -0.6989869 17
-8.168019 -7.04071 -0.7512771 17
-8.698694 -6.195703 -0.803737 21
-9.137032 -5.332901 -0.8609812 10
-9.524829 -9.976464 -0.5596156 71
-9.990978 -8.703897 -0.6160658 15
-10.58897 -7.622335 -0.6816758 12
-11.1735 -6.601073 -0.7528043 11
-13.37319 -13.91803 -0.3362206 32
-13.49358 -11.67784 -0.4133842 33
-13.76118 -9.857933 -0.4923688 31
-14.21413 -8.349029 -0.5685308 38
-5.496044 -3.26166 -1.151951 37
nan nan nan 0
nan nan nan 0
-19.56641 -20.30332 1.638337 29
-20.24673 -11.68661 1.898225 9
-9.224226 -9.477866 1.619034 37
-14.86476 -8.578373 3.121018 13
-8.412025 -8.588649 3.21065 36
-20.15249 -20.97743 0.1673151 39
nan nan nan 0
-24.81166 -17.71981 -0.1594351 17
-19.15199 -11.19333 -0.2589512 30
nan nan nan 0
-36.20528 -31.30419 1.110288 18
nan nan nan 0
nan nan nan 0
nan nan nan 0
nan nan nan 0
-4.795239 -4.980259 -0.955065 28
-6.255211 -6.386904 -0.8428817 25
-7.635188 -7.85203 -0.6999471 19
-8.195327 -7.031905 -0.7523235 18
-8.724933 -6.184597 -0.8048669 21
-9.16297 -5.318057 -0.8622024 13
-9.552635 -9.956768 -0.5598189 84
-9.957121 -8.628639 -0.612572 15
-10.59265 -7.582965 -0.6806291 13
-11.21342 -6.58247 -0.7542564 11
-13.80443 -14.287 -0.3460812 42
-13.76309 -11.83989 -0.4205796 22
nan nan nan 0
-14.26619 -8.319427 -0.5695673 40
-5.515879 -3.24744 -1.153736 33
-7.658356 -4.433311 -0.9912472 37
nan nan nan 0
nan nan nan 0
-18.96815 -10.86094 1.774595 40
-9.19128 -9.378242 1.607457 40
-14.9544 -8.560627 3.133571 14
-8.472464 -8.590194 3.222297 35
-20.24298 -20.92493 0.1674591 54
nan nan nan 0
-25.13443 -17.81815 -0.1611106 17
-19.14336 -11.09884 -0.2583081 37
-20.24443 -20.9483 0.8583584 42
-36.56842 -31.39579 1.118064 12
nan nan nan 0
nan nan nan 0
nan nan nan 0
nan nan nan 0
-4.816039 -4.967048 -0.955753 32
-6.280962 -6.368577 -0.8433531 29
-7.676508 -7.839598 -0.7012273 24
-8.231212 -7.012962 -0.7533699 17
-8.754623 -6.159841 -0.8056202 20
-9.211718 -5.303429 -0.865052 13
-9.625501 -9.9629 -0.5620549 85
-9.949326 -8.561247 -0.6102428 15
-10.60684 -7.537268 -0.679844 14
-11.26222 -6.558348 -0.755999 10
-13.77057 -14.15271 -0.3439869 36
-13.81194 -11.79827 -0.4208117 26
-13.64662 -9.639592 -0.4859574 34
-14.34706 -8.299588 -0.5716404 38
-5.52718 -3.228167 -1.153736 34
-7.708267 -4.426324 -0.9957199 39
-19.06387 -10.96413 0.8816954 40
nan nan nan 0
-18.93414 -10.74954 1.767704 20
-8.965786 -9.077952 1.561756 46
-14.73896 -8.362437 3.081569 18
-8.440726 -8.492486 3.197709 52
nan nan nan 0
nan nan nan 0
-25.29476 -17.77307 -0.1616604 17
-19.18534 -11.01606 -0.2582496 42
nan nan nan 0
-36.79643 -31.31369 1.120849 11
-38.95136 -27.46907 0.8146346 14
-19.18336 -11.05936 0.2700568 29
nan nan nan 0
-0.2627872 -0.2652593 -0.08719698 9
-4.837669 -4.952909 -0.956441 30
-6.311274 -6.35258 -0.8442959 26
-7.724067 -7.827832 -0.7028275 28
-8.269505 -6.990966 -0.7544162 18
-8.79155 -6.133204 -0.8067501 20
-9.232932 -5.266408 -0.865052 14
-9.700257 -9.959985 -0.5640876 99
-9.962305 -8.500042 -0.6088454 15
-10.67915 -7.521519 -0.6824608 13
-11.31668 -6.524094 -0.7577416 9
-13.75517 -14.01398 -0.3420672 37
-13.7697 -11.66276 -0.4180264 22
nan nan nan 0
-14.42361 -8.256728 -0.5731952 35
-5.546594 -3.204542 -1.154628 33
-7.776581 -4.416914 -1.00187 36
-19.18047 -10.91121 0.8847054 41
nan nan nan 0
-18.7611 -10.53909 1.747031 27
-8.907277 -8.940266 1.544694 44
-14.85253 -8.341378 3.097707 25
-8.361488 -8.339565 3.15371 47
nan nan nan 0
-26.7925 -22.55897 0 11
-25.56693 -17.81142 -0.1629432 19
-19.32503 -10.99332 -0.2595359 12
nan nan nan 0
-37.03096 -31.26892 1.124331 11
nan nan nan 0
-19.217 -10.98066 0.2699346 45
nan nan nan 0
nan nan nan 0
-4.863569 -4.934435 -0.9571292 27
-6.343558 -6.327393 -0.8447673 25
-7.775741 -7.811745 -0.7044278 31
-8.307575 -6.961226 -0.7551138 18
-8.833569 -6.107663 -0.8082566 23
-9.254912 -5.227687 -0.865052 12
-9.773385 -9.951356 -0.5659171 95
nan nan nan 0
-10.73791 -7.498596 -0.6842926 13
-11.385 -6.505338 -0.7606459 10
-13.60152 -13.7513 -0.3369187 31
-13.83554 -11.62347 -0.4186067 29
-13.73345 -9.533025 -0.4862488 26
-14.51028 -8.235854 -0.5754409 30
-5.562016 -3.187604 -1.15552 35
-7.809273 -4.399485 -1.004106 36
nan nan nan 0
nan nan nan 0
-16.5685 -9.232224 1.539495 28
-8.984104 -8.954683 1.552615 31
-15.10075 -8.411488 3.143433 24
-8.359677 -8.279725 3.142063 36
nan nan nan 0
-23.86763 -19.95404 0 11
-25.69064 -17.76472 -0.1633359 21
nan nan nan 0
nan nan nan 0
-37.18202 -31.1748 1.125607 11
-39.38575 -27.34531 0.819509 9
nan nan nan 0
nan nan nan 0
-0.2446362 -0.2423673 -0.07961464 8
-4.880763 -4.917428 -0.9571292 31
-6.372675 -6.312221 -0.8457102 30
-7.817084 -7.798658 -0.705708 33
-8.343326 -6.941757 -0.7561601 18
-8.867168 -6.085251 -0.8093866 19
nan nan nan 0
-9.857225 -9.966929 -0.568763 95
-9.953174 -8.363976 -0.6044199 16
-10.78865 -7.478133 -0.6858627 12
-11.39461 -6.458179 -0.7597747 11
-13.59654 -13.65059 -0.3356098 26
-13.88371 -11.58151 -0.4188388 20
-13.76253 -9.482194 -0.4861031 28
-14.63476 -8.239055 -0.5792415 17
-5.57351 -3.177409 -1.156413 35
-7.858258 -4.403592 -1.009138 39
-47.4824 -26.64129 2.185176 11
nan nan nan 0
-16.58941 -9.194607 1.539495 30
-9.064263 -8.993723 1.562974 26
-15.20587 -8.424853 3.161365 38
-8.36813 -8.250561 3.138181 41
nan nan nan 0
-27.07571 -22.53223 0 9
-25.74324 -17.71488 -0.1634144 17
-23.43891 -13.15416 -0.3138519 17
nan nan nan 0
-37.32174 -31.14801 1.127696 11
-39.44769 -27.25588 0.819509 11
nan nan nan 0
