# .PCD v0.7 - Point Cloud Data file format
VERSION 0.7
FIELDS x y z intensity
SIZE 4 4 4 4
TYPE F F F F
COUNT 1 1 1 1
WIDTH 1588
HEIGHT 1
VIEWPOINT 0 0 0 1 0 0 0
POINTS 1588
DATA ascii
-1.546638 -8.541903 -0.7058824 37
1.438241 -14.19011 -0.5787234 33
nan nan nan 0
-0.8406333 -10.01097 -0.5244063 12
-1.809744 -10.28399 -0.6052639 23
1.784379 -18.2548 -0.3194663 10
0.08806382 -16.61523 -0.3848349 9
-0.878423 -10.12259 -0.2950716 22
-2.419188 -13.51663 -0.4733438 33
-0.9095923 -5.210181 -0.9520775 21
-1.302985 -7.151227 -0.8134601 17
-8.038282 -44.2187 1.803523 109
2.932689 -30.68269 1.791105 39
-7.088364 -37.83429 3.127632 64
4.142625 -45.57834 5.614521 14
-1.779259 -9.510801 1.756413 35
0.8921101 -10.21542 2.737011 46
2.990139 -30.77414 0.177855 27
nan nan nan 0
-0.8964914 -10.12518 -0.05301414 18
-3.436011 -18.91879 -0.2243971 9
2.99326 -30.64034 0.9071674 36
0.2013723 -46.59194 1.080811 44
-0.8666656 -10.00601 0.1711195 18
nan nan nan 0
nan nan nan 0
0.03355401 -0.3767352 -0.08846071 40
0.617797 -6.438268 -0.893137 25
0.706215 -8.082716 -0.7646275 38
0.9093475 -9.992786 -0.641058 73
0.004823915 -9.377131 -0.6529205 25
nan nan nan 0
-1.575537 -8.531552 -0.7054753 32
1.390164 -14.20996 -0.5793332 25
nan nan nan 0
-0.8816777 -10.07761 -0.5280698 12
-1.881907 -10.47903 -0.6171717 17
1.718765 -18.24101 -0.3191172 10
0.03004612 -16.60544 -0.3846028 9
-0.9187059 -10.17421 -0.2966744 10
-2.469054 -13.52285 -0.4738621 27
-0.9277736 -5.206974 -0.9520775 19
-1.327939 -7.146636 -0.8134601 18
-8.188028 -44.16581 1.802519 110
2.817316 -30.60327 1.785877 41
nan nan nan 0
2.71143 -31.05268 3.822432 17
-1.812448 -9.504533 1.756413 30
0.8544172 -10.19441 2.730541 41
2.887836 -30.83915 0.1781718 37
nan nan nan 0
nan nan nan 0
-3.502029 -18.90669 -0.2243971 10
2.890982 -30.70035 0.908642 38
0.03871741 -46.57237 1.080346 41
-0.903836 -10.02782 0.171547 14
nan nan nan 0
nan nan nan 0
0.4203511 -4.217747 -1.096913 12
0.5953194 -6.440385 -0.893137 28
0.6746438 -8.045451 -0.7608563 37
nan nan nan 0
-0.02811734 -9.451908 -0.6581523 25
nan nan nan 0
-1.604383 -8.521104 -0.7050682 33
1.339612 -14.20477 -0.5789267 33
nan nan nan 0
nan nan nan 0
-1.941022 -10.59513 -0.6244326 15
1.652363 -18.21703 -0.3185937 9
-0.02782363 -16.54546 -0.3832102 11
-0.9514086 -10.14108 -0.2958001 10
-2.451161 -13.16538 -0.4615965 36
-0.9459438 -5.203704 -0.9520775 18
-1.352877 -7.141956 -0.8134601 17
-7.170454 -37.94188 1.549288 52
2.710914 -30.6179 1.786168 38
-8.544993 -43.90823 3.635123 8
2.629181 -31.3735 3.860821 20
-1.847496 -9.507804 1.758207 31
nan nan nan 0
nan nan nan 0
-0.1041037 -25.47472 0 19
nan nan nan 0
-3.568004 -18.89435 -0.2243971 9
2.785608 -30.73017 0.9092318 39
-0.1237722 -46.54223 1.07965 40
nan nan nan 0
-5.83931 -31.23104 0.3877065 10
nan nan nan 0
0.03420997 -0.410664 -0.09730678 48
0.5723919 -6.437491 -0.892449 29
0.646154 -8.042795 -0.7603849 39
0.8269591 -9.849731 -0.6314566 86
-0.06045236 -9.34701 -0.6508279 28
-0.8961228 -9.029823 -0.6824608 27
-1.632233 -8.505664 -0.7042541 37
1.283215 -14.13474 -0.5758775 30
nan nan nan 0
nan nan nan 0
-1.962371 -10.50488 -0.6194952 17
1.586149 -18.1928 -0.3180701 10
-0.08578028 -16.58525 -0.3841386 9
-0.9848614 -10.11781 -0.2952173 11
-2.536321 -13.36292 -0.4688522 44
-0.9632006 -5.195533 -0.9511852 22
-1.377799 -7.13719 -0.8134601 17
-8.491435 -44.08305 1.801516 112
2.611225 -30.71172 1.791105 41
-8.694331 -43.85857 3.633501 9
2.499751 -31.13515 3.830353 10
-1.880673 -9.501297 1.758207 29
nan nan nan 0
2.689762 -31.05781 0.1793237 34
-0.1945649 -25.67919 0 17
nan nan nan 0
-3.634883 -18.88669 -0.2244556 9
2.655283 -30.47582 0.9014165 39
-0.2860509 -46.51152 1.078954 41
nan nan nan 0
-5.951102 -31.2252 0.3878898 13
nan nan nan 0
0.03277628 -0.4107809 -0.09730678 49
0.5499173 -6.43945 -0.892449 25
0.6188444 -8.054928 -0.7613277 36
0.7901555 -9.822717 -0.6295363 94
nan nan nan 0
nan nan nan 0
-1.660954 -8.495025 -0.703847 31
1.236049 -14.16401 -0.5768939 35
nan nan nan 0
nan nan nan 0
-2.012134 -10.56661 -0.6235612 21
1.520543 -18.17332 -0.3176338 10
-0.1435021 -16.56485 -0.3836744 10
-1.565346 -15.50953 -0.4533173 13
-2.641907 -13.65814 -0.4795629 41
-0.9794935 -5.182473 -0.9494006 18
-1.402704 -7.132338 -0.8134601 18
-8.642374 -44.03843 1.800914 114
2.500755 -30.68085 1.788781 45
-8.843427 -43.80842 3.63188 9
2.419228 -31.50985 3.875445 19
-1.904079 -9.446461 1.749241 31
nan nan nan 0
2.524906 -30.38936 0.1754072 38
nan nan nan 0
nan nan nan 0
-3.701751 -18.87879 -0.224514 9
2.54054 -30.3853 0.8984673 36
-0.4479728 -46.46525 1.077909 43
-3.815 -37.83754 0.6498434 10
-6.056247 -31.18461 0.3876454 20
nan nan nan 0
0.03003441 -0.3964389 -0.0935156 54
0.5270277 -6.436394 -0.8917609 25
0.5918253 -8.071932 -0.7627419 40
0.7543212 -9.805515 -0.6282561 97
-0.1223307 -9.092004 -0.63304 34
-0.9549158 -8.983685 -0.6794478 28
-1.686691 -8.469628 -0.7022187 29
nan nan nan 0
nan nan nan 0
nan nan nan 0
-2.002295 -10.31944 -0.60933 26
1.456696 -18.17353 -0.3175465 10
-0.2014437 -16.57425 -0.3839065 9
-1.616356 -15.47414 -0.4524431 13
-2.706991 -13.73708 -0.4826724 36
-0.995707 -5.169362 -0.947616 22
-1.427592 -7.127398 -0.8134601 17
-8.795065 -44.00309 1.800714 113
2.409982 -30.8984 1.80098 37
-8.992277 -43.75776 3.630258 10
3.318192 -45.25764 5.566991 15
-1.928117 -9.396395 1.741171 34
nan nan nan 0
2.400129 -30.16374 0.1740537 35
-0.3694875 -25.37724 0 16
nan nan nan 0
-3.768608 -18.87066 -0.2245725 9
2.444458 -30.51853 0.9021538 39
-0.6095098 -46.41343 1.076749 43
-3.974567 -38.08752 0.6543758 9
nan nan nan 0
nan nan nan 0
0.02990771 -0.4109997 -0.09730678 63
0.5041662 -6.433258 -0.8910728 28
0.566444 -8.113671 -0.7665132 33
0.7292902 -9.932492 -0.6362573 67
-0.1546519 -9.126431 -0.6354814 31
-0.9939043 -9.04968 -0.6847207 28
-1.719226 -8.478338 -0.7034399 34
1.073694 -13.3855 -0.5447765 111
nan nan nan 0
nan nan nan 0
-2.019867 -10.21936 -0.6038117 27
1.392099 -18.16355 -0.3172847 10
-0.2594527 -16.58344 -0.3841386 9
-1.653709 -15.31437 -0.4479259 13
-2.782509 -13.86472 -0.4875095 28
-1.008032 -5.136895 -0.9422622 26
-1.452463 -7.122372 -0.8134601 17
-8.94562 -43.95744 1.800112 115
2.293936 -30.79711 1.79459 33
-9.142923 -43.71635 3.629448 11
2.197806 -31.50617 3.873008 11
-1.960905 -9.389606 1.741171 34
nan nan nan 0
2.284561 -30.03733 0.1732762 33
-0.4533047 -25.11084 0 17
-2.319506 -21.1277 -0.111081 9
-3.834456 -18.85739 -0.2245725 8
2.373109 -30.98532 0.91572 30
-0.7707732 -46.36603 1.075704 48
-4.067796 -37.7056 0.6480475 9
-6.318276 -31.36211 0.3903943 30
nan nan nan 0
0.02847288 -0.4111016 -0.09730678 72
0.4817068 -6.434978 -0.8910728 24
0.5344611 -8.060966 -0.7613277 42
0.6869001 -9.825476 -0.6292163 77
-0.1900423 -9.300374 -0.6476888 25
-1.027176 -9.061017 -0.6858506 26
-1.74881 -8.472286 -0.7034399 35
1.030421 -13.434 -0.546606 98
-0.1858908 -11.97551 -0.5566719 14
nan nan nan 0
-2.088113 -10.37371 -0.613396 16
1.329054 -18.17329 -0.317372 9
-0.3174332 -16.58743 -0.3842547 9
-1.669449 -14.97075 -0.4380173 15
-2.771758 -13.56609 -0.4773171 38
-1.031771 -5.162285 -0.947616 19
-1.477316 -7.117258 -0.8134601 17
-9.096976 -43.91616 1.79971 117
2.184294 -30.77506 1.792848 37
-9.292352 -43.66954 3.628232 11
2.99492 -45.17076 5.553586 13
-1.990593 -9.368271 1.738482 35
nan nan nan 0
2.19493 -30.25456 0.1744857 38
-0.5433164 -25.21907 0 18
-2.396058 -21.14431 -0.1112119 9
-3.901272 -18.84878 -0.224631 9
2.243757 -30.70432 0.9071674 38
-0.9315127 -46.30809 1.074428 48
-4.178897 -37.50734 0.6448834 13
-6.437766 -31.38884 0.3910051 30
nan nan nan 0
0.02742314 -0.4160208 -0.0985705 81
0.4592416 -6.436621 -0.8910728 27
0.5104167 -8.127363 -0.767456 35
0.6605977 -9.947299 -0.6368974 55
-0.222032 -9.279708 -0.6462936 22
nan nan nan 0
-1.776318 -8.456378 -0.7026258 33
0.983521 -13.43752 -0.546606 99
-0.2291983 -12.05468 -0.5603986 15
nan nan nan 0
-2.135361 -10.42014 -0.6165909 18
1.263517 -18.14789 -0.3168484 9
-0.3755573 -16.59622 -0.3844868 10
-1.68853 -14.67686 -0.4295659 31
-2.780362 -13.37044 -0.4707525 41
-1.051757 -5.168292 -0.9494006 22
-1.502151 -7.112058 -0.8134601 17
-9.247124 -43.86947 1.799108 117
2.087636 -30.94186 1.802141 41
-9.442622 -43.6271 3.627421 11
2.831929 -45.09675 5.543227 15
-8.140951 -37.58505 7.002343 47
2.662201 -44.63438 11.97038 13
2.105538 -30.49648 0.1758392 40
-0.6379573 -25.48194 0 18
-2.463463 -21.08119 -0.1109239 9
-3.966011 -18.83016 -0.2245725 9
2.149432 -30.89644 0.9126233 36
-1.092681 -46.28456 1.073963 47
-4.323504 -37.61172 0.6469358 11
-6.577966 -31.513 0.3928376 30
nan nan nan 0
0.02597079 -0.416114 -0.0985705 103
0.4367708 -6.438185 -0.8910728 26
0.4784701 -8.069469 -0.7617991 38
0.6280825 -9.984403 -0.6391377 71
-0.2568671 -9.368624 -0.6525717 25
-1.068907 -8.875429 -0.6722918 33
-1.810004 -8.469616 -0.7042541 34
0.9484878 -13.61031 -0.5535173 113
-0.2706062 -12.02385 -0.5590011 15
nan nan nan 0
-2.1707 -10.40774 -0.6163004 18
1.198505 -18.12725 -0.3164121 9
-0.4336165 -16.5998 -0.3846028 9
-1.752713 -14.78006 -0.4327716 34
-2.83738 -13.40953 -0.47248 39
-1.071797 -5.174222 -0.9511852 22
-1.52592 -7.101914 -0.812901 18
-9.398106 -43.82717 1.798707 117
1.975463 -30.8842 1.798366 35
-9.592709 -43.58414 3.626611 10
2.669491 -45.02214 5.532868 15
-8.267862 -37.53719 6.998756 57
2.502855 -44.58071 11.95356 15
2.013827 -30.72815 0.1771351 34
-0.7315955 -25.6445 0 17
-2.540025 -21.09728 -0.1110548 9
-4.031716 -18.8162 -0.2245725 9
2.046195 -30.97357 0.9146878 37
-1.253156 -46.24049 1.073035 46
-4.448294 -37.54179 0.6459951 16
-6.704557 -31.56809 0.393815 33
nan nan nan 0
0.02451812 -0.4162021 -0.0985705 103
0.4142947 -6.43967 -0.8910728 26
0.4486167 -8.041271 -0.7589707 41
0.5854648 -9.857034 -0.6308165 94
-0.2866575 -9.272946 -0.645945 28
-1.106027 -8.921121 -0.6760581 30
-1.820448 -8.375605 -0.6969265 36
0.9089403 -13.73317 -0.5583959 98
nan nan nan 0
nan nan nan 0
-2.187282 -10.30733 -0.6107821 19
1.133338 -18.10139 -0.3158886 9
-0.4912632 -16.58819 -0.3843707 10
nan nan nan 0
-2.86837 -13.32628 -0.4698887 43
-1.090871 -5.175262 -0.9520775 21
-1.550701 -7.096545 -0.812901 18
-9.547837 -43.77945 1.798105 119
1.871572 -30.95568 1.802141 39
-9.742608 -43.54066 3.6258 11
2.508994 -44.97172 5.525556 16
-8.391313 -37.4745 6.99248 45
2.343661 -44.52165 11.93544 15
1.929528 -31.10427 0.1792661 42
-0.8199892 -25.6068 0 21
-2.613653 -21.08829 -0.1110548 9
-4.097373 -18.80201 -0.2245725 9
1.931493 -30.87577 0.9115912 34
nan nan nan 0
-4.590217 -37.61536 0.6475344 16
-6.827388 -31.60313 0.394548 35
nan nan nan 0
0.02306516 -0.4162851 -0.0985705 118
0.3915086 -6.436134 -0.8903847 26
0.4197553 -8.027876 -0.7575564 43
0.5606126 -10.0284 -0.6416981 67
-0.3186831 -9.261919 -0.6452473 30
-1.149796 -9.016118 -0.6835908 29
-1.871246 -8.466504 -0.7050682 32
0.8723214 -13.91576 -0.5657138 42
nan nan nan 0
nan nan nan 0
-2.246473 -10.40697 -0.6171717 17
1.06896 -18.08527 -0.3155395 10
-0.5488341 -16.57639 -0.3841386 9
nan nan nan 0
-2.93735 -13.41868 -0.4735165 38
-1.108929 -5.171423 -0.9520775 23
-1.575463 -7.091088 -0.812901 18
-9.698433 -43.7361 1.797704 118
1.780019 -31.25106 1.818986 37
-9.893429 -43.50153 3.625394 11
2.347583 -44.89595 5.515197 16
nan nan nan 0
2.183723 -44.43792 11.91085 15
1.821821 -31.12579 0.1793525 43
-0.9104314 -25.63376 0 16
-2.677125 -20.99968 -0.1106359 10
-4.164062 -18.79247 -0.224631 10
1.825773 -30.91725 0.9126233 37
nan nan nan 0
-4.705914 -37.4751 0.6453965 16
-6.938736 -31.58399 0.3946091 30
nan nan nan 0
0.02129383 -0.4115359 -0.09730678 116
0.36904 -6.437461 -0.8903847 24
0.3932048 -8.059122 -0.7603849 39
0.516636 -9.86088 -0.6308165 84
-0.3498834 -9.230845 -0.6431547 24
-1.171526 -8.9379 -0.6779413 30
-1.912839 -8.513398 -0.7095462 32
0.8133405 -13.74417 -0.5585992 99
-0.391423 -11.86561 -0.5517806 17
nan nan nan 0
-2.292441 -10.44293 -0.6197856 16
1.004429 -18.06394 -0.3151032 9
-0.6065109 -16.56937 -0.3840226 10
-1.902903 -14.7262 -0.4317516 37
-2.971121 -13.34982 -0.4714435 46
-1.126974 -5.167521 -0.9520775 22
-1.600206 -7.085546 -0.812901 18
-9.848844 -43.69223 1.797302 119
1.670387 -31.24712 1.818406 27
-10.03174 -43.40847 3.62053 57
2.187216 -44.82952 5.506057 17
nan nan nan 0
2.025722 -44.38254 11.89403 14
1.730249 -31.44148 0.181138 39
-1.002434 -25.69538 0 17
-2.745862 -20.95551 -0.1104527 9
-4.230734 -18.7827 -0.2246894 9
1.708941 -30.76375 0.9079047 35
-1.732057 -46.08497 1.069785 40
-4.821967 -37.34441 0.6434296 15
-7.040217 -31.52055 0.3941204 31
nan nan nan 0
0.02045963 -0.4212642 -0.09983423 114
0.3462964 -6.433765 -0.8896966 25
0.3655277 -8.070392 -0.7613277 40
0.4822119 -9.862623 -0.6308165 85
-0.3849784 -9.299338 -0.6480376 21
-1.212712 -9.007872 -0.6835908 27
-1.941432 -8.501811 -0.7091391 34
0.7622821 -13.69206 -0.5563632 107
-0.4330206 -11.86916 -0.5520136 17
nan nan nan 0
-2.312534 -10.3618 -0.615429 16
0.9403211 -18.04736 -0.3147541 10
-0.6645448 -16.57215 -0.3841386 10
-1.945077 -14.65011 -0.4297116 34
-3.02433 -13.36861 -0.47248 35
-1.145005 -5.163555 -0.9520775 21
-1.624929 -7.079917 -0.812901 18
-9.999065 -43.64784 1.796901 121
nan nan nan 0
-10.1946 -43.4217 3.624583 77
2.027342 -44.76253 5.496917 17
-9.431712 -40.14269 7.508914 9
1.867727 -44.31696 11.87462 16
1.632622 -31.68202 0.1824915 36
-1.091485 -25.67674 0 15
-2.811652 -20.89128 -0.1101647 9
-4.298507 -18.77757 -0.2248064 9
1.619794 -31.1189 0.9182268 35
-1.891068 -46.03369 1.068741 42
-4.960187 -37.38682 0.6444559 13
-7.046082 -31.03749 0.3883784 31
nan nan nan 0
0.01728277 -0.3923573 -0.09225187 104
0.3235831 -6.429989 -0.8890086 28
0.3377767 -8.081564 -0.7622705 38
nan nan nan 0
-0.4187734 -9.327833 -0.6501303 25
-1.23868 -8.964075 -0.6805777 28
-1.972227 -8.499836 -0.7095462 33
0.7105483 -13.6198 -0.553314 73
-0.4712699 -11.78773 -0.5482869 21
nan nan nan 0
-2.339835 -10.31473 -0.6131056 18
0.8760973 -18.02557 -0.3143178 10
-0.7221712 -16.56474 -0.3840226 10
-2.009042 -14.73731 -0.4324802 35
-3.004806 -13.07067 -0.4622876 28
-1.163023 -5.159527 -0.9520775 21
-1.650765 -7.079039 -0.8134601 17
-10.1491 -43.60294 1.7965 119
nan nan nan 0
nan nan nan 0
1.868377 -44.70487 5.488995 15
-9.566067 -40.08561 7.504431 10
1.710589 -44.26048 11.85779 15
1.548023 -32.22689 0.1856017 41
-1.17996 -25.6478 0 17
-2.877713 -20.83182 -0.1099029 10
-4.36516 -18.76732 -0.2248648 9
1.520403 -31.31406 0.9238302 39
-2.051077 -46.01183 1.068393 44
-5.040709 -37.00272 0.6381276 13
-7.169001 -31.07604 0.3891726 29
nan nan nan 0
0.01671563 -0.4069061 -0.09604306 93
0.3011362 -6.431079 -0.8890086 26
0.3103394 -8.10259 -0.7641561 40
0.4184241 -9.985395 -0.6384977 70
-0.4515713 -9.331298 -0.6504791 23
nan nan nan 0
-1.99386 -8.458951 -0.7066966 37
nan nan nan 0
-0.5065787 -11.65128 -0.5419981 19
nan nan nan 0
-2.371331 -10.28704 -0.6119439 23
0.8122638 -18.00854 -0.3139688 10
-0.7816307 -16.59707 -0.3848349 10
nan nan nan 0
-3.073184 -13.15741 -0.4657426 39
-1.181026 -5.155436 -0.9520775 22
-1.675465 -7.073234 -0.8134601 18
-10.30009 -43.56239 1.796299 123
nan nan nan 0
-10.49749 -43.34947 3.624583 8
1.70984 -44.64665 5.481073 18
-9.694342 -40.00417 7.495465 11
1.553527 -44.19378 11.83838 14
1.434851 -32.21711 0.1855153 41
-1.271455 -25.68347 0 19
-2.944095 -20.77709 -0.1096673 8
-4.432946 -18.76169 -0.2249818 8
1.41041 -31.3042 0.9233879 26
-2.208798 -45.94447 1.067 51
-5.168458 -36.97499 0.6379566 15
-7.278574 -31.05569 0.3892336 28
nan nan nan 0
0.01479385 -0.3972996 -0.0935156 70
0.2784671 -6.427144 -0.8883204 26
0.2806436 -8.063827 -0.7603849 40
0.3802653 -9.902034 -0.6330568 88
-0.48105 -9.269891 -0.6462936 27
-1.291896 -8.891068 -0.6756815 30
-2.018722 -8.432556 -0.7050682 33
0.6038452 -13.3699 -0.5429471 120
-0.5514498 -11.73925 -0.5461906 18
nan nan nan 0
-2.403803 -10.26412 -0.6110726 17
0.7485599 -17.99129 -0.3136197 10
-0.8375443 -16.5543 -0.3839065 10
-2.095543 -14.60915 -0.4291288 46
-3.152603 -13.28759 -0.4707525 39
-1.199014 -5.151282 -0.9520775 20
-1.700145 -7.067342 -0.8134601 17
-10.45092 -43.52131 1.796098 123
1.854356 -46.91861 2.729787 8
-10.64875 -43.31256 3.624583 9
1.551732 -44.58787 5.473152 18
-9.832747 -39.9653 7.494568 11
1.396491 -44.11205 11.81509 10
1.325472 -32.29686 0.1859472 38
-1.365592 -25.76376 0 23
-3.01013 -20.72216 -0.1094316 10
-4.500746 -18.75583 -0.2250987 9
nan nan nan 0
-2.369418 -45.94147 1.067116 47
-5.289688 -36.90229 0.6370158 15
-7.401998 -31.09332 0.3900278 32
nan nan nan 0
nan nan nan 0
0.2560305 -6.428076 -0.8883204 24
0.2507454 -8.010031 -0.7551994 45
0.3393355 -9.723783 -0.6215351 97
-0.5186291 -9.362779 -0.6529205 22
-1.3266 -8.911161 -0.6775646 25
-2.044604 -8.410933 -0.703847 31
0.5613734 -13.47176 -0.5470126 119
-0.6007053 -11.90187 -0.5538769 15
nan nan nan 0
-2.437302 -10.24596 -0.6104918 24
0.6849864 -17.97381 -0.3132707 9
-0.8945161 -16.5363 -0.3835584 10
-2.138523 -14.54735 -0.4275259 40
-3.213035 -13.33479 -0.4728255 41
-1.216988 -5.147065 -0.9520775 24
-1.724804 -7.061365 -0.8134601 17
-10.6004 -43.47486 1.795697 122
1.689306 -46.88988 2.727754 10
-10.79504 -43.25579 3.622962 11
1.394212 -44.53349 5.46584 17
-9.968616 -39.91642 7.491879 11
1.237997 -43.95733 11.77238 9
1.20858 -32.19136 0.1853137 35
-1.460024 -25.83871 0 14
-3.080237 -20.69669 -0.1093531 9
-4.567373 -18.74486 -0.2251572 10
nan nan nan 0
-2.527572 -45.89299 1.066188 53
-5.401024 -36.7649 0.6349635 15
-7.530474 -31.1499 0.3910662 35
nan nan nan 0
0.01136908 -0.3828948 -0.08972443 62
0.2335908 -6.428931 -0.8883204 28
0.2243411 -8.065589 -0.7603849 44
0.3060284 -9.744858 -0.6228153 88
-0.5448769 -9.251369 -0.6452473 24
-1.35544 -8.891689 -0.6764347 24
-2.064373 -8.365046 -0.7005903 35
0.5214729 -13.65835 -0.5545337 101
-0.5375867 -9.954626 -0.4630392 13
nan nan nan 0
-2.466005 -10.20828 -0.6087491 29
0.6217185 -17.9611 -0.3130089 9
-0.9502251 -16.49814 -0.382746 11
-2.188545 -14.53486 -0.4273802 39
-3.26432 -13.34291 -0.4735165 36
-1.234947 -5.142786 -0.9520775 20
-1.750642 -7.060122 -0.8140191 18
-10.7509 -43.43274 1.795496 120
1.525294 -46.88551 2.727173 10
-10.9423 -43.20335 3.621746 10
1.236951 -44.4736 5.457918 18
-10.10426 -39.86708 7.489189 12
1.082156 -43.86483 11.7465 15
1.089193 -31.99051 0.184133 31
nan nan nan 0
-3.150202 -20.67098 -0.1092746 9
-4.635181 -18.73851 -0.2252741 6
1.629377 -47.0559 1.388031 35
-2.684248 -45.82401 1.064795 37
-5.525603 -36.7211 0.6345358 17
-7.683287 -31.30308 0.3933263 34
nan nan nan 0
0.0102325 -0.3877657 -0.09098815 55
0.2111482 -6.429708 -0.8883204 25
0.1961855 -8.066323 -0.7603849 38
0.2751332 -9.855596 -0.6298563 93
-0.57376 -9.194651 -0.6414107 20
-1.381852 -8.857348 -0.6741749 23
-2.102058 -8.391622 -0.7034399 31
nan nan nan 0
-0.5874773 -10.21697 -0.4753838 11
nan nan nan 0
-2.505198 -10.21415 -0.6096205 18
0.5587047 -17.95317 -0.3128344 10
-1.008417 -16.5047 -0.3829781 10
nan nan nan 0
-3.308463 -13.32174 -0.473171 37
-1.252892 -5.138443 -0.9520775 20
-1.775276 -7.053968 -0.8140191 19
-10.90122 -43.39011 1.795296 121
1.359587 -46.8207 2.723107 9
-11.09304 -43.16489 3.621746 11
1.080125 -44.41315 5.449996 18
-10.23969 -39.81728 7.4865 12
0.927182 -43.78143 11.72321 17
nan nan nan 0
nan nan nan 0
-3.221566 -20.65492 -0.1092484 10
-4.703 -18.73191 -0.225391 9
1.461521 -46.94641 1.38464 38
-2.840163 -45.7495 1.063286 48
-5.645376 -36.64724 0.6335952 16
-7.837261 -31.45556 0.3955865 33
nan nan nan 0
0.009794768 -0.41197 -0.09730678 60
0.1885535 -6.425455 -0.8876324 22
0.1683482 -8.081889 -0.7617991 41
0.2386122 -9.771698 -0.6244155 102
-0.6048706 -9.17766 -0.6403643 18
-1.402533 -8.788467 -0.6692787 33
-2.135031 -8.39872 -0.7046612 34
0.4216894 -13.52184 -0.548842 101
-0.7353109 -12.05944 -0.5615631 16
nan nan nan 0
-2.517877 -10.11333 -0.6041022 26
0.4956143 -17.94002 -0.3125726 10
-1.065058 -16.48612 -0.3826299 11
-2.270481 -14.3958 -0.4237373 41
-3.398982 -13.48453 -0.4793901 32
-1.27082 -5.134039 -0.9520775 22
-1.799888 -7.047729 -0.8140191 18
-11.05138 -43.34695 1.795095 122
1.194736 -46.77027 2.719912 11
-11.24238 -43.12109 3.621341 10
0.9237368 -44.35214 5.442075 20
-10.37364 -39.76225 7.482913 12
0.7736628 -43.74577 11.71286 15
0.8889724 -32.847 0.1890286 40
nan nan nan 0
-3.29207 -20.63367 -0.109196 9
-4.768358 -18.71538 -0.225391 9
1.296668 -46.91625 1.383607 44
-2.997553 -45.7044 1.062474 44
-5.747571 -36.46435 0.6307731 17
-7.981353 -31.56372 0.3972969 31
nan nan nan 0
0.007691461 -0.3926624 -0.09225187 57
0.1661234 -6.426075 -0.8876324 23
0.1405835 -8.107313 -0.7641561 36
0.2031087 -9.707619 -0.6202549 97
-0.6386252 -9.200373 -0.6421083 19
-1.440437 -8.827803 -0.6726683 32
-2.169326 -8.410515 -0.7062895 30
nan nan nan 0
nan nan nan 0
nan nan nan 0
-2.57767 -10.20125 -0.6099108 25
0.4327447 -17.93164 -0.312398 10
-1.122259 -16.47731 -0.3825139 10
-2.315939 -14.35819 -0.422863 36
-3.406346 -13.31768 -0.4738621 35
-1.288734 -5.129571 -0.9520775 21
-1.824478 -7.041403 -0.8140191 17
-11.20137 -43.30327 1.794894 126
1.030253 -46.71926 2.716717 11
-11.39284 -43.08158 3.621341 11
0.7678739 -44.29556 5.434763 19
-10.5086 -39.71153 7.480224 12
0.6202657 -43.6999 11.69991 11
0.7734789 -32.81492 0.188827 30
nan nan nan 0
-3.362463 -20.61218 -0.1091437 9
-4.833658 -18.69863 -0.225391 10
1.131679 -46.87052 1.382133 40
-3.153285 -45.6388 1.061197 41
-5.895511 -36.57238 0.6329966 16
-8.095213 -31.5502 0.3974801 30
nan nan nan 0
0.006619614 -0.4023576 -0.09477933 52
0.1435762 -6.421664 -0.8869442 26
0.1121386 -8.0978 -0.7632134 39
0.1708361 -9.798069 -0.6260158 93
-0.670013 -9.188138 -0.6414107 21
-1.48274 -8.891569 -0.6779413 28
-2.187289 -8.359509 -0.7026258 29
0.3298612 -13.62934 -0.5531108 108
-0.809006 -11.89954 -0.5543427 15
nan nan nan 0
-2.626927 -10.24537 -0.6131056 22
0.3698348 -17.91805 -0.3121363 9
-1.183335 -16.52316 -0.3836744 9
-2.3693 -14.36974 -0.4234459 35
-3.411329 -13.14611 -0.4681612 36
-1.306632 -5.125042 -0.9520775 22
-1.84778 -7.030187 -0.8134601 17
-11.35119 -43.25908 1.794694 126
0.8660473 -46.66269 2.713232 11
-11.54057 -43.03192 3.62053 12
0.6124174 -44.23842 5.427451 21
-10.64332 -39.66035 7.477534 12
0.467355 -43.668 11.69086 9
0.6580177 -32.77243 0.1885678 36
nan nan nan 0
-3.431925 -20.58553 -0.1090651 9
-4.901438 -18.69131 -0.225508 10
0.9671294 -46.82922 1.380805 41
-3.311128 -45.60757 1.060733 37
-6.036958 -36.63544 0.6344503 16
-8.217896 -31.57013 0.398091 34
nan nan nan 0
0.005215082 -0.4023783 -0.09477933 46
0.1211595 -6.422126 -0.8869442 26
0.08409029 -8.118052 -0.765099 37
0.1372116 -9.83852 -0.6285762 87
-0.7005648 -9.16585 -0.6400156 20
-1.49281 -8.763469 -0.6685254 32
-2.194673 -8.269954 -0.6957054 39
0.2843939 -13.7303 -0.5571763 116
nan nan nan 0
nan nan nan 0
-2.652601 -10.1975 -0.6107821 22
0.3071124 -17.90924 -0.3119617 10
-1.240256 -16.50896 -0.3834423 7
nan nan nan 0
-3.466115 -13.16795 -0.4693705 41
-1.324513 -5.12045 -0.9520775 20
-1.872308 -7.023695 -0.8134601 18
-11.50212 -43.21919 1.794694 122
0.7023251 -46.61053 2.710037 10
-11.69201 -42.99618 3.620935 10
0.4573692 -44.18074 5.420139 20
-10.77912 -39.61347 7.47574 12
0.3146746 -43.63556 11.6818 10
0.5413547 -32.63955 0.1877903 38
-0.7846681 -10.10451 0 25
-3.502081 -20.56356 -0.1090128 9
nan nan nan 0
0.8028818 -46.78734 1.379478 41
nan nan nan 0
-6.174767 -36.6733 0.6354765 15
-8.377854 -31.72976 0.4004733 36
nan nan nan 0
0.003810489 -0.4023941 -0.09477933 72
0.09866103 -6.417558 -0.8862562 28
0.05504271 -8.023721 -0.7561421 39
0.1033069 -9.878854 -0.6311365 85
nan nan nan 0
-1.519114 -8.733646 -0.6666422 31
-2.249491 -8.35847 -0.703847 35
0.2364645 -13.73121 -0.5571763 112
nan nan nan 0
nan nan nan 0
-2.676698 -10.14475 -0.6081682 24
0.2443862 -17.8952 -0.3117 10
-0.7997252 -10.16077 -0.2357056 21
-2.50094 -14.53509 -0.4288373 40
nan nan nan 0
-1.342379 -5.115795 -0.9520775 22
-1.898114 -7.021912 -0.8140191 19
-11.65292 -43.17877 1.794694 121
0.5389777 -46.55779 2.706842 11
-11.83275 -42.92148 3.618098 11
0.3027311 -44.12251 5.412827 22
-10.9134 -39.56137 7.473051 12
0.1621892 -43.59293 11.67015 9
0.4238369 -32.37127 0.1862352 46
-0.8203383 -10.10669 0 31
-3.572126 -20.54136 -0.1089604 10
-5.044839 -18.7049 -0.2260926 8
0.6390763 -46.75487 1.378446 49
-0.8072828 -10.12005 0.2347772 29
-6.286641 -36.55791 0.6338517 20
-8.454917 -31.57476 0.3988851 32
nan nan nan 0
0.002405849 -0.4024049 -0.09477933 90
0.07625896 -6.417863 -0.8862562 23
0.02689448 -7.98902 -0.7528423 43
0.06945921 -9.963979 -0.6365774 77
-0.7711592 -9.240265 -0.6455961 23
-1.553954 -8.752833 -0.6685254 30
-2.277338 -8.345758 -0.7034399 32
0.1883203 -13.71696 -0.5565665 70
-0.7927336 -10.09288 -0.4702596 15
nan nan nan 0
-2.730192 -10.20284 -0.6122344 25
0.1817617 -17.88095 -0.3114382 9
-0.8327358 -10.12802 -0.2350093 27
-2.561181 -14.58042 -0.4304402 19
-3.565805 -13.17236 -0.470407 32
-1.360228 -5.111078 -0.9520775 22
-1.922614 -7.015243 -0.8140191 17
-11.80357 -43.13784 1.794694 121
0.3760479 -46.50947 2.703938 12
-11.98921 -42.90391 3.620125 12
0.1484877 -44.05879 5.404905 26
-11.04878 -39.51357 7.471258 11
0.01000198 -43.5401 11.65592 10
0.3115216 -32.44254 0.1866384 35
-0.8543493 -10.08882 0 25
-3.642059 -20.51892 -0.108908 8
-5.104821 -18.66789 -0.2258588 8
0.4754558 -46.71684 1.377267 47
-0.8413616 -10.10223 0.234429 30
-6.337257 -36.09752 0.6262407 17
-8.650288 -31.85867 0.4028556 30
nan nan nan 0
0.001083075 -0.4072478 -0.09604306 163
0.05385597 -6.41809 -0.8862562 23
-0.001013417 -7.949244 -0.749071 35
0.0343375 -9.879335 -0.6311365 77
nan nan nan 0
-1.577379 -8.70811 -0.6655123 33
-2.314447 -8.366572 -0.7058824 35
0.141289 -13.79747 -0.5598189 100
-0.826737 -10.07512 -0.4695609 15
nan nan nan 0
-2.746147 -10.121 -0.6078779 21
0.1192747 -17.87148 -0.3112637 11
-0.8651014 -10.09019 -0.2341969 22
-2.614707 -14.58615 -0.4308774 26
-3.602492 -13.12611 -0.4691977 35
-1.378061 -5.106299 -0.9520775 20
-1.94709 -7.00849 -0.8140191 18
-11.95541 -43.10118 1.794894 120
0.2134856 -46.46558 2.701324 11
-12.13619 -42.85221 3.619314 11
-0.005307031 -43.98956 5.396374 23
-11.18261 -39.46056 7.468567 12
-0.1417841 -43.47709 11.63909 9
0.1975516 -32.32844 0.185976 38
-0.8917525 -10.11068 0 18
-3.711878 -20.49624 -0.1088557 10
-5.175301 -18.66923 -0.2260926 9
0.3122786 -46.70321 1.376824 44
-0.8779138 -10.11417 0.2347772 22
-6.449995 -36.00136 0.624958 16
-8.766754 -31.84756 0.4030999 23
nan nan nan 0
-0.000338492 -0.4072491 -0.09604306 124
0.03145234 -6.418239 -0.8862562 23
-0.0286433 -7.90937 -0.7452997 36
-0.0001610839 -9.854446 -0.6295363 84
-0.8284717 -9.155175 -0.6400156 23
-1.637694 -8.864338 -0.6779413 27
-2.346335 -8.368037 -0.7066966 36
0.09337621 -13.83285 -0.5612417 36
-0.8644499 -10.10203 -0.4709584 14
-1.956916 -10.87516 -0.5770039 12
-2.800028 -10.17872 -0.6119439 19
0.05685595 -17.86179 -0.3110891 10
-0.9029784 -10.11698 -0.2348932 16
-2.672804 -14.61626 -0.4320431 32
-3.605368 -12.95942 -0.4636696 40
-1.395877 -5.101458 -0.9520775 22
-1.972893 -7.006432 -0.8145782 17
-12.10308 -43.04957 1.794493 122
0.05123428 -46.42112 2.69871 11
-11.58841 -40.38105 3.413805 13
-0.158634 -43.92476 5.388453 28
-11.30942 -39.38346 7.461395 46
-0.2933865 -43.45218 11.63262 11
0.08450758 -32.25893 0.1855728 39
nan nan nan 0
-3.781584 -20.47333 -0.1088033 10
-5.236376 -18.63661 -0.2259172 8
0.1490532 -46.64405 1.375055 48
-0.9172517 -10.15585 0.2358217 6
-6.5981 -36.10157 0.6270959 16
-8.891314 -31.86492 0.4037108 20
nan nan nan 0
-0.00180818 -0.4024081 -0.09477933 121
0.009048305 -6.41831 -0.8862562 26
-0.05609125 -7.884334 -0.7429427 33
-0.03438186 -9.794509 -0.6256957 85
nan nan nan 0
-1.665854 -8.843869 -0.6768113 28
-2.367339 -8.331039 -0.7042541 36
0.04488859 -13.77813 -0.5590057 109
-0.9023607 -10.1288 -0.4723559 12
nan nan nan 0
-2.79256 -10.01504 -0.60265 17
-0.005493658 -17.85188 -0.3109146 10
-1.52911 -16.49475 -0.3836744 7
nan nan nan 0
-3.694041 -13.10064 -0.4691977 37
-1.413676 -5.096554 -0.9520775 22
-1.997338 -6.999502 -0.8145782 17
-12.25191 -43.00226 1.794292 123
-0.1107154 -46.38108 2.696387 23
-11.7098 -40.27336 3.40813 40
-0.3114394 -43.84949 5.379313 24
-11.45095 -39.35792 7.464085 12
-0.4441811 -43.36396 11.60933 11
-0.02811158 -32.27903 0.185688 25
nan nan nan 0
-3.851175 -20.45018 -0.108751 9
-5.30688 -18.63745 -0.2261511 10
-0.01375541 -46.58431 1.373285 46
nan nan nan 0
-6.791876 -36.442 0.6334242 16
nan nan nan 0
nan nan nan 0
-0.003181596 -0.4072368 -0.09604306 85
-0.01335583 -6.418302 -0.8862562 27
-0.08415709 -7.938842 -0.7481282 40
-0.06805531 -9.714495 -0.620575 101
-0.8971987 -9.198812 -0.6435034 21
-1.673188 -8.715596 -0.6673955 32
-2.39226 -8.308361 -0.7030329 37
-0.003239485 -13.58836 -0.5512813 108
-0.9335749 -10.08083 -0.4702596 9
-2.036469 -10.88086 -0.5780506 12
-2.824782 -9.995629 -0.6020691 27
-0.0677734 -17.84175 -0.3107401 10
-1.585243 -16.47438 -0.3833262 9
-2.745826 -14.44504 -0.4275259 44
-3.727375 -13.04443 -0.4676429 33
-1.431457 -5.091588 -0.9520775 20
-2.023142 -6.997259 -0.8151373 18
-11.66859 -40.42014 1.688144 30
-0.2722986 -46.32551 2.693192 10
-11.87003 -40.29917 3.413805 20
-0.4639292 -43.79356 5.37261 27
-10.69784 -36.29813 6.890269 11
nan nan nan 0
nan nan nan 0
nan nan nan 0
-3.914992 -20.39733 -0.1085415 10
-5.380228 -18.64763 -0.2265019 9
-0.1761634 -46.529 1.371663 44
nan nan nan 0
nan nan nan 0
-9.070834 -31.65309 0.4018171 11
nan nan nan 0
-0.004617453 -0.4023856 -0.09477933 62
-0.03575981 -6.418217 -0.8862562 29
-0.1119352 -7.943478 -0.7485996 44
-0.1021137 -9.729167 -0.6215351 94
-0.9313054 -9.215474 -0.6448985 24
-1.713182 -8.758631 -0.6711618 30
-2.418449 -8.290394 -0.7022187 34
-0.04967769 -13.28852 -0.5390848 130
-0.9692348 -10.08248 -0.4704926 12
-2.075374 -10.87859 -0.5783123 11
-2.855526 -9.971314 -0.6011978 26
-0.1300174 -17.83641 -0.3106528 9
-1.641253 -16.45383 -0.3829781 9
-2.786722 -14.3863 -0.4260688 34
-3.764536 -13.00254 -0.4666064 42
-1.449222 -5.086561 -0.9520775 22
-2.047554 -6.990155 -0.8151373 18
-11.8026 -40.35519 1.687141 46
-0.4335876 -46.27935 2.690578 10
-10.87316 -36.44676 3.090341 70
-0.6164478 -43.76686 5.369563 27
-10.8287 -36.2747 6.892959 47
-0.1660407 -9.402818 2.509251 41
-0.247623 -31.51809 0.1813108 34
nan nan nan 0
-3.991929 -20.41298 -0.1086986 11
-5.452309 -18.65273 -0.2267943 7
-0.3381855 -46.47313 1.370041 54
nan nan nan 0
nan nan nan 0
nan nan nan 0
nan nan nan 0
nan nan nan 0
-0.05816334 -6.418053 -0.8862562 28
-0.140168 -7.972901 -0.7514281 41
-0.135739 -9.703805 -0.6199348 93
-0.9686468 -9.261776 -0.6483864 22
-1.758374 -8.82594 -0.6768113 24
-2.450204 -8.291458 -0.7030329 37
nan nan nan 0
-1.008872 -10.12376 -0.4725888 10
nan nan nan 0
-2.905643 -10.01401 -0.6043926 27
-0.192225 -17.83084 -0.3105656 10
-1.699704 -16.45794 -0.3832102 10
-2.852413 -14.45494 -0.4284002 36
-3.793 -12.93179 -0.4645334 37
-1.468337 -5.086195 -0.9529697 22
-2.071942 -6.982965 -0.8151373 17
-10.80048 -36.45781 1.52561 20
-0.5943033 -46.21267 2.686802 12
-12.96585 -42.91056 3.642824 17
-0.7686126 -43.72971 5.365297 27
-10.95241 -36.22726 6.891166 40
-0.1985633 -9.387694 2.505368 34
-0.3550153 -31.28205 0.1799573 30
nan nan nan 0
-4.067067 -20.41854 -0.1088033 8
-4.294063 -14.50636 -0.176454 10
-0.4998728 -46.42169 1.368566 53
-4.504745 -43.20401 1.007581 76
nan nan nan 0
nan nan nan 0
nan nan nan 0
nan nan nan 0
-0.08050826 -6.412858 -0.8855681 26
-0.1680994 -7.97734 -0.7518995 38
-0.1695263 -9.698282 -0.6196148 91
-0.9950832 -9.203789 -0.6445498 25
-1.787187 -8.809975 -0.6760581 28
-2.481996 -8.292401 -0.703847 36
-0.1440419 -13.44271 -0.5453864 112
-1.045228 -10.13012 -0.4730547 8
nan nan nan 0
-2.956092 -10.05648 -0.6075874 24
-0.2543952 -17.82507 -0.3104783 9
-1.756082 -16.44197 -0.3829781 9
-2.899897 -14.43019 -0.427963 41
-3.845243 -12.94242 -0.4653971 35
-1.486082 -5.081039 -0.9529697 21
-2.097739 -6.980447 -0.8156964 18
-12.90427 -43.00405 1.801717 66
-0.7551259 -46.18037 2.68506 10
-13.1141 -42.86027 3.642419 12
-0.9202139 -43.67714 5.359204 29
-11.07736 -36.18411 6.890269 53
-0.231215 -9.382116 2.504074 42
-0.4634015 -31.22562 0.1796405 37
-2.672496 -24.46439 0 9
-4.142293 -20.42381 -0.108908 10
-4.278546 -14.27101 -0.1737645 25
-0.6611347 -46.3647 1.366944 54
nan nan nan 0
nan nan nan 0
-9.288961 -31.17785 0.3969914 8
nan nan nan 0
-0.03678646 -4.127213 -1.067847 6
-0.1028928 -6.412538 -0.8855681 27
-0.1967776 -8.011539 -0.7551994 39
-0.2036842 -9.712598 -0.620575 62
-1.04157 -9.329145 -0.6536181 19
-1.810863 -8.769506 -0.6734216 31
-2.513824 -8.293223 -0.7046612 34
-0.1907582 -13.42714 -0.5447765 120
-1.264149 -11.84977 -0.5538769 11
nan nan nan 0
-2.991178 -10.0461 -0.6075874 25
-0.3165275 -17.81907 -0.310391 10
-1.812917 -16.43077 -0.382862 9
-2.913162 -14.23882 -0.4225716 52
-3.919232 -13.0246 -0.4688522 42
-1.503809 -5.075821 -0.9529697 21
-2.122092 -6.973082 -0.8156964 18
-13.0514 -42.94918 1.801315 67
-0.9158287 -46.1525 2.683608 11
-13.26215 -42.80947 3.642013 10
-1.07073 -43.59428 5.349455 31
-11.20942 -36.16402 6.893856 76
-0.2638301 -9.376424 2.50278 46
-0.5682219 -30.99386 0.1783158 34
-2.755077 -24.43007 0 9
-4.22064 -20.4435 -0.1090913 9
-4.318155 -14.22251 -0.1733552 9
-0.8220045 -46.30714 1.365322 57
nan nan nan 0
nan nan nan 0
-9.368836 -31.04951 0.3957697 9
nan nan nan 0
nan nan nan 0
-0.1252761 -6.41214 -0.8855681 28
-0.2237872 -7.975972 -0.7518995 39
-0.2369898 -9.686886 -0.6189747 78
-1.074698 -9.330407 -0.6539669 24
-1.838384 -8.748494 -0.6722918 29
-2.547153 -8.298688 -0.7058824 35
-0.2395255 -13.53629 -0.5492485 106
-1.118655 -10.1474 -0.4742192 10
-2.22706 -10.84855 -0.5783123 12
-3.02334 -10.02604 -0.6070065 17
-0.3787258 -17.81786 -0.310391 11
-1.87026 -16.42434 -0.382862 10
-2.959788 -14.21388 -0.4221345 43
-3.960298 -12.99651 -0.4683339 39
-1.521518 -5.07054 -0.9529697 20
-2.147887 -6.970379 -0.8162555 17
-13.20859 -42.92724 1.802319 47
-1.075303 -46.07916 2.679542 11
-13.41449 -42.77243 3.642824 9
nan nan nan 0
-11.34001 -36.13874 6.896545 70
-0.2973084 -9.399582 2.509251 39
-0.6696988 -30.68176 0.1765304 32
-2.835142 -24.3756 0 9
-4.283748 -20.38951 -0.1088819 9
-4.338356 -14.11178 -0.1721859 18
-0.9823751 -46.24403 1.363553 59
nan nan nan 0
nan nan nan 0
-9.46839 -30.98793 0.3954032 9
nan nan nan 0
-0.06594908 -4.15104 -1.074166 8
-0.1476579 -6.411664 -0.8855681 28
-0.2513197 -7.965191 -0.7509567 32
-0.2728525 -9.760818 -0.6237754 85
-1.1055 -9.311739 -0.6529205 21
-1.882475 -8.805404 -0.677188 25
-2.576106 -8.289746 -0.7058824 37
-0.2844919 -13.42548 -0.5447765 119
nan nan nan 0
-2.231192 -10.67943 -0.5696769 12
-3.027654 -9.915187 -0.6009074 18
-0.4407972 -17.81143 -0.3103037 10
-1.926998 -16.41275 -0.382746 11
-3.056031 -14.42348 -0.4286917 36
-3.92008 -12.70569 -0.4583142 38
-1.539209 -5.065198 -0.9529697 18
-2.172204 -6.96284 -0.8162555 18
-13.35538 -42.87133 1.801917 40
-1.236276 -46.08011 2.679832 10
-13.56371 -42.72534 3.642824 8
nan nan nan 0
-11.47056 -36.113 6.899235 83
-0.3331209 -9.485369 2.532544 37
nan nan nan 0
-2.917832 -24.3457 0 8
-4.352804 -20.36465 -0.1088295 9
-4.470895 -14.36385 -0.1754601 24
-1.143914 -46.24531 1.3637 64
-5.271448 -44.52187 1.03996 9
nan nan nan 0
-9.555802 -30.88783 0.394548 10
nan nan nan 0
-0.08035155 -4.145948 -1.072902 9
-0.1700379 -6.411109 -0.8855681 26
-0.279293 -7.96924 -0.7514281 36
-0.3092343 -9.834616 -0.6285762 52
-1.136788 -9.297921 -0.6522229 20
-1.866542 -8.584423 -0.660616 38
-2.605026 -8.280703 -0.7058824 35
nan nan nan 0
nan nan nan 0
-2.302742 -10.83274 -0.5783123 11
-3.06077 -9.89979 -0.600617 21
-0.5028285 -17.80478 -0.3102165 10
-1.984277 -16.40592 -0.382746 9
nan nan nan 0
-3.976342 -12.73008 -0.4596963 37
-1.55688 -5.059795 -0.9529697 22
-2.197996 -6.959952 -0.8168145 18
-13.50946 -42.83874 1.802519 28
-1.213725 -40.00356 2.326374 11
-13.71429 -42.68248 3.643229 7
-1.521292 -43.41205 5.328737 28
-11.59504 -36.06806 6.898338 86
-0.3647592 -9.445539 2.522192 45
nan nan nan 0
-2.995454 -24.27582 0 9
-4.420675 -20.33467 -0.108751 10
nan nan nan 0
-1.303929 -46.19108 1.362226 61
-5.426826 -44.5032 1.03996 10
-7.622462 -35.38291 0.6184587 16
-9.644128 -30.79227 0.3937539 10
nan nan nan 0
-0.09482313 -4.145642 -1.072902 11
-0.1924158 -6.410477 -0.8855681 28
-0.3071091 -7.968217 -0.7514281 41
-0.3442477 -9.853424 -0.6298563 48
-1.171102 -9.308743 -0.6532694 18
-1.938515 -8.767708 -0.6753048 24
-2.632401 -8.266811 -0.7054753 35
-0.3830634 -13.59796 -0.5518911 114
-1.442039 -11.9351 -0.5587682 15
-2.299357 -10.63431 -0.5681068 13
-3.078879 -9.836654 -0.5974222 18
-0.5643476 -17.78293 -0.3098674 9
-2.041532 -16.3989 -0.382746 10
-3.09134 -14.104 -0.4198031 55
-4.044889 -12.79235 -0.4624603 36
-1.574533 -5.054329 -0.9529697 20
-2.222277 -6.952237 -0.8168145 17
-13.66043 -42.79608 1.80272 17
-1.352515 -39.97414 2.324922 9
-13.86474 -42.63909 3.643635 7
-1.669771 -43.32713 5.318987 31
-11.72696 -36.04607 6.901925 46
-0.3961236 -9.405604 2.511839 48
nan nan nan 0
-3.070106 -24.18585 0 9
-4.49055 -20.31424 -0.1087248 9
-4.563459 -14.30847 -0.1751677 11
nan nan nan 0
nan nan nan 0
-7.678508 -35.04843 0.6130711 15
-9.754577 -30.76794 0.3938761 10
nan nan nan 0
-0.1088106 -4.125941 -1.067847 11
-0.2147914 -6.409766 -0.8855681 27
-0.3349215 -7.967096 -0.7514281 32
-0.377129 -9.812274 -0.627296 73
-1.203588 -9.304598 -0.6532694 18
-1.95707 -8.70738 -0.6711618 28
-2.656646 -8.243345 -0.7042541 34
-0.4283421 -13.52663 -0.5490453 117
nan nan nan 0
-2.361144 -10.73838 -0.5741254 12
-3.123767 -9.85915 -0.5994552 21
-0.6258948 -17.76587 -0.3096057 9
-2.098763 -16.39167 -0.382746 10
nan nan nan 0
-4.075793 -12.73532 -0.4609056 45
-1.592166 -5.048802 -0.9529697 21
-2.248065 -6.949163 -0.8173736 17
-13.8128 -42.75765 1.803121 14
-1.712998 -45.91001 2.670829 13
-14.01194 -42.5857 3.643229 7
-1.820585 -43.31112 5.317769 33
-11.87118 -36.06098 6.912684 43
-0.4259092 -9.336617 2.493721 42
nan nan nan 0
-3.144813 -24.10061 0 10
-4.559239 -20.28868 -0.1086724 9
-4.539577 -14.0641 -0.1723613 12
-1.623214 -46.09094 1.359571 39
-5.730348 -44.40969 1.038683 10
-7.762753 -34.85063 0.610078 15
-9.855804 -30.71466 0.3936318 10
nan nan nan 0
-0.123625 -4.140043 -1.071638 11
-0.2369854 -6.404028 -0.88488 28
-0.362953 -7.970851 -0.7518995 29
-0.4091082 -9.756057 -0.6237754 65
-1.241966 -9.344841 -0.6564084 18
-1.980784 -8.671334 -0.668902 28
-2.696242 -8.267179 -0.7071037 32
nan nan nan 0
-1.532287 -11.97924 -0.5613303 14
nan nan nan 0
nan nan nan 0
-0.686562 -17.72861 -0.3089948 10
-2.155967 -16.38424 -0.382746 10
-3.212927 -14.18443 -0.422863 41
-4.120223 -12.72102 -0.4609056 42
-1.60978 -5.043214 -0.9529697 20
-2.272308 -6.941274 -0.8173736 17
-13.96352 -42.71391 1.803322 10
-1.871417 -45.85886 2.668215 12
-14.15578 -42.52235 3.642013 7
-1.968381 -43.23013 5.308628 35
-12.01409 -36.07066 6.922546 43
-0.4669302 -9.508736 2.540309 43
nan nan nan 0
-3.222282 -24.03993 0 10
-4.628918 -20.26777 -0.1086463 10
-4.611954 -14.11945 -0.1732383 26
-1.781393 -46.01508 1.357507 67
-5.860374 -44.20111 1.034273 10
-7.886566 -34.83307 0.610249 15
-9.958323 -30.66581 0.3934485 10
nan nan nan 0
-0.1380757 -4.139586 -1.071638 10
-0.2593382 -6.403162 -0.88488 27
-0.3895715 -7.944676 -0.7495424 36
-0.4409233 -9.704722 -0.620575 70
-1.269864 -9.305854 -0.6539669 20
-2.006527 -8.644941 -0.6673955 30
-2.731343 -8.276644 -0.708732 36
nan nan nan 0
nan nan nan 0
-2.434947 -10.71676 -0.5738637 12
-3.186347 -9.818114 -0.5982935 21
-0.7492797 -17.74608 -0.3093439 11
-2.212477 -16.37166 -0.3826299 11
-3.256812 -14.14878 -0.4221345 33
-4.172393 -12.7303 -0.4617693 39
-1.627374 -5.037564 -0.9529697 20
-2.296524 -6.9333 -0.8173736 17
-14.11568 -42.6744 1.803723 9
-2.031263 -45.84706 2.667924 11
-14.30094 -42.46322 3.641202 8
-2.116362 -43.16352 5.301316 16
-12.16978 -36.11707 6.939582 49
-0.5013745 -9.531164 2.546779 44
nan nan nan 0
-3.298684 -23.97405 0 10
-4.698507 -20.24662 -0.1086201 10
-4.672206 -14.13649 -0.1736476 6
-1.940744 -45.97862 1.356622 74
-6.01126 -44.15562 1.033693 10
nan nan nan 0
-10.06062 -30.61661 0.3932652 10
nan nan nan 0
-0.1528674 -4.148749 -1.074166 10
-0.2814744 -6.39727 -0.8841919 25
-0.4188487 -7.973094 -0.7523709 37
-0.4752787 -9.713092 -0.621215 47
-1.296123 -9.256907 -0.6508279 21
-2.0344 -8.62818 -0.6666422 31
-2.763379 -8.27651 -0.7095462 37
-0.5791332 -13.74103 -0.5579894 115
-1.608538 -11.9138 -0.5587682 13
-2.452107 -10.62063 -0.5691535 12
-3.225279 -9.821156 -0.5991648 23
-0.8114471 -17.74835 -0.3094311 10
-2.269611 -16.36384 -0.3826299 10
-3.307319 -14.14219 -0.4222802 29
-4.243577 -12.79628 -0.4647061 38
-1.644948 -5.031853 -0.9529697 19
-2.320712 -6.925241 -0.8173736 18
-14.26614 -42.6296 1.803924 8
-2.190336 -45.81975 2.666763 11
-14.44426 -42.39889 3.639987 9
-0.5717648 -10.80852 1.32411 34
nan nan nan 0
-0.5397317 -9.620977 2.571367 28
-1.392867 -30.08686 0.1732474 38
-3.375365 -23.91288 0 10
-4.766857 -20.22036 -0.1085677 10
nan nan nan 0
-2.101228 -45.97157 1.356622 73
nan nan nan 0
nan nan nan 0
-10.15639 -30.5481 0.3928376 9
nan nan nan 0
-0.1673483 -4.14819 -1.074166 9
-0.3038033 -6.396248 -0.8841919 25
-0.447228 -7.981523 -0.7533137 41
-0.5084053 -9.696424 -0.6202549 61
-1.318517 -9.183204 -0.645945 30
-2.064506 -8.621025 -0.6666422 39
-2.792253 -8.266814 -0.7095462 29
nan nan nan 0
nan nan nan 0
-2.490306 -10.61687 -0.5694152 10
-3.264271 -9.824047 -0.6000361 18
-0.8736397 -17.7504 -0.3095184 11
-2.326718 -16.35582 -0.3826299 10
-3.364755 -14.1646 -0.4233002 33
-4.281853 -12.76244 -0.4640151 35
-1.662503 -5.02608 -0.9529697 22
-2.343272 -6.912394 -0.8168145 17
-14.41967 -42.59374 1.804526 8
-2.347457 -45.75699 2.663568 12
-14.59054 -42.34351 3.639581 10
-0.6105982 -10.82628 1.326548 34
-3.579381 -10.39509 1.996699 38
-0.5747357 -9.643141 2.577838 44
nan nan nan 0
-3.450943 -23.84652 0 9
-4.842069 -20.22305 -0.1086724 9
nan nan nan 0
-2.258745 -45.90405 1.354853 76
-6.289612 -43.90476 1.028818 10
-8.403381 -35.39062 0.6215373 14
-10.25179 -30.47929 0.3924101 11
nan nan nan 0
-0.1820323 -4.152414 -1.07543 9
-0.3261286 -6.395149 -0.8841919 26
-0.4759638 -7.994822 -0.754728 35
-0.5419731 -9.689608 -0.6199348 51
-1.344762 -9.139067 -0.6431547 27
nan nan nan 0
-2.817864 -8.247587 -0.708732 36
-0.6465972 -13.15283 -0.5342062 99
nan nan nan 0
nan nan nan 0
-3.322437 -9.883551 -0.6043926 21
-0.9355949 -17.74725 -0.3095184 10
-2.382355 -16.33771 -0.3823978 10
-3.403624 -14.10904 -0.4219888 18
-4.303866 -12.68118 -0.4615965 31
-1.681603 -5.02491 -0.9538621 22
-2.367387 -6.904172 -0.8168145 17
-14.56988 -42.54787 1.804727 9
-2.504166 -45.6937 2.660373 11
-14.7481 -42.32055 3.642013 8
-0.6522113 -10.88848 1.334469 34
-3.631846 -10.42897 2.005665 42
-0.6177417 -9.790503 2.617954 112
-1.540564 -28.90307 0.1664799 11
-3.526098 -23.77992 0 10
-4.914994 -20.21574 -0.1087248 8
nan nan nan 0
-2.41713 -45.86095 1.35382 68
-6.430489 -43.79846 1.026845 10
-8.502252 -35.25901 0.6197414 14
-10.34846 -30.41492 0.3920436 10
nan nan nan 0
-0.1965259 -4.151753 -1.07543 8
-0.3484498 -6.393971 -0.8841919 29
-0.5047978 -8.008015 -0.7561421 42
-0.5740328 -9.657771 -0.6180145 68
-1.397443 -9.272419 -0.6529205 25
nan nan nan 0
-2.822176 -8.167066 -0.7026258 40
-0.6938083 -13.17544 -0.5352226 95
nan nan nan 0
nan nan nan 0
-3.363355 -9.890794 -0.6055543 18
-0.9978178 -17.74887 -0.3096057 10
-2.440107 -16.33423 -0.3825139 11
-3.375528 -13.78155 -0.4125173 59
-4.304246 -12.53848 -0.4569322 27
-1.699133 -5.01901 -0.9538621 22
-2.391472 -6.895866 -0.8168145 18
-14.72158 -42.5062 1.805128 9
-2.659012 -45.60494 2.655726 38
-14.88911 -42.25002 3.640392 9
-0.6911501 -10.901 1.336297 36
-3.655137 -10.37912 1.998492 48
-0.689484 -10.35694 2.770658 47
-1.640598 -28.88254 0.1663935 27
-3.600081 -23.70815 0 9
-4.989126 -20.21302 -0.1088033 9
-5.869213 -16.95633 -0.209371 7
-2.57496 -45.81231 1.352641 81
-6.56104 -43.62745 1.023364 10
nan nan nan 0
-10.43015 -30.30771 0.3911273 9
nan nan nan 0
-0.211017 -4.151042 -1.07543 9
-0.3707668 -6.392716 -0.8841919 24
-0.5314388 -7.986337 -0.7542565 37
-0.6046343 -9.605908 -0.614814 79
-1.431321 -9.277345 -0.6536181 21
-2.172864 -8.671474 -0.6722918 30
-2.898433 -8.29356 -0.7144312 36
-0.7378488 -13.13802 -0.5337997 96
nan nan nan 0
nan nan nan 0
-3.379975 -9.827081 -0.6023596 25
-1.05947 -17.74028 -0.3095184 10
-2.489558 -16.27621 -0.3813533 11
-3.39345 -13.64843 -0.4088745 59
-4.372601 -12.59418 -0.4595235 34
-1.716642 -5.013048 -0.9538621 18
-2.417177 -6.892164 -0.8173736 17
-14.86656 -42.44512 1.804727 7
-2.818802 -45.60535 2.656307 26
-15.04821 -42.23064 3.643229 5
nan nan nan 0
-3.663253 -10.28754 1.98325 41
-0.7407169 -10.57128 2.828892 39
-1.739307 -28.8417 0.166192 16
-3.688189 -23.73002 0 9
-5.062084 -20.20518 -0.1088557 9
-5.989538 -17.11032 -0.2115343 14
-2.732779 -45.76812 1.351609 83
-6.699601 -43.51535 1.021275 10
nan nan nan 0
-10.51121 -30.20029 0.390211 9
nan nan nan 0
-0.2255055 -4.15028 -1.07543 9
-0.3930793 -6.391383 -0.8841919 21
-0.5593131 -7.984433 -0.7542565 41
-0.6391457 -9.618675 -0.6157742 67
-1.444275 -9.149117 -0.6448985 27
-2.196971 -8.639678 -0.6704085 30
-2.912394 -8.241114 -0.7107674 41
nan nan nan 0
nan nan nan 0
nan nan nan 0
-3.414257 -9.815222 -0.6023596 26
-1.122331 -17.75144 -0.3097802 10
-2.561806 -16.36619 -0.3836744 9
-3.472881 -13.7625 -0.412663 45
-4.393333 -12.51284 -0.457105 35
-1.734131 -5.007026 -0.9538621 23
-2.44122 -6.883684 -0.8173736 18
-15.01296 -42.38826 1.804526 11
-2.974405 -45.54044 2.653112 16
-12.65246 -35.12193 3.033187 9
nan nan nan 0
-3.740857 -10.39037 2.005665 23
-0.7730367 -10.50601 2.812069 47
-1.845369 -28.92028 0.1666815 31
-3.752165 -23.59849 0 10
-5.135047 -20.19708 -0.108908 10
-5.957392 -16.83011 -0.2083186 10
-2.89032 -45.72339 1.350576 84
-6.82424 -43.31889 1.017213 12
nan nan nan 0
nan nan nan 0
nan nan nan 0
-0.2399914 -4.149468 -1.07543 10
-0.415387 -6.389972 -0.8841919 25
-0.5864567 -7.972502 -0.7533137 38
-0.6716809 -9.601453 -0.614814 65
-1.489701 -9.227733 -0.6508279 21
-2.229609 -8.641611 -0.6711618 33
-2.936103 -8.216824 -0.7095462 35
-0.6515546 -10.29548 -0.4181363 44
-1.815285 -11.60609 -0.5459577 15
nan nan nan 0
-3.441862 -9.784411 -0.6011978 21
-1.182963 -17.72746 -0.3094311 10
-2.614181 -16.32753 -0.3829781 10
-3.545708 -13.84712 -0.4155773 41
-4.448701 -12.53039 -0.4583142 39
-1.751598 -5.000942 -0.9538621 20
-2.465234 -6.875121 -0.8173736 17
-12.68229 -35.41709 1.509357 6
-3.130958 -45.49492 2.651079 13
-15.29319 -41.98877 3.631474 4
nan nan nan 0
-3.766995 -10.34952 2.000285 41
-0.8060164 -10.4551 2.799128 41
-1.948317 -28.9436 0.1668543 32
-3.808853 -23.42732 0 10
-5.208014 -20.18871 -0.1089604 10
-6.088609 -17.0116 -0.2108327 22
-3.047582 -45.67811 1.349544 85
-6.96905 -43.25532 1.016285 10
nan nan nan 0
-10.63458 -29.88126 0.3870346 10
nan nan nan 0
-0.2541848 -4.143775 -1.074166 10
-0.4376896 -6.388483 -0.8841919 23
-0.6142823 -7.970407 -0.7533137 39
-0.7044665 -9.589096 -0.6141739 75
-1.518658 -9.202789 -0.6494327 24
-2.279977 -8.710945 -0.677188 27
-2.95459 -8.178408 -0.7071037 34
-0.8526012 -12.78561 -0.5197737 117
nan nan nan 0
-2.724529 -10.61074 -0.572032 13
-3.479346 -9.781743 -0.6017787 17
-1.244487 -17.71824 -0.3093439 10
-2.667125 -16.29364 -0.3823978 9
-3.599051 -13.85401 -0.4161602 50
-4.524528 -12.60413 -0.4615965 39
-1.770691 -4.999434 -0.9547544 23
-2.489218 -6.866474 -0.8173736 17
-15.29151 -42.23545 1.802519 34
-3.296936 -45.58329 2.656888 35
-15.42072 -41.88369 3.627016 5
nan nan nan 0
-3.784388 -10.28554 1.990422 43
-0.8482913 -10.52443 2.818539 42
nan nan nan 0
-3.888149 -23.39909 0 9
-5.279721 -20.17525 -0.1089866 9
-6.190519 -17.10777 -0.2122944 16
-3.207359 -45.67218 1.349692 81
-7.103754 -43.13208 1.013963 10
-9.127622 -35.1488 0.6205111 17
-10.69987 -29.73576 0.3856296 9
nan nan nan 0
-0.2692603 -4.152519 -1.076693 9
-0.4596355 -6.381976 -0.8835039 26
-0.643687 -7.988062 -0.7551994 35
-0.7383145 -9.591554 -0.614494 79
-1.555743 -9.226945 -0.6515254 22
-2.31165 -8.707752 -0.6775646 27
-2.969419 -8.130607 -0.703847 37
nan nan nan 0
nan nan nan 0
-2.746437 -10.54319 -0.5688918 11
-3.505011 -9.746058 -0.6003265 17
-1.307792 -17.73373 -0.3096929 11
nan nan nan 0
-3.669049 -13.92352 -0.4186373 42
-4.53607 -12.49903 -0.4583142 36
-1.783142 -4.979332 -0.9520775 20
-2.513171 -6.857743 -0.8173736 18
-15.47491 -42.28033 1.806733 5
nan nan nan 0
-15.57205 -41.84361 3.628232 6
-0.8104484 -10.00675 1.227834 30
-3.806532 -10.23539 1.98325 42
nan nan nan 0
-2.166967 -29.15367 0.1681502 31
-3.963948 -23.35086 0 9
-5.34883 -20.15186 -0.1089604 10
