# .PCD v0.7 - Point Cloud Data file format
VERSION 0.7
FIELDS x y z intensity
SIZE 4 4 4 4
TYPE F F F F
COUNT 1 1 1 1
WIDTH 1594
HEIGHT 1
VIEWPOINT 0 0 0 1 0 0 0
POINTS 1594
DATA ascii
nan nan nan 0
-3.88817 -9.730837 -0.1220795 36
-3.355643 -32.36192 0.958778 34
-1.492939 -7.495644 0.1765181 36
-13.47373 -45.60943 0.8128387 82
-3.873262 -9.747487 0.1276677 95
nan nan nan 0
-0.04176231 -0.3710465 -0.08719698 36
-0.7915095 -7.515811 -1.044516 36
-1.142076 -10.02482 -0.9517774 19
-1.476619 -13.39084 -0.8615718 13
-1.526842 -7.522906 -0.5339858 60
-3.432491 -11.39018 -0.8956357 15
-3.929946 -9.7419 -0.8548749 15
nan nan nan 0
-1.48647 -7.510967 -0.3551986 33
-4.370139 -14.7501 -0.8041419 11
-3.864991 -9.721876 -0.6064256 9
-3.473351 -32.44926 -0.5689484 29
-1.513136 -7.501796 -0.1767502 41
-6.178839 -20.64081 -0.6270089 11
-3.892572 -9.712364 -0.3603632 13
-2.254133 -5.690202 -1.102875 23
-3.293632 -8.138206 -0.9834201 39
-3.907933 -9.682294 0.417772 100
-5.181735 -47.41669 2.773061 10
-18.22268 -44.40234 3.900623 107
-5.145706 -45.11641 5.570647 12
-16.94023 -41.25801 8.122179 97
-5.271047 -44.96119 12.1192 48
-3.473562 -32.23745 0.1865232 34
-1.531878 -7.500084 0 37
-11.10652 -36.86257 -0.2013752 17
-3.916492 -9.7033 -0.1219041 38
-3.485077 -32.50406 0.9633493 24
-1.520086 -7.495285 0.1766341 34
-13.63572 -45.5717 0.8130097 82
-3.901669 -9.71999 0.1274844 93
nan nan nan 0
-0.04450624 -0.385339 -0.09098815 38
-0.8172075 -7.508079 -1.043828 32
-1.177062 -10.02077 -0.9517774 20
-1.522791 -13.38065 -0.8612518 11
-1.547044 -7.488222 -0.5318931 36
-3.472229 -11.37813 -0.8956357 15
-3.960162 -9.718896 -0.8540607 15
-2.078953 -19.43255 -0.7935849 16
-1.508737 -7.486147 -0.3542669 32
-4.423035 -14.73954 -0.8044036 12
-3.900766 -9.712957 -0.6067161 8
-3.569044 -32.27793 -0.566156 44
-1.540317 -7.501365 -0.1768662 36
-6.230546 -20.55215 -0.6249689 9
-3.922695 -9.689456 -0.3600177 13
-2.273982 -5.682299 -1.102875 22
-3.32202 -8.126659 -0.9834201 37
-3.939616 -9.658655 0.4173706 102
-3.585753 -31.71863 1.855 14
-18.40259 -44.35506 3.902649 108
-5.314837 -45.06181 5.566382 11
-17.10949 -41.19876 8.123973 97
-5.444517 -44.88213 12.10367 48
-3.600234 -32.14808 0.1860912 32
-1.559485 -7.468855 0 28
-11.25262 -36.76595 -0.2011134 19
-3.960484 -9.685429 -0.1219041 42
nan nan nan 0
-1.552344 -7.473356 0.176286 25
-13.85323 -45.5165 0.8131807 79
-3.945348 -9.691548 0.1273622 97
nan nan nan 0
-0.04742019 -0.3996083 -0.09477933 36
-0.8447205 -7.505033 -1.043828 35
-1.214933 -10.01124 -0.9513061 20
-1.576492 -13.37443 -0.8612518 10
-1.576063 -7.47707 -0.5315443 32
-3.518383 -11.35872 -0.8952591 15
-3.998936 -9.697616 -0.8536537 15
-2.155999 -19.35378 -0.790739 16
-1.533332 -7.440356 -0.3524036 27
-4.491333 -14.72409 -0.8046653 11
-3.950453 -9.709025 -0.6075874 8
-3.774305 -32.72263 -0.5742714 30
-1.573594 -7.484239 -0.1766341 28
-6.308178 -20.46048 -0.6230746 10
-3.9719 -9.674792 -0.3601904 14
-2.301847 -5.665758 -1.101983 23
-3.365016 -8.114329 -0.9839792 38
-3.982946 -9.630055 0.4169693 105
-3.726114 -31.5768 1.847739 8
-18.62299 -44.29541 3.905081 110
-5.522295 -44.99686 5.561507 10
-17.30008 -41.12976 8.125766 100
-5.645114 -44.833 12.0972 50
-3.735853 -32.09233 0.1858608 42
-1.593881 -7.476929 0 24
nan nan nan 0
-3.989764 -9.646354 -0.1216118 44
-3.70146 -31.94185 0.9475712 12
-1.585165 -7.486902 0.1767502 24
-14.03232 -45.4773 0.8134373 81
-3.975347 -9.668471 0.1272401 97
nan nan nan 0
-0.04629227 -0.3705086 -0.08719698 38
-0.8821207 -7.495742 -1.04314 34
-1.263843 -10.00518 -0.9513061 20
-1.638894 -13.3619 -0.8609317 11
nan nan nan 0
-3.569891 -11.34264 -0.8952591 15
-4.035208 -9.660981 -0.8520253 15
nan nan nan 0
-1.567567 -7.448531 -0.3531024 19
-4.551879 -14.71071 -0.804927 11
-3.979884 -9.670012 -0.6061352 10
nan nan nan 0
-1.607286 -7.50775 -0.1773305 26
-6.368223 -20.38952 -0.6216174 9
-3.997982 -9.642409 -0.3594994 16
-2.319635 -5.658498 -1.101983 23
-3.393827 -8.107708 -0.9845382 38
-4.012931 -9.612186 0.4167687 103
-3.817594 -31.45525 1.84135 12
-18.77951 -44.25635 3.907108 112
-5.667137 -44.94383 5.557242 12
-17.44022 -41.08122 8.12756 94
nan nan nan 0
-3.850567 -32.14927 0.186264 42
nan nan nan 0
nan nan nan 0
-4.021731 -9.633072 -0.1216118 42
-3.701092 -30.99079 0.9197014 18
-1.616545 -7.505757 0.1773305 15
-14.19396 -45.43759 0.8136084 74
-4.007152 -9.64992 0.127179 91
nan nan nan 0
-0.505991 -4.451862 -1.160099 9
-0.9050742 -7.488017 -1.042452 35
-1.295269 -10.00116 -0.9513061 18
-1.680242 -13.35173 -0.8606117 11
-2.688972 -12.28345 -0.87649 14
-3.607485 -11.33074 -0.8952591 15
-4.067223 -9.647547 -0.8520253 14
nan nan nan 0
-1.601913 -7.482088 -0.3549657 24
-4.603201 -14.69473 -0.804927 11
-4.011696 -9.651453 -0.6058447 9
-3.973918 -32.36659 -0.5685121 26
-5.141223 -23.63061 -0.5605407 14
-6.4273 -20.32904 -0.6204517 9
-4.03523 -9.632298 -0.3596722 31
-2.340359 -5.649959 -1.101983 23
-3.425459 -8.099789 -0.9850973 38
-4.059799 -9.625027 0.4179726 43
-3.973691 -31.76795 1.860518 36
-18.95338 -44.2147 3.90954 113
-5.825444 -44.87355 5.551148 32
-17.59455 -41.02607 8.129353 91
nan nan nan 0
-3.920031 -31.74292 0.183989 37
nan nan nan 0
nan nan nan 0
-4.057011 -9.618266 -0.1216118 23
-3.820144 -31.02166 0.9210285 28
-10.20026 -46.57827 1.10611 102
-14.36493 -45.39956 0.8138649 74
-4.042494 -9.635167 0.127179 66
nan nan nan 0
-0.5211892 -4.440367 -1.157572 9
-0.932513 -7.48465 -1.042452 35
-1.331261 -9.991411 -0.9508347 18
-1.728528 -13.34054 -0.8602916 12
-2.735059 -12.27838 -0.8768388 13
-3.647459 -11.31269 -0.8948825 16
nan nan nan 0
nan nan nan 0
nan nan nan 0
-4.65854 -14.68252 -0.8051887 12
-4.052849 -9.650488 -0.6067161 12
-3.932119 -31.08209 -0.546173 32
-5.234281 -23.64089 -0.561237 24
-6.489572 -20.26727 -0.619286 9
nan nan nan 0
-2.361052 -5.641343 -1.101983 24
-3.457078 -8.091747 -0.9856564 36
nan nan nan 0
-4.031511 -31.2977 1.833799 52
-19.13115 -44.18153 3.912783 113
-5.985937 -44.82238 5.547493 11
-17.74676 -40.96582 8.130249 97
-6.100526 -44.61245 12.0545 8
-3.99539 -31.40593 0.1821171 35
nan nan nan 0
nan nan nan 0
nan nan nan 0
-3.937815 -31.08251 0.9232404 34
-10.3617 -46.53751 1.105994 127
-14.52636 -45.35866 0.814036 76
nan nan nan 0
nan nan nan 0
-0.05592275 -0.4180368 -0.09983423 42
-0.9593126 -7.476269 -1.041764 36
-1.367873 -9.986465 -0.9508347 18
-1.776098 -13.32422 -0.8596515 12
-2.781145 -12.27314 -0.8771876 14
-3.683831 -11.29041 -0.8941292 16
-4.349041 -10.11251 -0.8959904 32
-2.420986 -19.14618 -0.7836244 17
-3.582 -16.17509 -0.7707227 14
-4.709763 -14.66617 -0.8051887 11
nan nan nan 0
-4.057332 -31.19707 -0.5484418 33
-5.330777 -23.66544 -0.5622815 20
-6.548391 -20.19581 -0.6178288 10
-7.593931 -17.75746 -0.6663091 6
-2.380729 -5.633067 -1.101983 25
-3.483892 -8.080239 -0.9856564 39
nan nan nan 0
-4.133316 -31.26931 1.832927 30
-19.28554 -44.13611 3.914404 105
-6.133194 -44.79245 5.546274 10
-17.89039 -40.92477 8.133836 97
-6.241066 -44.53936 12.04026 9
-4.125377 -31.59083 0.183269 42
nan nan nan 0
nan nan nan 0
nan nan nan 0
-4.047948 -31.1238 0.9248624 32
-10.51046 -46.47851 1.105414 137
-14.68132 -45.32451 0.8142926 71
-18.98181 -44.34415 0.5888594 77
nan nan nan 0
-0.05560541 -0.4034352 -0.09604306 31
-0.9847601 -7.467965 -1.041076 32
-1.402723 -9.98163 -0.9508347 18
-1.821923 -13.31299 -0.8593314 11
-2.819495 -12.24391 -0.8757924 16
-3.72322 -11.27749 -0.8941292 17
-4.382326 -10.0927 -0.8955833 31
-2.485105 -19.143 -0.7838277 15
-3.622473 -16.10464 -0.7679277 14
-4.763001 -14.66472 -0.8059737 11
nan nan nan 0
-4.148878 -31.09425 -0.5468711 33
-5.407324 -23.65832 -0.5625135 20
-6.593123 -20.11814 -0.6160803 10
-7.657602 -17.75187 -0.6670001 6
-2.400348 -5.630084 -1.102875 25
-3.505291 -8.060144 -0.9845382 37
-19.16171 -44.12482 1.93054 7
-4.265483 -31.54877 1.850063 30
-18.36545 -41.69358 3.70241 23
-6.26332 -44.75439 5.543836 10
-18.01651 -40.90165 8.139215 93
-6.358589 -44.47395 12.02732 9
-4.243683 -31.84756 0.1848241 36
nan nan nan 0
-11.9325 -36.27735 -0.199752 17
nan nan nan 0
-4.114148 -31.0395 0.9226506 39
-10.62511 -46.45757 1.10553 147
-14.78722 -45.30059 0.8144636 68
-19.08831 -44.31475 0.5890427 79
nan nan nan 0
-0.05316426 -0.3744714 -0.08846071 40
-1.006255 -7.460101 -1.040388 38
-1.431629 -9.972497 -0.9503632 18
-1.857716 -13.29797 -0.8586914 11
-2.857072 -12.25056 -0.8768388 14
-3.75312 -11.26232 -0.8937526 16
-4.402736 -10.06749 -0.894362 31
-2.523475 -19.02208 -0.7791523 18
-3.670164 -16.11946 -0.7690924 14
-4.802932 -14.65694 -0.8062354 10
nan nan nan 0
-4.215429 -31.01467 -0.5456495 33
-5.485371 -23.7327 -0.5646026 20
-6.626577 -20.05452 -0.6146232 10
-7.695868 -17.72986 -0.6668273 7
-2.412134 -5.625044 -1.102875 26
-3.521575 -8.04762 -0.9839792 35
-19.27579 -44.11328 1.931944 21
-4.337799 -31.50364 1.84803 35
-18.45312 -41.61669 3.699572 34
-6.370559 -44.72422 5.542008 11
-18.13151 -40.87233 8.142801 89
-6.477087 -44.47149 12.0312 9
nan nan nan 0
nan nan nan 0
-12.05109 -36.29608 -0.20004 26
-12.68812 -29.04173 -0.3701558 7
-4.204885 -31.01725 0.9223557 43
-10.76291 -46.42583 1.10553 154
-14.9326 -45.2634 0.8146346 68
-19.24513 -44.27412 0.5893481 73
nan nan nan 0
-0.05771702 -0.4031386 -0.09604306 37
-1.023179 -7.457799 -1.040388 35
-1.454252 -9.969224 -0.9503632 19
-1.890203 -13.29339 -0.8586914 12
-2.888141 -12.2484 -0.8771876 14
-3.782217 -11.25784 -0.8941292 16
-4.406956 -10.00578 -0.8898841 31
-2.567249 -18.97085 -0.7773229 17
-3.706189 -16.07021 -0.767229 15
-4.848549 -14.6577 -0.8070204 10
-5.721574 -13.1659 -0.832964 18
-4.304683 -30.98221 -0.5453004 38
-5.57359 -23.77375 -0.5659952 19
-6.665797 -19.9625 -0.6124374 10
-7.748603 -17.69052 -0.6663091 8
-2.433713 -5.621103 -1.103767 22
-3.541602 -8.017103 -0.9817429 39
-18.39498 -41.70093 1.829006 30
-4.433098 -31.38451 1.841931 35
-19.72244 -44.06276 3.923322 98
-6.523055 -44.67715 5.538961 10
-4.875369 -10.89766 2.168843 14
-6.626584 -44.41039 12.02085 11
-4.316619 -30.9091 0.1795253 33
-10.41152 -43.93309 0 7
-12.13632 -36.13057 -0.1993593 25
-12.7329 -28.86918 -0.3685187 7
-4.370904 -31.4182 0.9347422 39
-10.92719 -46.39771 1.105762 147
-15.09526 -45.22523 0.8148912 67
nan nan nan 0
nan nan nan 0
-0.05468621 -0.369363 -0.08719698 37
-1.049205 -7.454182 -1.040388 35
-1.489042 -9.964087 -0.9503632 18
-1.935876 -13.28177 -0.8583713 11
-2.93204 -12.24309 -0.8775364 15
-3.823097 -11.24929 -0.8945059 16
-4.431721 -9.96757 -0.8878486 33
-2.626597 -18.91228 -0.7752902 21
-3.762262 -16.05717 -0.767229 15
-4.899685 -14.64068 -0.8070204 11
-5.759469 -13.12757 -0.8318022 17
-4.429007 -31.08083 -0.5473074 42
-5.671589 -23.81737 -0.5675039 20
-6.738638 -19.94858 -0.6127288 10
-7.820417 -17.68621 -0.6671728 8
-2.45332 -5.612574 -1.103767 25
-3.579698 -8.027374 -0.9845382 35
-18.55263 -41.66385 1.83021 24
-4.525474 -31.25028 1.83496 41
-19.88844 -44.0209 3.925754 112
-6.673833 -44.61975 5.534696 11
nan nan nan 0
-6.778649 -44.36789 12.01567 11
nan nan nan 0
-10.56365 -43.89161 0 7
-12.27201 -36.11639 -0.1995164 21
-12.7746 -28.69212 -0.3668232 8
-4.478432 -31.38791 0.9342998 34
-11.08675 -46.34956 1.10553 137
-15.25623 -45.18174 0.8150622 69
-18.48426 -41.72524 0.5570952 43
nan nan nan 0
-0.05987934 -0.3979321 -0.09477933 37
-1.075219 -7.450474 -1.040388 34
-1.523814 -9.958828 -0.9503632 18
-1.982226 -13.27494 -0.8583713 11
-2.974758 -12.23278 -0.8775364 14
-3.855854 -11.21701 -0.8929993 16
-4.456274 -9.929314 -0.8858132 33
-2.689082 -18.87827 -0.7742738 16
-3.822912 -16.06338 -0.7681607 14
-4.95076 -14.62349 -0.8070204 11
-5.825488 -13.15302 -0.8347066 24
nan nan nan 0
-5.768788 -23.85573 -0.5688965 17
-6.793683 -19.88237 -0.6114174 10
-7.886182 -17.66793 -0.6675184 8
-2.472896 -5.603976 -1.103767 24
-3.611781 -8.023889 -0.9856564 29
nan nan nan 0
-4.611114 -31.07628 1.825666 39
-20.05439 -43.97841 3.928186 108
-6.825039 -44.56675 5.53104 11
-4.806334 -10.54564 2.105186 45
-6.928262 -44.31056 12.00662 10
-4.555505 -31.03652 0.1804468 40
-10.70136 -43.79133 0 8
-12.38988 -36.04969 -0.1993855 17
-12.86443 -28.62455 -0.3665309 8
-4.561965 -31.19405 0.9289913 29
-11.25202 -46.32516 1.105878 118
-15.41223 -45.12348 0.8149766 70
nan nan nan 0
nan nan nan 0
-0.05793092 -0.3737636 -0.08846071 39
-1.101219 -7.446676 -1.040388 33
-1.559335 -9.958366 -0.9508347 18
-2.028553 -13.26794 -0.8583713 10
-3.01744 -12.22233 -0.8775364 15
-3.909727 -11.24587 -0.896389 17
-4.464144 -9.8547 -0.8805211 32
-2.750641 -18.83911 -0.7730541 17
-3.881306 -16.05965 -0.7686265 15
-5.009867 -14.62974 -0.8083288 10
-5.885638 -13.16449 -0.8367396 17
-4.706475 -31.45459 -0.5544629 30
-5.865131 -23.88885 -0.5701731 19
-6.851614 -19.82547 -0.6103975 10
-7.953969 -17.65396 -0.6680366 8
-2.490437 -5.590817 -1.102875 23
-3.600664 -7.925309 -0.9750339 30
nan nan nan 0
-4.757012 -31.30675 1.840188 38
-20.22446 -43.94435 3.931429 101
-6.976727 -44.51814 5.527993 12
-4.801959 -10.43944 2.087254 48
-7.079082 -44.26226 12.00014 11
-4.65639 -30.97098 0.1801589 44
-10.84453 -43.71489 0 8
nan nan nan 0
-12.91055 -28.4611 -0.3650107 10
-4.741086 -31.6475 0.9429998 36
-11.41246 -46.28074 1.105762 66
nan nan nan 0
nan nan nan 0
nan nan nan 0
-0.6304926 -4.372412 -1.143671 10
-1.127206 -7.442786 -1.040388 36
-1.594087 -9.952863 -0.9508347 18
-2.074085 -13.25584 -0.8580512 11
-3.060086 -12.21172 -0.8775364 15
-3.96054 -11.26507 -0.8990254 16
-4.48192 -9.802808 -0.8772645 31
-2.811959 -18.79974 -0.7718344 17
-3.940909 -16.06055 -0.7693253 14
-5.044557 -14.56498 -0.805712 11
-5.937719 -13.15752 -0.8376109 20
-4.771628 -31.14641 -0.5493144 37
-5.964193 -23.93128 -0.5716819 21
-6.910879 -19.77312 -0.6095231 9
-8.019684 -17.63518 -0.6683821 9
-2.509937 -5.58209 -1.102875 22
-3.590977 -7.83142 -0.9649705 34
nan nan nan 0
-4.882355 -31.39354 1.846287 38
-20.39243 -43.90512 3.934266 107
-7.127372 -44.46411 5.524337 11
-4.840445 -10.42707 2.088151 48
-7.227313 -44.19915 11.98979 10
-4.772828 -31.0089 0.1804757 44
-10.99096 -43.65252 0 10
-12.60311 -35.85382 -0.1987834 12
-13.0119 -28.42041 -0.3650692 9
-4.837148 -31.5369 0.9401982 29
nan nan nan 0
nan nan nan 0
nan nan nan 0
nan nan nan 0
-0.05913714 -0.3637769 -0.08593326 41
-1.15318 -7.438807 -1.040388 37
-1.628819 -9.947237 -0.9508347 18
-2.120344 -13.24852 -0.8580512 11
-3.103923 -12.2058 -0.8778852 14
nan nan nan 0
-4.482666 -9.714722 -0.8707511 30
-2.873037 -18.76018 -0.7706149 16
-3.999361 -16.05639 -0.7697911 13
-5.105274 -14.57556 -0.8072821 10
-6.043664 -13.26842 -0.8460335 20
-4.877227 -31.10981 -0.5489654 35
-6.073425 -24.01209 -0.574119 21
-6.981524 -19.75359 -0.6096689 9
-8.085365 -17.61616 -0.6687276 9
-2.529407 -5.573295 -1.102875 23
-3.618292 -7.818837 -0.9649705 34
-20.32118 -43.97201 1.943984 4
-4.995826 -31.40095 1.847739 38
-20.56037 -43.86526 3.937104 53
-7.278528 -44.41448 5.52129 11
-4.824588 -10.29878 2.065736 46
-7.379961 -44.16412 11.9872 10
-4.877932 -30.97229 0.1803605 43
-10.26214 -40.16466 0 31
-3.538735 -9.959805 -0.0551347 17
-13.10683 -28.36574 -0.3649522 9
-4.94101 -31.48032 0.9390185 31
-10.2243 -40.25047 0.963248 66
-15.90723 -45.0256 0.8161739 67
nan nan nan 0
nan nan nan 0
-0.6610022 -4.367903 -1.143671 10
-1.179139 -7.434736 -1.040388 35
-1.663532 -9.94149 -0.9508347 19
-2.166577 -13.24104 -0.8580512 11
-3.14651 -12.19489 -0.8778852 15
-3.595344 -10.00325 -0.7999707 17
-4.51655 -9.699016 -0.8707511 35
-2.9331 -18.71549 -0.7691919 17
-4.055384 -16.04234 -0.7697911 14
-5.159456 -14.56706 -0.8078054 11
-6.129588 -13.3334 -0.8515517 18
-5.015836 -31.28017 -0.5522814 35
-6.180809 -24.08274 -0.576324 16
-3.568081 -9.987198 -0.3080401 17
-8.153112 -17.60143 -0.6692459 10
-2.548846 -5.564432 -1.102875 24
-3.6603 -7.837663 -0.9688841 29
-20.47032 -43.89176 1.943583 4
-5.139032 -31.59025 1.859938 32
-20.72828 -43.82476 3.939941 82
-7.429423 -44.36433 5.518244 12
-4.858403 -10.27743 2.064839 45
-7.529205 -44.10953 11.97944 11
-4.98681 -30.96001 0.1803893 48
nan nan nan 0
-3.566715 -9.928571 -0.05502998 34
-13.16138 -28.22467 -0.3637244 9
nan nan nan 0
nan nan nan 0
-3.554006 -9.952888 0.1800987 29
nan nan nan 0
nan nan nan 0
-0.6813847 -4.399041 -1.152517 9
-1.205084 -7.430575 -1.040388 34
-1.698224 -9.935624 -0.9508347 21
-2.213604 -13.23832 -0.8583713 11
-3.190321 -12.18865 -0.878234 15
-3.623425 -9.971897 -0.7984641 18
-4.539769 -9.660645 -0.8687158 35
-2.992887 -18.6706 -0.767769 18
-4.112597 -16.03292 -0.7700239 14
-3.576806 -9.989373 -0.5539761 12
-5.988977 -12.909 -0.8257031 16
-5.143575 -31.37595 -0.5542884 29
-6.271132 -24.0852 -0.5769043 15
-3.601222 -9.969982 -0.3078944 23
-8.218738 -17.58192 -0.6695914 9
-2.568254 -5.555501 -1.102875 22
-3.691879 -7.833824 -0.9700022 18
-17.59105 -37.37887 1.657644 50
-5.179757 -31.15357 1.835251 19
-20.89831 -43.78812 3.943184 99
-7.580057 -44.31366 5.515197 12
-4.904849 -10.2826 2.069322 47
-1.33037 -7.608133 2.058905 116
-5.121628 -31.10522 0.1813396 44
nan nan nan 0
-3.609889 -9.939556 -0.05516088 36
-13.22361 -28.10165 -0.3627305 10
-5.081426 -30.96172 0.9245675 29
nan nan nan 0
-3.590424 -9.945124 0.1801842 35
-17.62979 -37.64812 0.5074331 7
nan nan nan 0
-0.06819987 -0.3965908 -0.09477933 37
-1.231014 -7.426322 -1.040388 34
-1.732895 -9.929635 -0.9508347 20
-2.26064 -13.23543 -0.8586914 12
-3.232848 -12.17745 -0.878234 15
-3.659932 -9.963868 -0.7988408 17
-4.5585 -9.613229 -0.8658662 38
-3.053202 -18.63046 -0.7665493 18
-4.169796 -16.0233 -0.7702569 14
-3.598051 -9.939269 -0.5518826 13
-5.97681 -12.76598 -0.8178614 17
-5.301748 -31.64871 -0.5594369 40
nan nan nan 0
-3.637717 -9.962044 -0.3080401 25
-8.28646 -17.56668 -0.6701097 10
-2.587631 -5.546502 -1.102875 21
-3.732022 -7.847805 -0.9733567 16
-17.92722 -37.75045 1.676907 6
nan nan nan 0
-21.06617 -43.74633 3.946021 102
-7.732135 -44.27227 5.513369 12
-4.925764 -10.2344 2.063046 45
-1.361146 -7.627218 2.065376 128
-5.247577 -31.19071 0.1819443 53
-11.54526 -43.2919 0 10
-3.644562 -9.926895 -0.05516088 35
-13.28516 -27.97855 -0.3617365 9
-5.195252 -30.9783 0.9255998 21
nan nan nan 0
-3.625117 -9.932529 0.1801842 37
-17.70768 -37.47335 0.505906 42
nan nan nan 0
-0.06651334 -0.3772448 -0.08972443 44
-1.256929 -7.42198 -1.040388 34
-1.767545 -9.923526 -0.9508347 19
-2.307681 -13.23238 -0.8590114 12
-3.276631 -12.1709 -0.8785827 14
-3.687745 -9.932339 -0.7973343 18
-4.568343 -9.547822 -0.8613883 40
-3.114097 -18.59505 -0.765533 18
-4.226976 -16.01348 -0.7704898 14
-3.63959 -9.945403 -0.5529293 14
-6.074685 -12.85785 -0.8251223 16
-5.419772 -31.67436 -0.5602222 33
nan nan nan 0
-3.663812 -9.925845 -0.3073116 22
-8.349877 -17.54216 -0.6702824 10
-2.606976 -5.537436 -1.102875 22
-3.76585 -7.848164 -0.9750339 20
nan nan nan 0
nan nan nan 0
-21.23617 -43.70839 3.949264 103
-7.878795 -44.20104 5.507885 11
-4.931345 -10.15521 2.050494 42
-1.377419 -7.565395 2.049847 132
-5.362341 -31.20669 0.1821459 47
-11.67021 -43.1548 0 11
-3.67571 -9.904738 -0.05510852 35
-13.37193 -27.90947 -0.3614442 10
-5.357303 -31.27526 0.9350371 18
nan nan nan 0
-3.649379 -9.891677 0.1796711 34
nan nan nan 0
nan nan nan 0
-0.7281976 -4.396439 -1.15378 10
-1.281989 -7.412666 -1.0397 35
-1.802174 -9.917295 -0.9508347 19
-2.356474 -13.23898 -0.8599715 10
-3.319096 -12.15939 -0.8785827 15
-3.72064 -9.914738 -0.7969576 17
-4.616826 -9.563223 -0.8642378 36
-3.173101 -18.5496 -0.7641101 18
-4.284139 -16.00345 -0.7707227 13
-3.663886 -9.904543 -0.5513593 13
-6.145326 -12.89063 -0.8286074 18
-5.550071 -31.76852 -0.5622293 31
nan nan nan 0
-3.694941 -9.90363 -0.3070202 20
-8.411059 -17.5129 -0.6702824 8
-2.626289 -5.528302 -1.102875 22
-3.801894 -7.852853 -0.9772702 19
nan nan nan 0
-5.615243 -31.71695 1.871845 12
-21.40616 -43.66978 3.952507 100
-8.033925 -44.17815 5.508494 11
-4.975429 -10.1556 2.05408 45
-1.388884 -7.479807 2.027847 136
-5.488502 -31.28628 0.1827219 53
-11.82342 -43.12344 0 11
-3.706748 -9.882484 -0.05505616 36
-13.42574 -27.7726 -0.3602749 8
-5.478483 -31.32529 0.9371015 41
nan nan nan 0
-3.683886 -9.878878 0.1796711 38
nan nan nan 0
nan nan nan 0
-0.7427385 -4.389098 -1.152517 9
-1.307856 -7.408147 -1.0397 33
-1.834972 -9.901155 -0.9498918 20
-2.400004 -13.21594 -0.8590114 12
-3.36152 -12.14773 -0.8785827 14
-3.74992 -9.887705 -0.7958277 18
-4.663287 -9.573923 -0.8666803 32
-3.236973 -18.53349 -0.7639068 16
-4.341282 -15.99322 -0.7709557 15
-3.698436 -9.891693 -0.5513593 12
-6.149143 -12.78365 -0.8230892 21
nan nan nan 0
nan nan nan 0
-3.724196 -9.876643 -0.306583 22
-8.47432 -17.48793 -0.6704552 9
-2.645571 -5.5191 -1.102875 22
-3.838017 -7.857388 -0.9795066 25
-21.29456 -43.65354 1.949201 3
-8.429749 -46.67938 2.757668 9
-21.57615 -43.63054 3.955749 102
-8.180851 -44.1108 5.503619 18
nan nan nan 0
-1.39977 -7.394231 2.005848 136
-5.631128 -31.45396 0.1838162 45
-11.96317 -43.04337 0 10
-3.737676 -9.860136 -0.0550038 39
-13.45244 -27.58178 -0.3584039 8
-5.607974 -31.41914 0.9404931 26
-12.63233 -45.69832 1.099843 9
-3.714819 -9.856602 0.1795001 40
nan nan nan 0
nan nan nan 0
-0.0720953 -0.3860638 -0.09225187 41
-1.333707 -7.403536 -1.0397 37
-1.872287 -9.909364 -0.9513061 18
-2.447028 -13.21239 -0.8593314 12
-3.403903 -12.13592 -0.8785827 15
-3.780841 -9.865244 -0.7950744 16
-4.72308 -9.611244 -0.8715653 31
-3.288519 -18.4483 -0.7608576 15
-4.397082 -15.97796 -0.7709557 13
-3.729411 -9.869381 -0.5508359 14
-6.169736 -12.71272 -0.8198944 26
nan nan nan 0
nan nan nan 0
-3.755088 -9.854243 -0.3062916 20
-8.535313 -17.45825 -0.6704552 9
-2.66482 -5.509832 -1.102875 22
-3.872018 -7.857308 -0.9811838 18
nan nan nan 0
-8.587218 -46.62022 2.755926 10
-21.74611 -43.59063 3.958992 98
-1.424176 -7.508652 0.9335191 11
-5.17364 -10.37587 2.106082 66
-1.412809 -7.322901 1.98773 129
-5.736401 -31.40952 0.1836722 44
-12.09708 -42.9436 0 11
-3.768492 -9.837691 -0.05495144 35
-13.47577 -27.38663 -0.3564745 10
nan nan nan 0
-12.79177 -45.65395 1.099843 9
-3.745642 -9.834231 0.1793291 38
-21.49107 -43.88084 0.5964951 4
nan nan nan 0
-0.07511094 -0.3953401 -0.09477933 43
-1.359542 -7.398836 -1.0397 33
-1.912498 -9.932098 -0.9541345 12
-2.494981 -13.21358 -0.8599715 10
-3.446244 -12.12397 -0.8785827 15
-3.80985 -9.83804 -0.7939445 16
-4.723364 -9.527744 -0.8654591 34
-3.351111 -18.42687 -0.7604511 17
-4.454171 -15.96733 -0.7711886 13
-3.760274 -9.846974 -0.5503125 13
-6.260206 -12.78523 -0.8259935 21
-5.675634 -30.59283 -0.5424207 25
-6.685746 -23.63593 -0.5693607 9
-3.78587 -9.831749 -0.3060001 21
-8.600624 -17.43731 -0.6708006 8
-2.684036 -5.500497 -1.102875 21
-3.901636 -7.848192 -0.9817429 28
-21.57436 -43.45459 1.946994 41
-8.752663 -46.60468 2.756797 10
-21.91607 -43.55006 3.962235 89
-1.443808 -7.469523 0.9292537 24
-5.227527 -10.3929 2.113255 110
-1.422584 -7.237351 1.965731 116
-8.703198 -46.7455 0.2736364 74
-12.23318 -42.85302 0 12
-3.799198 -9.815151 -0.05489908 34
-13.50679 -27.20957 -0.3547789 10
nan nan nan 0
-12.96607 -45.66192 1.10112 8
-3.778151 -9.816432 0.1792435 39
-21.60867 -43.73384 0.5955177 5
nan nan nan 0
-0.08074477 -0.4188868 -0.1010979 42
-1.385361 -7.394044 -1.0397 36
-1.481699 -7.546314 -0.7245577 35
nan nan nan 0
-3.487164 -12.10707 -0.878234 16
-3.840533 -9.815395 -0.7931913 17
-4.769981 -9.537933 -0.8679016 40
-3.412683 -18.40033 -0.7598413 16
-4.511239 -15.95649 -0.7714215 14
-3.792826 -9.82913 -0.5500509 14
-6.315859 -12.78567 -0.8274457 18
-5.851075 -30.93635 -0.5488781 21
-6.751687 -23.55479 -0.5679681 7
-3.818353 -9.813815 -0.3058544 20
-8.668122 -17.4206 -0.6713189 10
-2.70322 -5.491094 -1.102875 24
-3.929008 -7.834525 -0.9817429 19
-21.8199 -43.56662 1.955422 54
nan nan nan 0
-22.08375 -43.5044 3.965072 103
-1.466051 -7.444958 0.9268163 28
nan nan nan 0
-1.48846 -7.436004 2.021377 36
-8.86166 -46.69027 0.2734925 102
-12.36741 -42.75723 0 13
-3.829792 -9.792517 -0.05484672 36
-13.59049 -27.1399 -0.3544866 10
nan nan nan 0
-13.12676 -45.62118 1.101236 8
-3.808768 -9.793865 0.1790725 42
-21.66527 -43.46576 0.592891 44
nan nan nan 0
-0.07700161 -0.3900469 -0.0935156 41
-1.411162 -7.389163 -1.0397 37
-1.50414 -7.521569 -0.722672 40
-1.471013 -7.490942 -0.4871145 64
-3.529405 -12.09482 -0.878234 15
-3.871104 -9.792658 -0.792438 16
-4.792012 -9.498984 -0.8658662 35
nan nan nan 0
-4.568285 -15.94545 -0.7716545 14
-3.821669 -9.801876 -0.5492659 13
-6.262419 -12.56701 -0.8146666 17
-1.453569 -7.519223 -0.1329873 24
-6.822717 -23.49268 -0.5670397 9
-3.848927 -9.791124 -0.305563 19
-8.733364 -17.39917 -0.6716644 9
-2.722371 -5.481625 -1.102875 23
-3.958577 -7.825196 -0.982302 19
nan nan nan 0
-1.460733 -7.465226 0.4402975 31
-22.25819 -43.47141 3.969126 96
-1.483278 -7.395997 0.9213322 34
-5.127237 -10.01906 2.044218 41
-1.517291 -7.444962 2.025259 30
nan nan nan 0
-12.50534 -42.67542 0 14
-3.860276 -9.769791 -0.05479436 36
-13.66034 -27.04321 -0.3538435 9
-1.444194 -7.462829 0.2231054 31
-13.29292 -45.59908 1.101816 8
-3.841103 -9.775858 0.178987 44
-21.89773 -43.55066 0.5950901 9
nan nan nan 0
-0.08013082 -0.3992881 -0.09604306 47
-1.436947 -7.384193 -1.0397 36
-1.528406 -7.506516 -0.7217292 49
-1.493252 -7.466188 -0.4858343 97
-3.571602 -12.08243 -0.878234 15
-3.901563 -9.769825 -0.7916847 17
-4.818352 -9.468879 -0.8646449 34
-1.456117 -7.538921 -0.3108072 101
-4.623917 -15.92941 -0.7716545 12
-3.848537 -9.769895 -0.5482191 13
-6.339901 -12.61196 -0.8190231 21
-1.47692 -7.499386 -0.1327256 35
-6.882113 -23.39199 -0.5651829 9
-3.87939 -9.768341 -0.3052716 22
-8.807596 -17.39532 -0.6727009 9
-2.743697 -5.476485 -1.103767 24
-3.985868 -7.811329 -0.982302 20
nan nan nan 0
-1.48581 -7.455186 0.4400071 34
-22.42809 -43.42887 3.972368 97
-1.513043 -7.410225 0.9237696 28
-5.162179 -10.0011 2.044218 42
-1.54718 -7.458539 2.030435 16
-1.478569 -7.479716 0.04368623 39
-12.64712 -42.60754 0 14
-3.890646 -9.746969 -0.054742 38
-13.71152 -26.91073 -0.3527326 10
-1.476013 -7.487167 0.2239901 38
-13.44635 -45.53322 1.101352 9
-3.871513 -9.753098 0.178816 42
nan nan nan 0
nan nan nan 0
-0.08062343 -0.3942529 -0.09477933 42
-1.461754 -7.374274 -1.039011 38
-1.552586 -7.491386 -0.7207864 47
-1.519305 -7.46093 -0.4858343 106
-3.613756 -12.06989 -0.878234 15
-3.93191 -9.746901 -0.7909315 17
-4.855932 -9.460867 -0.8654591 34
-1.476658 -7.504377 -0.3095875 106
-4.680901 -15.91796 -0.7718874 13
-3.8623 -9.705373 -0.5453407 13
-6.189602 -12.20696 -0.7940459 17
-1.504068 -7.499088 -0.1328128 44
-6.949451 -23.31992 -0.5640222 9
-3.909741 -9.745463 -0.3049802 22
-8.856894 -17.34222 -0.6718372 9
-2.762796 -5.466875 -1.103767 24
-4.015387 -7.801785 -0.982861 19
nan nan nan 0
-1.518749 -7.484202 0.4420401 35
-22.59797 -43.38567 3.975611 90
-1.547958 -7.448636 0.9292537 25
-5.178869 -9.948129 2.037045 47
nan nan nan 0
-1.504669 -7.474509 0.04368623 48
-12.78569 -42.52961 0 14
-3.920904 -9.724055 -0.05468964 37
-13.73907 -26.73376 -0.351037 10
-1.500179 -7.472168 0.2236952 43
-13.60807 -45.49559 1.101584 9
-3.89995 -9.725605 0.1785594 42
nan nan nan 0
nan nan nan 0
-0.08291641 -0.398719 -0.09604306 47
-1.48651 -7.36427 -1.038323 35
-1.580774 -7.495663 -0.7217292 41
-1.54433 -7.450696 -0.4855143 100
-3.655865 -12.0572 -0.878234 15
-3.965909 -9.733116 -0.7909315 17
-4.888927 -9.443859 -0.8654591 37
-1.501866 -7.494277 -0.3093843 116
-4.725035 -15.86323 -0.7700239 15
-3.91106 -9.728891 -0.5474341 14
-6.384576 -12.48297 -0.8135049 10
-1.528242 -7.483994 -0.1326383 47
-7.009151 -23.22374 -0.5622815 9
-3.941857 -9.727125 -0.3048344 20
-8.94027 -17.35562 -0.6735647 9
-2.781862 -5.457198 -1.103767 24
-4.044888 -7.79213 -0.9834201 20
nan nan nan 0
-1.543858 -7.473966 0.4417497 26
-5.525797 -10.52843 0.9639074 20
nan nan nan 0
-5.176941 -9.860326 2.0227 44
nan nan nan 0
-1.52775 -7.454515 0.04359983 48
-12.92242 -42.44645 0 13
-3.954824 -9.710309 -0.05468964 37
-13.8277 -26.67677 -0.3509201 9
-1.525255 -7.461988 0.2235477 44
-13.76245 -45.43346 1.101236 9
-3.930119 -9.702665 0.1783884 45
nan nan nan 0
nan nan nan 0
-0.08430769 -0.3984271 -0.09604306 49
-1.511214 -7.354186 -1.037635 37
nan nan nan 0
-1.576486 -7.474557 -0.4874346 59
-3.697931 -12.04437 -0.878234 14
-3.997962 -9.714602 -0.7905548 16
-4.921863 -9.426736 -0.8654591 38
-1.531002 -7.503676 -0.3099941 114
-4.799124 -15.9088 -0.7730519 14
-3.928082 -9.673546 -0.545079 14
-6.528878 -12.65576 -0.826284 10
-1.554357 -7.478614 -0.1326383 41
-7.069726 -23.1322 -0.5606567 10
-3.968211 -9.694806 -0.3042516 25
-9.005408 -17.33317 -0.6739102 9
-2.800895 -5.447454 -1.103767 23
-4.072063 -7.777963 -0.9834201 18
-5.373594 -10.28624 0.4645255 34
-1.576078 -7.497844 0.4434923 25
-5.550847 -10.48706 0.9618807 39
nan nan nan 0
-5.220545 -9.859578 2.026286 100
nan nan nan 0
-1.555797 -7.458927 0.04365743 39
-13.06167 -42.37242 0 12
-3.977278 -9.668703 -0.05453257 41
-13.9022 -26.59289 -0.3504524 7
-1.552308 -7.461514 0.2236952 39
-13.93122 -45.41859 1.102049 8
-3.958283 -9.675009 0.1781318 45
-22.69065 -43.59988 0.600038 4
nan nan nan 0
-0.08569795 -0.3981304 -0.09604306 50
-1.536875 -7.348866 -1.037635 36
-2.149301 -9.858087 -0.9517774 15
-1.606741 -7.488526 -0.4887148 37
-3.739951 -12.03139 -0.878234 14
-4.026104 -9.686777 -0.7894249 17
-4.954738 -9.409498 -0.8654591 33
-1.557186 -7.498286 -0.3099941 110
-4.867754 -15.93495 -0.7751482 14
-3.963721 -9.664395 -0.5453407 15
nan nan nan 0
-1.583545 -7.487818 -0.1329001 33
-7.122361 -23.01665 -0.5584517 10
-4.007759 -9.694751 -0.3046887 26
-5.513164 -10.52613 -0.4094251 29
-2.819893 -5.437644 -1.103767 24
-4.099188 -7.763701 -0.9834201 18
-5.390821 -10.23207 0.4629202 37
-1.6012 -7.487415 0.4432019 17
-5.589769 -10.47201 0.962286 40
nan nan nan 0
-5.231738 -9.797915 2.01732 46
-9.62486 -43.46272 11.91732 11
-1.58803 -7.482801 0.04383021 23
-13.18865 -42.25975 0 13
-4.011003 -9.654761 -0.05453257 41
-5.509141 -10.45625 -0.1377487 36
-1.580406 -7.465829 0.2239901 25
-14.09116 -45.37446 1.102165 9
-3.988211 -9.651892 0.1779608 38
nan nan nan 0
nan nan nan 0
-0.08708716 -0.3978288 -0.09604306 46
-1.561491 -7.338611 -1.036947 36
-2.187998 -9.869965 -0.9536631 19
-2.865073 -13.14851 -0.8606117 10
-3.781926 -12.01826 -0.878234 15
-4.069546 -9.695649 -0.7913081 23
-4.987553 -9.392145 -0.8654591 34
-1.581291 -7.483028 -0.3095875 101
-4.920397 -15.90831 -0.7746823 12
-3.99552 -9.645887 -0.545079 15
-5.523853 -10.52848 -0.6894897 17
-1.611769 -7.492022 -0.1330746 11
-7.204154 -22.99642 -0.5585677 9
-4.031944 -9.657642 -0.3039601 24
-5.542866 -10.49357 -0.4089068 36
-2.84114 -5.432125 -1.10466 26
-4.126264 -7.749346 -0.9834201 21
-5.546162 -10.43814 0.4731538 43
nan nan nan 0
-5.631018 -10.46121 0.9630967 36
nan nan nan 0
-5.296253 -9.835882 2.028976 120
-9.766973 -43.38646 11.90568 16
-9.995554 -46.44028 0.2733773 127
-13.33759 -42.21822 0 12
-4.04468 -9.640701 -0.05453257 34
-5.569087 -10.4811 -0.1383334 37
-9.998569 -46.57266 1.404251 87
-14.23747 -45.28685 1.101236 35
-4.019952 -9.633299 0.1778753 37
-5.542006 -10.47841 0.1443439 40
nan nan nan 0
-0.08945881 -0.4022591 -0.09730678 48
-1.586054 -7.328275 -1.036259 37
-2.221346 -9.85741 -0.9531917 20
-2.909875 -13.13356 -0.8602916 10
-3.823854 -12.00498 -0.878234 14
-4.43427 -10.46171 -0.8553359 47
-5.020308 -9.374678 -0.8654591 38
-1.611588 -7.497003 -0.3104006 24
-4.971422 -15.87674 -0.7739836 13
nan nan nan 0
-5.562908 -10.51354 -0.6897802 21
nan nan nan 0
-7.270787 -22.92824 -0.5575233 10
-4.065631 -9.64351 -0.3039601 21
-5.581812 -10.47857 -0.4090796 38
-2.860085 -5.422174 -1.10466 24
-4.155642 -7.739271 -0.9839792 21
-5.59201 -10.43632 0.4739564 43
nan nan nan 0
-23.46117 -43.1861 3.994257 65
nan nan nan 0
-5.809829 -10.69895 2.211879 13
-9.920514 -43.36152 11.90826 23
-10.15867 -46.40998 0.2734061 141
-13.47727 -42.14759 0 12
nan nan nan 0
-5.608002 -10.466 -0.1383919 37
-10.16854 -46.57166 1.405284 143
nan nan nan 0
-4.041902 -9.591568 0.1773622 15
-5.590323 -10.48106 0.1446493 39
nan nan nan 0
-0.09086241 -0.4019443 -0.09730678 46
-1.611625 -7.322694 -1.036259 35
-2.252414 -9.835039 -0.9517774 22
-2.956797 -13.12819 -0.8606117 12
-3.865736 -11.99156 -0.878234 13
nan nan nan 0
-5.053 -9.357098 -0.8654591 38
-3.914528 -17.94236 -0.7456121 16
-5.025303 -15.85453 -0.7737507 12
-4.074426 -9.645354 -0.546649 10
-5.604277 -10.50287 -0.690361 19
nan nan nan 0
-7.324815 -22.82181 -0.5555503 10
nan nan nan 0
-5.623088 -10.46782 -0.4094251 37
-2.881308 -5.416499 -1.105552 24
-4.182632 -7.724718 -0.9839792 18
-5.652175 -10.46068 0.4759631 36
nan nan nan 0
-23.63812 -43.15202 3.998716 78
-9.98539 -43.57473 5.48412 9
-5.797486 -10.58802 2.193051 101
-10.06526 -43.29839 11.9005 34
-10.31518 -46.34984 0.2732621 146
-13.61045 -42.05748 0 13
nan nan nan 0
-5.654016 -10.46395 -0.1386257 30
-10.32454 -46.50661 1.404399 164
nan nan nan 0
-18.88122 -44.35651 0.823956 55
-5.629245 -10.46588 0.1447104 39
nan nan nan 0
-0.0922649 -0.4016247 -0.09730678 47
-1.636098 -7.31219 -1.035571 36
-2.286731 -9.827117 -0.9517774 20
-3.005939 -13.13238 -0.8615718 11
-3.906024 -11.97325 -0.8778852 14
-4.507198 -10.43049 -0.8553359 32
-5.085632 -9.339402 -0.8654591 36
-3.971733 -17.90419 -0.7445957 17
-5.07604 -15.82262 -0.7730519 13
nan nan nan 0
-5.631435 -10.46566 -0.6891993 25
nan nan nan 0
-7.404433 -22.7961 -0.5555503 9
-8.15488 -18.9674 -0.6007803 9
-5.669123 -10.4657 -0.4101161 14
-2.900198 -5.406408 -1.105552 22
-4.211954 -7.714429 -0.9845382 19
nan nan nan 0
nan nan nan 0
-23.8127 -43.11286 4.002769 67
-10.13406 -43.52511 5.482292 11
-5.636912 -10.21039 2.118634 64
-10.21301 -43.24889 11.89662 49
-10.47911 -46.32331 0.2733197 143
-13.74473 -41.97169 0 12
nan nan nan 0
nan nan nan 0
-10.48792 -46.47516 1.404546 181
nan nan nan 0
-19.0616 -44.35004 0.8250676 54
-5.675286 -10.46374 0.1449547 16
nan nan nan 0
-0.09366627 -0.4013002 -0.09730678 51
-1.661613 -7.306434 -1.035571 35
-2.319878 -9.81423 -0.9513061 19
-3.047247 -13.10237 -0.8602916 13
-3.947795 -11.95955 -0.8778852 14
-4.535602 -10.39642 -0.8538294 36
-5.118202 -9.321592 -0.8654591 36
-4.028718 -17.86585 -0.7435793 15
-5.135865 -15.81906 -0.7737507 13
nan nan nan 0
-5.686994 -10.48103 -0.6915227 15
nan nan nan 0
-7.471478 -22.73213 -0.5546219 9
-8.225019 -18.94799 -0.6010717 8
-9.388008 -17.18023 -0.675465 5
-2.921397 -5.400577 -1.106444 23
-4.238857 -7.69968 -0.9845382 18
nan nan nan 0
-10.67858 -46.11946 2.75215 10
-23.98245 -43.0643 4.006012 69
-10.27565 -43.446 5.476808 11
-5.658151 -10.16487 2.113255 116
-10.36053 -43.19889 11.89274 59
-10.63963 -46.28157 0.2732909 148
-13.86757 -41.85227 0 12
nan nan nan 0
nan nan nan 0
-10.64785 -46.42852 1.404251 204
-14.90439 -45.19283 1.103905 8
-19.21629 -44.28323 0.8250676 52
nan nan nan 0
nan nan nan 0
-0.0950665 -0.4009708 -0.09730678 48
-1.687107 -7.30059 -1.035571 34
-2.352962 -9.801231 -0.9508347 19
-3.090674 -13.08194 -0.8596515 11
-3.989518 -11.94569 -0.8778852 14
-4.553771 -10.33946 -0.8504397 36
-5.153124 -9.308028 -0.8658662 38
-4.072112 -17.76889 -0.7401236 16
-5.191053 -15.80103 -0.7737507 13
-6.248682 -14.36855 -0.8190577 11
-5.704361 -10.42609 -0.6891993 9
nan nan nan 0
-7.542897 -22.68219 -0.5540416 9
-8.289103 -18.91459 -0.600926 8
-9.435859 -17.12548 -0.6746013 6
-2.940231 -5.390347 -1.106444 25
-4.268122 -7.689179 -0.9850973 21
nan nan nan 0
-10.84521 -46.1062 2.753602 11
-24.15703 -43.02378 4.010066 68
-10.43072 -43.42434 5.478636 10
-5.500839 -9.801989 2.041528 101
-10.51926 -43.19531 11.90179 56
-10.80112 -46.24415 0.2732909 146
-14.01516 -41.80835 0 10
nan nan nan 0
nan nan nan 0
-10.80985 -46.39107 1.404251 253
-15.06521 -45.15001 1.104137 8
nan nan nan 0
nan nan nan 0
nan nan nan 0
-0.09646557 -0.4006365 -0.09730678 56
-1.71258 -7.294656 -1.035571 35
-2.385984 -9.788122 -0.9503632 18
-3.13632 -13.07107 -0.8596515 12
-4.029595 -11.92697 -0.8775364 14
-4.575651 -10.29162 -0.8478032 28
-5.185584 -9.289984 -0.8658662 38
-4.134112 -17.75457 -0.7401236 17
-5.247753 -15.78756 -0.7739836 13
-6.2988 -14.34665 -0.8190577 11
nan nan nan 0
nan nan nan 0
-7.609279 -22.61782 -0.5531132 8
-8.363167 -18.90382 -0.6015089 8
-9.502864 -17.10554 -0.6751195 6
-2.959028 -5.38005 -1.106444 23
-4.294936 -7.674234 -0.9850973 22
nan nan nan 0
-10.99797 -46.03408 2.751569 11
-24.33162 -42.98256 4.014119 71
-10.57871 -43.3732 5.476808 12
-5.518049 -9.752768 2.035252 41
-10.70589 -43.30368 11.94191 67
-10.96247 -46.20617 0.2732909 144
-14.17707 -41.80652 0 10
nan nan nan 0
-14.39775 -25.76232 -0.3446641 6
-10.97287 -46.35792 1.404399 188
-15.24191 -45.15398 1.10553 8
nan nan nan 0
nan nan nan 0
nan nan nan 0
-0.09786347 -0.4002974 -0.09730678 48
-1.738033 -7.288633 -1.035571 35
-2.418944 -9.774901 -0.9498918 18
-3.183106 -13.06489 -0.8599715 10
-4.072816 -11.91755 -0.8778852 13
-4.599293 -10.24829 -0.8455434 35
-5.215535 -9.267485 -0.8654591 35
-4.192616 -17.72544 -0.7395138 15
-5.306012 -15.77861 -0.7744495 13
-6.373126 -14.37936 -0.8221979 11
-6.794481 -12.2133 -0.810891 18
nan nan nan 0
-7.675303 -22.55326 -0.5521848 9
-8.43318 -18.88364 -0.6018003 8
-9.577175 -17.09842 -0.676156 7
-2.97779 -5.369689 -1.106444 22
-4.324142 -7.663521 -0.9856564 18
-24.12569 -42.80994 1.972076 48
-11.16095 -46.00511 2.75215 11
-24.50869 -42.94497 4.018578 78
-10.72647 -43.32156 5.47498 96
-5.554499 -9.737719 2.036149 43
-10.86051 -43.28009 11.94579 75
-11.12369 -46.16762 0.2732909 145
-14.29048 -41.66219 0 11
nan nan nan 0
-14.45567 -25.65529 -0.343904 6
-11.13346 -46.31447 1.404251 172
-15.41235 -45.13835 1.106459 8
nan nan nan 0
nan nan nan 0
nan nan nan 0
-0.09926017 -0.3999533 -0.09730678 52
-1.762303 -7.277709 -1.034883 34
-2.45305 -9.766398 -0.9498918 20
-3.229888 -13.05854 -0.8602916 12
-4.119277 -11.9174 -0.8789315 15
-4.618575 -10.19584 -0.8425303 36
-5.247852 -9.249223 -0.8654591 33
-4.252133 -17.70098 -0.7391073 15
-5.356234 -15.74581 -0.7737507 14
-6.390646 -14.2841 -0.818011 11
-6.775984 -12.08069 -0.8036302 27
-6.382321 -26.15814 -0.4692952 9
-7.732837 -22.46489 -0.5506761 10
-8.501098 -18.85864 -0.601946 8
-9.644176 -17.07793 -0.6766742 8
-2.996516 -5.359262 -1.106444 25
-4.350867 -7.64838 -0.9856564 18
-24.391 -42.92961 1.981507 9
-10.87879 -44.16769 2.644399 7
-24.68579 -42.90667 4.023036 63
-10.08452 -40.12638 5.075249 30
-5.57864 -9.70122 2.032562 41
-11.01152 -43.24192 11.94579 76
-11.28122 -46.11393 0.2732045 146
nan nan nan 0
nan nan nan 0
-14.50808 -25.53948 -0.343027 7
-11.29979 -46.29475 1.404841 156
-9.544594 -27.63523 0.6778712 8
nan nan nan 0
-24.35109 -43.05122 0.6038253 45
nan nan nan 0
-0.1006557 -0.3996044 -0.09730678 52
-1.787696 -7.271513 -1.034883 34
-2.488353 -9.762601 -0.9503632 18
-3.275451 -13.04719 -0.8602916 11
-4.159207 -11.89824 -0.8785827 13
-4.652062 -10.17513 -0.8421537 32
-5.277629 -9.226523 -0.865052 38
-4.311531 -17.67633 -0.7387007 16
-5.42416 -15.7648 -0.775614 12
-6.471301 -14.32996 -0.8219362 10
-6.877121 -12.16122 -0.8106006 17
nan nan nan 0
-7.809563 -22.43304 -0.55056 9
-8.568946 -18.8334 -0.6020917 8
-9.713625 -17.06153 -0.6773653 9
-3.015205 -5.348769 -1.106444 23
-4.380013 -7.637455 -0.9862155 18
nan nan nan 0
-11.00991 -44.03744 2.638881 28
-24.86292 -42.86766 4.027495 61
-10.24292 -40.16307 5.084389 33
-5.649506 -9.745502 2.046011 41
-11.15635 -43.17984 11.93932 80
-11.44573 -46.08884 0.2732909 52
nan nan nan 0
-14.85067 -32.48594 -0.1868192 20
-14.52258 -25.35853 -0.341273 9
-11.46012 -46.25018 1.404694 107
nan nan nan 0
nan nan nan 0
nan nan nan 0
nan nan nan 0
-0.1020499 -0.3992506 -0.09730678 58
-1.813067 -7.265228 -1.034883 35
-2.523659 -9.758674 -0.9508347 21
-3.320974 -13.03568 -0.8602916 11
-4.209023 -11.90717 -0.8803266 14
-4.687551 -10.15882 -0.8421537 30
-5.309804 -9.208044 -0.865052 36
-4.362412 -17.61752 -0.7368712 18
-5.474234 -15.73162 -0.7749153 12
nan nan nan 0
-6.840366 -11.99841 -0.8013067 18
nan nan nan 0
nan nan nan 0
-8.638807 -18.81246 -0.6023831 11
-9.780586 -17.04052 -0.6778835 9
-3.033857 -5.338212 -1.106444 23
-4.406646 -7.622119 -0.9862155 19
nan nan nan 0
-10.19668 -40.18607 2.410019 40
-25.04008 -42.82793 4.031954 59
-10.36938 -40.07422 5.077686 47
-5.700877 -9.755442 2.052287 50
-11.30701 -43.14063 11.93932 92
nan nan nan 0
-3.521894 -9.923489 0 19
-15.05405 -32.62912 -0.1879449 26
-14.561 -25.2211 -0.3401037 9
nan nan nan 0
-3.52548 -9.977548 0.2447578 12
nan nan nan 0
nan nan nan 0
nan nan nan 0
-0.1045912 -0.4035914 -0.0985705 51
-1.838416 -7.258855 -1.034883 32
-2.558969 -9.754622 -0.9513061 19
-3.365211 -13.01917 -0.8599715 11
nan nan nan 0
-4.72088 -10.13788 -0.8417771 34
-5.339406 -9.185147 -0.8646449 34
-4.415369 -17.56827 -0.7354483 16
-5.529114 -15.71242 -0.7749153 12
-6.34576 -13.79455 -0.7936748 14
nan nan nan 0
nan nan nan 0
-3.561498 -10.0019 -0.2455702 16
-8.714931 -18.80486 -0.6031117 10
-9.847522 -17.01925 -0.6784018 9
-3.054922 -5.331855 -1.107337 23
-4.433225 -7.606691 -0.9862155 18
-29.90457 -51.37151 2.385835 6
-11.80468 -45.85447 2.752731 9
-25.21726 -42.78749 4.036413 53
-10.49913 -39.99938 5.072811 45
nan nan nan 0
-11.45629 -43.09624 11.93803 86
-11.77588 -46.04171 0.2734925 113
-3.564951 -9.934668 0 32
-15.31139 -32.88459 -0.1897252 32
-14.59863 -25.0837 -0.3389343 9
nan nan nan 0
-3.551882 -9.941643 0.2441775 77
nan nan nan 0
nan nan nan 0
nan nan nan 0
-0.1059993 -0.4032238 -0.0985705 56
-1.863743 -7.252393 -1.034883 33
-2.59428 -9.75044 -0.9517774 18
-3.410636 -13.00735 -0.8599715 12
-3.597311 -9.954112 -0.7373258 16
-4.751995 -10.11232 -0.8410238 33
-5.373959 -9.170751 -0.865052 35
-4.465568 -17.50917 -0.7336189 20
nan nan nan 0
-6.450656 -13.89459 -0.8007401 16
nan nan nan 0
nan nan nan 0
-3.591311 -9.9753 -0.245222 23
-8.788991 -18.79243 -0.6036946 10
-9.914426 -16.99772 -0.6789201 9
-3.073515 -5.321159 -1.107337 24
-4.45975 -7.591169 -0.9862155 20
nan nan nan 0
-11.97097 -45.83712 2.754183 10
-25.39192 -42.74205 4.040466 55
-10.62976 -39.92892 5.068546 80
nan nan nan 0
-11.6054 -43.05132 11.93673 77
-11.93276 -45.98581 0.2734061 140
-3.609835 -9.950367 0 36
-15.48987 -32.96669 -0.1905105 26
-14.65067 -24.97223 -0.3381158 8
nan nan nan 0
-3.605234 -9.980902 0.2454541 49
nan nan nan 0
nan nan nan 0
nan nan nan 0
-0.1074062 -0.4028514 -0.0985705 56
-1.889048 -7.245844 -1.034883 32
-2.6283 -9.741324 -0.9517774 21
-3.454738 -12.99054 -0.8596515 12
-3.635458 -9.950864 -0.7380235 14
-4.789402 -10.10017 -0.8414004 32
-5.408474 -9.156226 -0.8654591 38
-4.52041 -17.4693 -0.7326025 17
-3.586756 -9.967771 -0.4921539 15
-6.543615 -13.96694 -0.8062354 15
-6.766624 -11.58569 -0.7783624 18
-7.00279 -26.6714 -0.4806392 27
-3.620984 -9.948612 -0.2448739 26
-8.873737 -18.80231 -0.605006 10
-9.9813 -16.97593 -0.6794383 9
-3.092071 -5.310398 -1.107337 23
-4.486221 -7.575556 -0.9862155 21
nan nan nan 0
-12.12962 -45.79024 2.753893 10
-25.57169 -42.70446 4.04533 55
-10.77165 -39.90115 5.069765 60
-5.929136 -9.906181 2.097116 46
-11.75433 -43.00589 11.93544 85
-12.09957 -45.96805 0.2735501 139
-3.646266 -9.9424 0 34
-15.57058 -32.84014 -0.1900917 36
-14.68175 -24.82627 -0.3368295 9
nan nan nan 0
-3.638338 -9.963562 0.2453381 54
nan nan nan 0
nan nan nan 0
nan nan nan 0
-0.1088117 -0.402474 -0.0985705 58
-1.913066 -7.234416 -1.034195 32
-2.660977 -9.727289 -0.9513061 20
-3.500062 -12.9784 -0.8596515 12
-3.67017 -9.938113 -0.7380235 14
-4.80956 -10.05191 -0.838764 32
-5.445506 -9.145852 -0.8662732 39
-4.586429 -17.47274 -0.7334155 19
-3.612995 -9.931719 -0.4909893 16
-6.649964 -14.06588 -0.8133007 14
-6.85264 -11.63941 -0.7835903 30
-7.097134 -26.65162 -0.4807265 32
-3.650513 -9.921836 -0.2445257 26
-8.926419 -18.74415 -0.6041317 10
-10.05069 -16.95818 -0.6801293 9
-3.110589 -5.299572 -1.107337 23
-4.515188 -7.564116 -0.9867746 19
-27.17828 -45.58464 2.129995 7
-12.28809 -45.74279 2.753602 10
-25.75666 -42.67466 4.051005 52
nan nan nan 0
-5.953507 -9.868582 2.09353 42
-11.9018 -42.95528 11.93285 86
-12.25479 -45.90622 0.2734348 139
-3.677475 -9.920234 0 32
-15.73907 -32.89834 -0.1907462 32
-14.7171 -24.68899 -0.3356602 10
nan nan nan 0
-3.666175 -9.932042 0.2448739 59
nan nan nan 0
nan nan nan 0
nan nan nan 0
-0.110216 -0.4020917 -0.0985705 52
-1.938307 -7.227695 -1.034195 35
-2.69226 -9.708346 -0.9503632 21
-3.545344 -12.9661 -0.8596515 11
-3.697864 -9.906549 -0.7366283 14
-4.833776 -10.01261 -0.8368808 28
-5.495364 -9.15669 -0.8691229 37
-4.647391 -17.45662 -0.7334155 17
-3.65281 -9.93311 -0.491688 15
-6.668917 -13.9795 -0.8096372 16
-6.880481 -11.59396 -0.7821381 16
-7.203145 -26.67495 -0.4815991 28
-3.686866 -9.913718 -0.2446418 24
-8.987463 -18.70387 -0.6038403 9
-10.11495 -16.93157 -0.6804749 9
-3.12656 -5.284451 -1.106444 23
-4.541563 -7.548308 -0.9867746 19
nan nan nan 0
-12.449 -45.70444 2.753893 11
-25.93396 -42.63132 4.055464 25
nan nan nan 0
-5.972572 -9.822531 2.088151 43
-12.04775 -42.89953 11.92897 86
-12.41888 -45.87764 0.2735212 140
-3.713835 -9.91202 0 33
-15.99728 -33.14038 -0.192474 30
-14.76713 -24.57748 -0.3348416 9
-12.37279 -45.8022 1.398648 7
-3.695583 -9.905133 0.2445257 50
nan nan nan 0
-27.36494 -45.73385 0.6506774 8
nan nan nan 0
-0.1116189 -0.4017045 -0.0985705 58
-1.963525 -7.220884 -1.034195 33
-2.728821 -9.708475 -0.9513061 18
-3.589252 -12.94884 -0.8593314 12
-3.727143 -9.87958 -0.735582 14
-4.855593 -9.968788 -0.834621 34
-5.498896 -9.090562 -0.8646449 43
-4.7109 -17.44994 -0.7338221 17
-3.675285 -9.887527 -0.4900576 16
-6.691681 -13.90215 -0.806497 16
-6.938859 -11.59985 -0.7841711 16
-7.267191 -26.54356 -0.4796793 26
-3.719691 -9.89611 -0.2445257 24
-9.048336 -18.66339 -0.6035488 10
-10.18173 -16.909 -0.6809931 8
-3.144987 -5.273505 -1.106444 25
-4.570463 -7.536656 -0.9873337 21
nan nan nan 0
-12.60979 -45.66552 2.754183 11
nan nan nan 0
-12.05239 -42.85815 5.461575 10
-5.978528 -9.755502 2.078288 40
-12.19347 -42.84328 11.92509 84
-12.57895 -45.83401 0.2735212 136
-3.741332 -9.880289 0 36
-16.17417 -33.2102 -0.1932071 28
-14.8347 -24.49584 -0.3344324 9
-12.52467 -45.72981 1.397763 9
-3.724847 -9.87814 0.2441775 74
nan nan nan 0
nan nan nan 0
nan nan nan 0
-0.111774 -0.3966381 -0.09730678 51
-1.988719 -7.213986 -1.034195 29
-2.758609 -9.684526 -0.9498918 20
-3.634429 -12.93623 -0.8593314 12
-3.758054 -9.857187 -0.7348844 14
-4.879363 -9.929407 -0.8327378 31
-5.517612 -9.050043 -0.8626094 38
-4.781004 -17.46712 -0.735245 15
-3.711532 -9.879313 -0.4902905 15
-6.713986 -13.82481 -0.8033569 16
nan nan nan 0
-7.367818 -26.54693 -0.4802029 33
-3.752438 -9.878391 -0.2444097 23
-9.104642 -18.61373 -0.602966 11
-10.24588 -16.8819 -0.6813386 8
-3.163376 -5.262494 -1.106444 24
-4.596744 -7.520657 -0.9873337 18
-18.99166 -31.11168 1.462402 28
-12.77046 -45.62603 2.754473 12
-26.28598 -42.53826 4.063976 15
-12.21144 -42.84923 5.46584 9
-5.997022 -9.709472 2.072909 71
-12.33893 -42.78653 11.9212 79
-12.74154 -45.79945 0.2735789 135
-3.772225 -9.857829 0 36
-16.35835 -33.29265 -0.1940186 26
-14.90448 -24.41831 -0.3340816 10
-12.68422 -45.68581 1.397763 9
-3.755747 -9.855735 0.2439454 69
nan nan nan 0
-19.07316 -31.38009 0.4481806 7
nan nan nan 0
-0.1131579 -0.3962455 -0.09730678 54
-2.012559 -7.20223 -1.033507 30
-2.802043 -9.708321 -0.9531917 22
-3.676835 -12.91387 -0.8586914 10
-3.787062 -9.830045 -0.733838 14
-4.909563 -9.903382 -0.8319846 29
-5.541337 -9.017996 -0.8613883 38
-4.828605 -17.40219 -0.7332123 17
-3.740679 -9.852288 -0.4895918 15
nan nan nan 0
-6.952228 -11.44024 -0.7766199 22
-7.506434 -26.68469 -0.4831699 27
-3.783316 -9.855899 -0.2441775 24
-9.185046 -18.61321 -0.603986 9
-10.31257 -16.85881 -0.6818569 9
-3.181726 -5.25142 -1.106444 24
-4.622967 -7.504565 -0.9873337 18
-19.27297 -31.32601 1.475646 16
-12.93237 -45.59078 2.755054 11
-26.46329 -42.49277 4.068435 49
-12.34305 -42.74436 5.457918 11
-5.99966 -9.638382 2.06215 50
-12.48414 -42.72929 11.91732 86
-12.90405 -45.76432 0.2736364 136
-3.801206 -9.83061 0 35
nan nan nan 0
-14.95294 -24.30652 -0.333263 10
-12.85444 -45.67975 1.398943 9
-3.788332 -9.8379 0.2438294 80
nan nan nan 0
-19.09638 -31.17266 0.4461649 34
nan nan nan 0
-0.1132614 -0.3911826 -0.09604306 50
-2.037687 -7.195161 -1.033507 30
nan nan nan 0
-3.717746 -12.88657 -0.8577312 12
-3.817735 -9.807469 -0.7331405 14
-4.93964 -9.877265 -0.8312313 31
-5.588537 -9.02401 -0.8638307 35
-4.885267 -17.3708 -0.7326025 20
-3.773259 -9.834507 -0.4893589 16
-6.699682 -13.5538 -0.7902729 17
-7.026034 -11.47123 -0.7803954 22
-7.540643 -26.45158 -0.4794176 25
-3.812276 -9.82865 -0.2438294 22
-9.263328 -18.60788 -0.6048602 9
-10.36874 -16.81846 -0.6816841 9
-3.200037 -5.240282 -1.106444 21
-4.651759 -7.492602 -0.9878927 18
nan nan nan 0
-13.09419 -45.55495 2.755635 11
