# .PCD v0.7 - Point Cloud Data file format
VERSION 0.7
FIELDS x y z intensity
SIZE 4 4 4 4
TYPE F F F F
COUNT 1 1 1 1
WIDTH 1497
HEIGHT 1
VIEWPOINT 0 0 0 1 0 0 0
POINTS 1497
DATA ascii
-3.854702 -0.4703728 -0.1120543 77
-3.845405 -0.121592 -0.1316379 17
-3.928701 -0.1383497 -0.7058044 9
-3.893714 -0.1095516 -0.4338454 10
-3.834898 -0.1119513 0.1525008 61
-72.96084 -22.81685 4.445669 18
-3.835936 -0.09141219 0.3088719 102
nan nan nan 0
-5.380101 -0.1249685 0.9736932 17
nan nan nan 0
-72.43172 -22.77621 0.4370926 10
-3.902107 -0.8325197 0 48
-3.862056 -0.4643925 -0.02015846 68
-3.827714 -0.1116896 -0.04431814 4
nan nan nan 0
-3.9048 -0.8387128 0.09179869 49
-3.870594 -0.4728495 0.0660191 48
-3.852474 -0.1196689 0.04660786 25
nan nan nan 0
-0.3248856 -0.09864145 -0.07835092 10
-9.35718 -2.931964 -1.356908 14
-13.0492 -3.966706 -1.287893 14
-17.93521 -5.522305 -1.201144 7
-3.914072 -0.825918 -0.2769332 83
-3.877654 -0.4520253 -0.2918914 90
-3.885464 -0.1005577 -0.3142683 58
-25.77184 -8.124892 -1.097887 15
-3.920147 -0.8470076 -0.1851691 46
-3.876217 -0.4701647 -0.2025401 105
-3.861302 -0.1192978 -0.2224723 59
nan nan nan 0
-3.901934 -0.8282184 -0.09168263 54
-3.856321 -0.4569145 -0.1120543 66
-3.850801 -0.1083017 -0.1318107 40
-3.919325 -0.1243364 -0.7040198 8
-3.894073 -0.09595931 -0.4338454 11
-3.835266 -0.09856429 0.1525008 69
nan nan nan 0
-3.841214 -0.07811565 0.3092773 105
nan nan nan 0
-5.380505 -0.1061877 0.9736932 17
nan nan nan 0
-72.42961 -22.49801 0.4366031 14
-3.89031 -0.8158084 0 54
-3.863654 -0.4509086 -0.02015846 38
-3.823082 -0.09820644 -0.04425967 3
-72.25394 -22.48487 2.231496 22
-3.888143 -0.8209373 0.09133447 60
-3.867256 -0.458749 0.06593358 28
-3.852868 -0.1062205 0.04660786 34
nan nan nan 0
nan nan nan 0
-9.372087 -2.900751 -1.357596 16
-13.06297 -3.921131 -1.287893 13
-17.95438 -5.459666 -1.201144 8
-3.892514 -0.8071759 -0.2751893 95
-3.874254 -0.4379295 -0.2915147 90
-3.885792 -0.08699425 -0.3142683 57
-25.80482 -8.036369 -1.098091 16
-3.91331 -0.8312383 -0.1847033 54
-3.877835 -0.4566312 -0.2025401 105
-3.861695 -0.1058187 -0.2224723 56
-37.18547 -11.434 -0.678375 21
-3.890123 -0.8115239 -0.09133447 59
-3.857892 -0.4434507 -0.1120543 49
-3.851155 -0.09485921 -0.1318107 36
-3.919735 -0.1106547 -0.7040198 8
-3.879481 -0.08207192 -0.4321681 9
-3.830592 -0.08507236 0.1523001 93
-73.08971 -22.2982 4.443927 11
-3.841464 -0.06470683 0.3092773 111
nan nan nan 0
-5.371006 -0.0872562 0.9719001 18
nan nan nan 0
-59.47289 -18.24498 0.3580715 30
-3.888237 -0.8012123 0 64
-3.860236 -0.4368593 -0.02013228 13
-3.813405 -0.08465313 -0.04414273 4
-59.43369 -18.26695 1.833357 43
-3.886091 -0.8063422 0.09121841 55
-3.868834 -0.445247 0.06593358 11
-3.848217 -0.09265741 0.04654677 46
nan nan nan 0
nan nan nan 0
-9.386891 -2.869469 -1.358284 14
-13.07181 -3.874093 -1.287422 13
-17.97333 -5.39696 -1.201144 9
-3.880646 -0.7905902 -0.2741429 98
-3.875759 -0.4244032 -0.2915147 91
-3.881089 -0.0733428 -0.3138612 56
-25.80884 -7.938896 -1.097074 16
-3.896633 -0.8134809 -0.1837716 64
-3.874444 -0.4425279 -0.2022785 103
-3.862041 -0.09233818 -0.2224723 60
nan nan nan 0
-3.883139 -0.7959279 -0.09110236 67
-3.859416 -0.4299814 -0.1120543 14
-3.851463 -0.08141559 -0.1318107 29
-3.890587 -0.09628126 -0.698666 7
-3.904584 -0.06893273 -0.4349635 7
-3.82587 -0.07161426 0.1520995 95
-72.46933 -21.83266 4.401524 8
-3.841666 -0.05129723 0.3092773 211
nan nan nan 0
-5.381114 -0.0686224 0.9736932 17
nan nan nan 0
-59.49314 -18.02421 0.3578123 27
-3.88121 -0.7856464 0 58
-3.861737 -0.4233818 -0.02013228 14
-3.84367 -0.07185965 -0.04449353 4
-59.44927 -18.04486 1.831882 88
-3.879087 -0.7907706 0.0909863 63
-3.865396 -0.4311874 0.06584806 12
-3.843518 -0.07912808 0.04648569 102
nan nan nan 0
-0.3351399 -0.09810627 -0.08087836 10
-9.401591 -2.838119 -1.358972 15
-13.08525 -3.82844 -1.287422 14
-18.03989 -5.348385 -1.204344 10
-3.883383 -0.7770393 -0.2741429 101
-3.872259 -0.4103488 -0.2911381 90
-3.881321 -0.05979483 -0.3138612 57
-25.7886 -7.834227 -1.095041 109
-3.889664 -0.7978622 -0.1833058 75
-3.875965 -0.4290009 -0.2022785 104
-3.857349 -0.07876163 -0.2221818 60
-36.18221 -10.84945 -0.6586537 10
-3.876094 -0.7803907 -0.09087025 68
-3.860894 -0.4165069 -0.1120543 6
-3.851723 -0.06797098 -0.1318107 32
-3.871225 -0.08230846 -0.6950969 9
-4.088625 -0.05764499 -0.4556494 14
-3.821101 -0.05819016 0.1518988 102
-73.36799 -21.82441 4.451478 15
-3.846805 -0.03792875 0.3096826 248
-3.940619 -1.146788 0.4990549 34
-5.38624 -0.04987874 0.9745898 17
nan nan nan 0
-59.5078 -17.8021 0.3575244 26
-3.874121 -0.7701393 0 57
-3.858219 -0.409374 -0.0201061 13
-3.863894 -0.05871803 -0.0447274 12
-59.45445 -17.82001 1.830113 94
-3.872022 -0.7752578 0.0907542 63
-3.861907 -0.4171574 0.06576254 12
-3.843771 -0.06571122 0.04648569 111
nan nan nan 0
nan nan nan 0
-9.416186 -2.806701 -1.35966 15
-13.09853 -3.78274 -1.287422 14
-18.09676 -5.296606 -1.206905 9
-3.881178 -0.7625154 -0.2737941 100
-3.873667 -0.3968296 -0.2911381 90
-3.881506 -0.04624613 -0.3138612 59
nan nan nan 0
-3.882634 -0.782302 -0.1828399 76
-3.872474 -0.4149389 -0.2020168 104
-3.8576 -0.06529649 -0.2221818 63
-37.6387 -11.14336 -0.6844833 30
-3.868988 -0.7649123 -0.09063815 71
-3.862324 -0.4030273 -0.1120543 6
-3.851937 -0.05452555 -0.1318107 30
-3.851812 -0.06847204 -0.6915277 8
-4.118613 -0.04364843 -0.4590039 15
-3.816286 -0.04480023 0.1516982 110
-71.55679 -21.01389 4.337047 16
-3.841931 -0.02447631 0.3092773 127
-4.087641 -1.174313 0.5173354 30
-5.376544 -0.03103059 0.9727966 17
nan nan nan 0
-59.50724 -17.57586 0.35715 28
-3.871879 -0.7556514 0 61
-3.859625 -0.3959038 -0.0201061 13
-3.884074 -0.0454361 -0.04496127 7
-59.49712 -17.60669 1.829523 91
-3.859992 -0.7588373 0.09040604 68
-3.858367 -0.4031569 0.06567702 12
-3.843977 -0.05229355 0.04648569 74
nan nan nan 0
nan nan nan 0
-9.430676 -2.775216 -1.360348 15
-13.11166 -3.736995 -1.287422 14
-18.15349 -5.244494 -1.209465 9
-3.874021 -0.7470697 -0.2730966 101
-3.870067 -0.3828173 -0.2907615 93
-3.876661 -0.03266206 -0.3134541 61
-26.07257 -7.722146 -1.104799 128
-3.880442 -0.7677724 -0.182607 65
-3.868932 -0.4009065 -0.2017551 104
-3.852814 -0.05177044 -0.2218914 58
nan nan nan 0
-3.861821 -0.7494931 -0.09040604 74
-3.863708 -0.3895428 -0.1120543 7
-3.852104 -0.04107944 -0.1318107 17
-3.83727 -0.05483566 -0.6888508 11
-4.11874 -0.02927153 -0.4590039 11
-3.811422 -0.03144463 0.1514975 109
-71.52422 -20.7334 4.330657 11
-3.841993 -0.01106532 0.3092773 106
-4.139444 -1.173633 0.5234288 18
-16.22291 -0.02551401 2.94977 36
nan nan nan 0
-59.52983 -17.35683 0.3569196 33
-3.859762 -0.7393026 0 70
-3.860983 -0.3824288 -0.0201061 13
-3.86921 -0.03177578 -0.04478587 8
-59.50065 -17.38208 1.827754 99
-3.857709 -0.7444093 0.09028999 65
-3.859751 -0.3896862 0.06567702 13
-3.849136 -0.03891888 0.04654677 34
nan nan nan 0
nan nan nan 0
-9.445061 -2.743664 -1.361036 15
-13.11983 -3.689855 -1.28695 15
-18.21007 -5.19205 -1.212025 9
-3.871705 -0.7326128 -0.2727478 103
-3.87138 -0.3693059 -0.2907615 91
-3.876751 -0.01912979 -0.3134541 59
nan nan nan 0
-3.873294 -0.7523131 -0.1821412 76
-3.870308 -0.387399 -0.2017551 101
-3.847979 -0.03827861 -0.2216009 60
-37.96535 -10.95242 -0.689021 29
-3.854594 -0.7341332 -0.09017393 74
-3.860069 -0.375572 -0.1119086 7
-3.852224 -0.02763284 -0.1318107 9
-3.81284 -0.04120892 -0.6843894 11
-4.118817 -0.01489426 -0.4590039 10
-3.811509 -0.01814009 0.1514975 105
-71.66814 -20.5042 4.335014 11
-3.837024 0.002335366 0.3088719 101
-4.224734 -1.182006 0.5337877 4
-16.21306 0.03109234 2.947977 37
nan nan nan 0
-59.54201 -17.13509 0.3566316 19
-3.872147 -0.7276766 0 67
-3.862295 -0.3689491 -0.0201061 13
-3.864297 -0.01825295 -0.0447274 8
-59.49854 -17.15627 1.825837 94
-3.884839 -0.7356007 0.09087025 61
-3.856111 -0.3757281 0.06559151 14
-3.854248 -0.02550882 0.04660786 16
nan nan nan 0
-0.3271987 -0.09067434 -0.07835092 10
-9.45934 -2.712046 -1.361724 15
-13.12784 -3.642703 -1.286479 14
-18.22328 -5.127102 -1.211705 9
-3.864431 -0.7172688 -0.2720502 103
-3.872645 -0.35579 -0.2907615 91
-3.876795 -0.005597288 -0.3134541 63
nan nan nan 0
-3.870991 -0.7378506 -0.1819083 94
-3.866666 -0.373409 -0.2014934 98
-3.848089 -0.02484642 -0.2216009 62
nan nan nan 0
-3.857133 -0.7206737 -0.09017393 75
-3.861356 -0.3620955 -0.1119086 8
-3.852297 -0.0141859 -0.1318107 8
-3.8228 -0.02795777 -0.686174 8
-4.118844 -0.0005168165 -0.4590039 8
-3.811549 -0.004835327 0.1514975 106
-71.54713 -20.19965 4.323397 14
-3.836993 0.01572907 0.3088719 100
nan nan nan 0
-16.20794 0.08765798 2.947081 37
-4.129328 -1.125818 1.136216 28
-62.11206 -17.64042 0.3716641 11
-3.884496 -0.7159731 0 57
-3.868538 -0.3559208 -0.02013228 14
-3.859338 -0.004764793 -0.04466894 12
nan nan nan 0
-3.916868 -0.7275269 0.09156658 58
-3.857399 -0.3622655 0.06559151 13
-3.854313 -0.01205483 0.04660786 16
nan nan nan 0
-0.3182253 -0.08682097 -0.07582346 10
-9.473514 -2.680361 -1.362412 14
-13.14047 -3.596856 -1.286479 14
-18.29395 -5.078155 -1.215226 9
-3.862005 -0.7028798 -0.2717015 105
-3.868897 -0.3418335 -0.2903849 90
-3.876791 0.007935286 -0.3134541 64
nan nan nan 0
-3.868633 -0.7234133 -0.1816753 84
-3.867946 -0.3599096 -0.2014934 99
-3.843161 -0.01140609 -0.2213105 62
nan nan nan 0
-3.879291 -0.7108182 -0.09063815 73
-3.862597 -0.3486147 -0.1119086 9
-3.847326 -0.0007448909 -0.1316379 6
-3.827794 -0.01462556 -0.6870663 8
-4.118821 0.01386064 -0.4590039 11
-3.816539 0.008487803 0.1516982 103
-62.26491 -17.34385 3.758503 10
-3.836915 0.02912258 0.3088719 99
nan nan nan 0
-16.20261 0.1441882 2.946184 35
-4.165869 -1.120215 1.145274 28
-62.03846 -17.38571 0.3708577 122
-3.896812 -0.7041922 0 45
-3.869757 -0.3424149 -0.02013228 14
-3.854331 0.008688515 -0.04461047 8
-62.167 -17.45681 1.90399 50
-3.899715 -0.7102578 0.09110236 48
-3.86362 -0.3492463 0.06567702 14
-3.854332 0.001399303 0.04660786 41
nan nan nan 0
-0.3324723 -0.08972699 -0.07961464 9
-9.478044 -2.645941 -1.361724 15
-13.14814 -3.549666 -1.286007 13
-18.30194 -5.011627 -1.214586 10
-3.864434 -0.6893947 -0.2717015 101
-3.870067 -0.3283265 -0.2903849 95
-3.876739 0.02146776 -0.3134541 65
nan nan nan 0
-3.876047 -0.7108083 -0.1819083 79
-3.869179 -0.3464057 -0.2014934 95
-3.848169 0.002018699 -0.2216009 66
-38.74757 -10.73995 -0.7011504 36
-3.886668 -0.6981587 -0.0907542 69
-3.86379 -0.3351296 -0.1119086 9
-3.847306 0.01268479 -0.1316379 6
-3.832741 -0.001258822 -0.6879585 8
-4.118747 0.02823792 -0.4590039 10
-51.66168 0.3641888 2.073409 149
nan nan nan 0
-3.836789 0.04251573 0.3088719 98
nan nan nan 0
-16.19709 0.2006823 2.945287 29
nan nan nan 0
-62.11804 -17.17438 0.3709729 135
-3.899246 -0.6905855 0 57
-3.870929 -0.3289048 -0.02013228 15
-3.859277 0.02217837 -0.04466894 6
-63.49907 -17.59208 1.942919 32
-3.897249 -0.69576 0.0909863 68
-3.859834 -0.3353272 0.06559151 14
-3.854304 0.01485342 0.04660786 28
nan nan nan 0
-0.3234769 -0.08592013 -0.07708719 10
-9.477674 -2.610206 -1.360348 14
-13.17007 -3.506314 -1.28695 12
-18.32413 -4.949013 -1.214906 9
-3.871731 -0.676762 -0.2720502 101
-3.871189 -0.3148155 -0.2903849 95
-3.876641 0.03499998 -0.3134541 67
nan nan nan 0
-3.88342 -0.6981602 -0.1821412 83
-3.870365 -0.3328976 -0.2014934 95
-3.848139 0.0154513 -0.2216009 56
-38.51962 -10.53208 -0.6963509 31
-3.898926 -0.6863251 -0.0909863 56
-3.864937 -0.3216404 -0.1119086 9
-3.847238 0.02611431 -0.1316379 7
-3.832722 0.01211995 -0.6879585 6
-4.123592 0.04267296 -0.459563 11
-51.6601 0.5445195 2.073409 152
-60.06719 -16.28045 3.618804 7
-3.836618 0.05590836 0.3088719 97
nan nan nan 0
-16.19137 0.2571397 2.944391 27
nan nan nan 0
nan nan nan 0
-3.896707 -0.6761133 0 60
-3.872053 -0.3153907 -0.02013228 15
-3.864176 0.03570285 -0.0447274 10
nan nan nan 0
-3.894731 -0.6812882 0.09087025 61
-3.865964 -0.3222649 0.06567702 15
-3.854228 0.02830736 0.04660786 24
nan nan nan 0
nan nan nan 0
-9.48195 -2.575805 -1.35966 15
-13.19667 -3.464117 -1.288364 13
-18.3413 -4.88502 -1.214906 9
-3.874069 -0.663243 -0.2720502 97
-3.867293 -0.3009163 -0.2900082 81
-3.876495 0.04853176 -0.3134541 66
-26.28158 -7.18894 -1.107035 13
-3.890752 -0.6854693 -0.1823741 71
-3.871503 -0.3193856 -0.2014934 97
-3.848061 0.02888372 -0.2216009 60
nan nan nan 0
-3.901298 -0.6727111 -0.0909863 70
-3.861053 -0.3077525 -0.1117629 10
-3.847123 0.03954352 -0.1316379 7
-3.827737 0.02545907 -0.6870663 7
-4.123418 0.05706672 -0.459563 10
-3.831227 0.04866519 0.1523001 84
-72.64677 -19.41921 4.373061 15
-3.836399 0.06930032 0.3088719 97
nan nan nan 0
-16.18546 0.3135595 2.943494 17
nan nan nan 0
nan nan nan 0
-3.894114 -0.6616672 0 61
-3.868146 -0.3014866 -0.0201061 16
-3.864027 0.04919112 -0.0447274 6
nan nan nan 0
-3.887232 -0.6659958 0.09063815 65
-3.867065 -0.3087682 0.06567702 16
-3.854106 0.04176096 0.04660786 14
nan nan nan 0
-0.3333937 -0.0862405 -0.07961464 9
-9.481316 -2.540123 -1.358284 16
-13.21832 -3.420529 -1.289307 12
-18.36789 -4.823505 -1.215546 10
-3.88128 -0.6505426 -0.272399 106
-3.86832 -0.2874151 -0.2900082 90
-3.876302 0.06206296 -0.3134541 64
-26.35475 -7.110179 -1.109067 15
-3.898042 -0.6727356 -0.182607 79
-3.872595 -0.3058695 -0.2014934 80
-3.852928 0.04237764 -0.2218914 59
-39.23958 -10.43516 -0.7080441 37
-3.898694 -0.6582545 -0.09087025 71
-3.862104 -0.2942731 -0.1117629 10
-3.846962 0.05297225 -0.1316379 8
-3.827625 0.03882021 -0.6870663 7
-4.128161 0.07155256 -0.4601221 10
-3.841024 0.0622145 0.1527015 76
-75.25292 -19.83487 4.525829 7
-3.836134 0.08269142 0.3088719 97
nan nan nan 0
-16.17935 0.3699412 2.942598 36
nan nan nan 0
nan nan nan 0
-3.891469 -0.6472476 0 64
-3.869174 -0.2879824 -0.0201061 17
-3.868831 0.06276693 -0.04478587 11
-73.3205 -19.48955 2.237247 10
-3.884604 -0.6515934 0.0905221 72
-3.868119 -0.2952678 0.06567702 16
-3.853937 0.05521405 0.04660786 6
nan nan nan 0
-0.3243589 -0.08252804 -0.07708719 9
-9.48055 -2.504476 -1.356908 17
-13.25912 -3.381759 -1.292136 12
-18.38944 -4.760611 -1.215866 9
-3.883527 -0.6369904 -0.272399 105
-3.8693 -0.2739104 -0.2900082 95
-3.876062 0.0755934 -0.3134541 67
-26.39872 -7.023282 -1.10988 14
-3.895442 -0.6582902 -0.1823741 93
-3.873639 -0.2923498 -0.2014934 85
-3.852757 0.05582662 -0.2218914 56
-39.52238 -10.36282 -0.7124945 33
-3.896037 -0.6438243 -0.0907542 70
-3.863108 -0.2807901 -0.1117629 11
-3.846754 0.06640033 -0.1316379 8
-3.822547 0.05210704 -0.686174 7
-4.127886 0.0859621 -0.4601221 9
-3.840784 0.0756218 0.1527015 72
-72.61632 -18.86888 4.363186 14
-3.835822 0.09608153 0.3088719 97
nan nan nan 0
-16.17304 0.4262841 2.941701 38
nan nan nan 0
-73.53042 -19.22972 0.4375246 8
-3.883835 -0.632049 0 74
-3.865168 -0.2741233 -0.02007992 17
-3.868588 0.07627129 -0.04478587 7
-73.5186 -19.26772 2.241228 9
-3.881923 -0.6372176 0.09040604 74
-3.86414 -0.2814028 0.06559151 17
-3.85372 0.06866645 0.04660786 5
nan nan nan 0
-0.324645 -0.08139531 -0.07708719 10
-9.47965 -2.468866 -1.355532 16
-13.2998 -3.342747 -1.294964 12
-18.41562 -4.698861 -1.216506 10
-3.885727 -0.6234306 -0.272399 105
-3.870233 -0.2604023 -0.2900082 86
-3.880756 0.08924468 -0.3138612 67
-26.51488 -6.955194 -1.113743 13
-3.897717 -0.6446885 -0.1823741 90
-3.869655 -0.2784704 -0.2012317 90
-3.852539 0.06927491 -0.2218914 62
-39.90195 -10.31367 -0.7186901 29
-3.893326 -0.6294206 -0.09063815 78
-3.864064 -0.2673036 -0.1117629 13
-3.846498 0.07982759 -0.1316379 7
-3.82726 0.06554091 -0.6870663 8
-4.127561 0.1003706 -0.4601221 9
-3.845491 0.08915111 0.1529021 55
-72.18369 -18.48769 4.333272 19
-3.840444 0.10962 0.3092773 96
nan nan nan 0
-16.17146 0.482736 2.941701 23
nan nan nan 0
-73.09842 -18.84434 0.4345584 9
-3.88108 -0.6176998 0 68
-3.866102 -0.2606297 -0.02007992 17
-3.868299 0.08977471 -0.04478587 6
-73.67251 -19.03348 2.243883 8
-3.879188 -0.6228684 0.09028999 77
-3.865099 -0.2679127 0.06559151 16
-3.853457 0.08211803 0.04660786 9
nan nan nan 0
-0.3296028 -0.08150307 -0.07835092 10
-9.47862 -2.433293 -1.354155 17
-13.33555 -3.302293 -1.297321 12
-18.41255 -4.629678 -1.215226 10
-3.887879 -0.609863 -0.272399 107
-3.871118 -0.2468911 -0.2900082 95
-3.880421 0.1027905 -0.3138612 69
-26.57285 -6.87136 -1.115166 14
-3.895013 -0.6302788 -0.1821412 85
-3.870604 -0.264961 -0.2012317 85
-3.852273 0.08272235 -0.2218914 59
-40.4173 -10.29657 -0.727329 21
-3.890563 -0.6150437 -0.0905221 75
-3.864974 -0.2538138 -0.1117629 13
-3.846196 0.0932539 -0.1316379 7
-3.827008 0.07890014 -0.6870663 9
-4.132152 0.1149227 -0.4606812 8
-3.845156 0.1025738 0.1529021 47
-71.96225 -18.16351 4.316136 17
-3.840038 0.123025 0.3092773 97
nan nan nan 0
-16.16476 0.5390162 2.940804 36
nan nan nan 0
-73.07652 -18.5669 0.4340401 9
-3.878272 -0.6033776 0 73
-3.861998 -0.2468164 -0.02005374 18
-3.867962 0.103277 -0.04478587 8
-73.81115 -18.7947 2.246094 8
-3.876401 -0.6085461 0.09017393 67
-3.86601 -0.2544194 0.06559151 16
-3.853147 0.0955686 0.04660786 27
nan nan nan 0
-0.3205254 -0.07790175 -0.07582346 9
-9.477454 -2.397757 -1.352779 17
-13.37601 -3.262812 -1.30015 12
-18.41407 -4.561774 -1.214266 10
-3.885055 -0.5955302 -0.2720502 106
-3.871956 -0.2333769 -0.2900082 93
-3.880038 0.1163351 -0.3138612 71
-26.64993 -6.792144 -1.117402 16
-3.892256 -0.6158958 -0.1819083 90
-3.871505 -0.2514485 -0.2012317 92
-3.856951 0.09630032 -0.2221818 59
-40.59361 -10.19074 -0.7298596 10
-3.887746 -0.6006938 -0.09040604 74
-3.865836 -0.240321 -0.1117629 15
-3.845847 0.1066791 -0.1316379 7
-3.831628 0.09238378 -0.6879585 8
-4.131725 0.1293458 -0.4606812 10
-3.844775 0.1159953 0.1529021 48
-72.03006 -17.91341 4.316426 13
-3.839585 0.1364285 0.3092773 97
nan nan nan 0
-16.16278 0.5954385 2.940804 24
nan nan nan 0
-73.04389 -18.28741 0.4334641 7
-3.875412 -0.5890825 0 70
-3.862836 -0.233334 -0.02005374 19
-3.867578 0.1167781 -0.04478587 8
-74.23017 -18.62576 2.256859 7
-3.873561 -0.5942508 0.09005788 73
-3.866875 -0.2409229 0.06559151 17
-3.85279 0.109018 0.04660786 27
nan nan nan 0
-0.3395322 -0.08161764 -0.08087836 10
-9.476156 -2.362258 -1.351403 18
-13.41635 -3.223089 -1.302978 12
-18.4105 -4.492732 -1.212986 11
-3.887109 -0.5819651 -0.2720502 105
-3.872747 -0.2198598 -0.2900082 91
-3.884589 0.1300521 -0.3142683 70
-26.72677 -6.712473 -1.119638 13
-3.894383 -0.6023055 -0.1819083 94
-3.872359 -0.2379329 -0.2012317 92
-3.856591 0.109763 -0.2221818 54
-40.9104 -10.11864 -0.7349208 8
-3.884877 -0.5863709 -0.09028999 76
-3.866652 -0.2268252 -0.1117629 14
-3.845451 0.1201029 -0.1316379 7
-3.8362 0.1059006 -0.6888508 8
-4.131249 0.1437675 -0.4606812 9
-3.844346 0.1294154 0.1529021 47
-72.85815 -17.84959 4.362315 14
-3.839086 0.1498303 0.3092773 97
nan nan nan 0
-16.1606 0.6518536 2.940804 26
nan nan nan 0
-73.01505 -18.00957 0.4329169 11
-3.872499 -0.5748147 0 73
-3.863627 -0.2198487 -0.02005374 20
-3.867146 0.1302778 -0.04478587 7
nan nan nan 0
-3.875612 -0.5807258 0.09005788 85
-3.867692 -0.2274235 0.06559151 17
-3.852386 0.1224661 0.04660786 26
nan nan nan 0
nan nan nan 0
-9.484344 -2.329166 -1.351403 18
-13.4469 -3.180828 -1.304864 13
-18.41151 -4.424937 -1.212025 10
-3.884182 -0.5676696 -0.2717015 106
-3.868512 -0.2060774 -0.2896316 84
-3.884111 0.1436111 -0.3142683 72
-26.70639 -6.60833 -1.117808 14
-3.891523 -0.5879593 -0.1816753 93
-3.873166 -0.2244144 -0.2012317 91
-3.856184 0.1232243 -0.2221818 55
-41.52831 -10.11786 -0.7453923 10
-3.881955 -0.5720756 -0.09017393 80
-3.86742 -0.2133267 -0.1117629 16
-3.845009 0.1335253 -0.1316379 7
-3.835807 0.1192908 -0.6888508 7
-4.130722 0.1581873 -0.4606812 11
-3.843871 0.1428339 0.1529021 49
-72.87634 -17.58462 4.359701 11
-3.838539 0.1632303 0.3092773 97
nan nan nan 0
-16.15822 0.7082605 2.940804 34
-3.633296 -0.8414958 0.9886887 19
-73.07747 -17.75459 0.4329169 12
-3.874482 -0.5612937 0 74
-3.864371 -0.2063608 -0.02005374 23
-3.861672 0.143583 -0.0447274 7
-75.65491 -18.4229 2.296231 8
-3.87267 -0.5664681 0.08994183 78
-3.868463 -0.2139214 0.06559151 20
-3.851935 0.1359127 0.04660786 7
nan nan nan 0
-0.3354012 -0.07806922 -0.07961464 9
-9.49723 -2.297212 -1.352091 20
-13.49185 -3.141785 -1.308164 11
-18.40742 -4.35604 -1.210745 9
-3.88614 -0.5541078 -0.2717015 106
-3.869208 -0.1925725 -0.2896316 86
-3.883586 0.1571683 -0.3142683 69
-26.74386 -6.51862 -1.118418 14
-3.888611 -0.5736405 -0.1814424 85
-3.873926 -0.2108932 -0.2012317 69
-3.855731 0.1366842 -0.2221818 53
-42.26823 -10.14206 -0.7580452 9
-3.878981 -0.5578078 -0.09005788 74
-3.86315 -0.1995702 -0.1116172 17
-3.844519 0.1469461 -0.1316379 6
-3.840283 0.1328564 -0.6897431 7
-4.135109 0.1728195 -0.4612403 8
-3.838358 0.1560405 0.1527015 49
-62.02524 -14.73655 3.707096 7
-3.837946 0.1766283 0.3092773 96
nan nan nan 0
-16.15565 0.7646589 2.940804 34
-3.504405 -0.7985721 0.952454 40
-60.81721 -14.55029 0.3599434 26
-3.871467 -0.5470639 0 75
-3.860074 -0.1926235 -0.02002756 25
-3.856153 0.1568517 -0.04466894 6
-77.47806 -18.58075 2.349611 23
-3.874624 -0.5529464 0.08994183 80
-3.869186 -0.2004166 0.06559151 21
-3.856433 0.1495583 0.04666894 4
nan nan nan 0
-0.3309751 -0.0757383 -0.07835092 10
-9.505191 -2.264046 -1.352091 18
-13.49303 -3.092443 -1.307221 12
-18.4371 -4.295161 -1.211705 9
-3.883111 -0.5398502 -0.2713526 106
-3.869857 -0.1790653 -0.2896316 75
-3.883014 0.1707236 -0.3142683 71
-26.74702 -6.420558 -1.117605 12
-3.885647 -0.5593491 -0.1812095 86
-3.874638 -0.1973694 -0.2012317 83
-3.850243 0.1499412 -0.2218914 56
-43.00882 -10.16121 -0.7706982 8
-3.875955 -0.5435677 -0.08994183 84
-3.863823 -0.186084 -0.1116172 18
-3.848975 0.1605804 -0.1318107 7
-3.839796 0.1462606 -0.6897431 7
-4.13448 0.1872526 -0.4612403 10
-3.83779 0.1694379 0.1527015 34
-74.77618 -17.49167 4.466 8
-3.842283 0.1902781 0.3096826 96
nan nan nan 0
-16.15289 0.8210481 2.940804 25
-3.756859 -0.8426958 1.021041 10
-60.7995 -14.32185 0.3595402 16
-3.873353 -0.5335466 0 78
-3.860723 -0.1791482 -0.02002756 26
-3.845592 0.1698559 -0.044552 6
-77.44515 -18.28721 2.346662 15
-3.871579 -0.5387267 0.08982577 78
-3.864868 -0.1866704 0.06550599 23
-3.855887 0.1630188 0.04666894 5
nan nan nan 0
nan nan nan 0
-9.522678 -2.23312 -1.353467 21
nan nan nan 0
-18.43739 -4.227428 -1.210745 10
-3.884971 -0.5262924 -0.2713526 107
-3.870458 -0.1655559 -0.2896316 84
-3.882394 0.1842768 -0.3142683 73
-26.7401 -6.320253 -1.116385 14
-3.88263 -0.5450854 -0.1809766 97
-3.875304 -0.1838431 -0.2012317 83
-3.849696 0.1633801 -0.2218914 53
-43.84744 -10.19798 -0.7850965 9
-3.872876 -0.5293555 -0.08982577 84
-3.859456 -0.172375 -0.1114715 26
-3.848391 0.1740149 -0.1318107 7
-3.844178 0.1598743 -0.6906354 8
-4.133802 0.2016835 -0.4612403 10
-3.837175 0.1828333 0.1527015 37
-61.94664 -14.26172 3.69635 13
-3.841596 0.203689 0.3096826 96
nan nan nan 0
-16.15483 0.8776957 2.941701 26
-3.835215 -0.8463283 1.041747 6
-60.7858 -14.09485 0.3591658 12
-3.870237 -0.5193555 0 67
-3.861324 -0.1656706 -0.02002756 30
-3.839982 0.1830333 -0.04449353 13
-61.91158 -14.39011 1.874203 9
-3.873436 -0.5252092 0.08982577 71
-3.865496 -0.1731784 0.06550599 25
-3.860289 0.1767129 0.04673003 3
nan nan nan 0
-0.3362003 -0.07455269 -0.07961464 11
-9.530416 -2.199867 -1.353467 17
-4.617151 -1.020832 -0.4440686 9
-18.47637 -4.16854 -1.212345 8
-3.88184 -0.5120736 -0.2710039 105
-3.86603 -0.1518513 -0.2892549 84
-3.881727 0.1978278 -0.3142683 74
-26.81552 -6.239339 -1.118621 15
-3.879561 -0.5308496 -0.1807437 93
-3.870933 -0.1700978 -0.2009701 95
-3.849102 0.1768171 -0.2218914 55
-44.41881 -10.16763 -0.7946953 8
-3.8747 -0.5158334 -0.08982577 86
-3.85504 -0.1586988 -0.1113258 34
-3.84776 0.1874472 -0.1318107 7
-3.848511 0.1735204 -0.6915277 8
-4.138034 0.216378 -0.4617994 8
-3.836513 0.1962264 0.1527015 41
-61.97656 -14.04099 3.695189 12
-3.840862 0.2170974 0.3096826 96
nan nan nan 0
-16.15658 0.934367 2.942598 20
nan nan nan 0
-60.78588 -13.87145 0.3588779 11
-3.872026 -0.5058427 0 70
-3.856883 -0.1519966 -0.02000138 32
-3.834327 0.1961737 -0.04443507 9
-77.49299 -17.72826 2.344302 10
-3.870291 -0.5110284 0.08970972 74
-3.861082 -0.1594801 0.06542047 31
-3.859648 0.1901868 0.04673003 5
nan nan nan 0
nan nan nan 0
nan nan nan 0
-4.601235 -1.000458 -0.4421829 16
nan nan nan 0
-3.883604 -0.4985204 -0.2710039 106
-3.866537 -0.1383554 -0.2892549 90
-3.881013 0.2113763 -0.3142683 77
nan nan nan 0
-3.87644 -0.5166419 -0.1805108 96
-3.866514 -0.1563851 -0.2007084 72
-3.853446 0.1905053 -0.2221818 56
nan nan nan 0
-3.871521 -0.5016603 -0.08970972 84
-3.850576 -0.1450554 -0.1111801 35
-3.847082 0.2008772 -0.1318107 7
-3.847882 0.1869531 -0.6915277 8
-4.137254 0.2308211 -0.4617994 9
-3.835805 0.2096172 0.1527015 36
-62.3711 -13.90169 3.715809 12
-3.84008 0.2305032 0.3096826 96
-3.841307 -0.8321087 0.4777278 31
-16.15813 0.9910612 2.943494 26
nan nan nan 0
nan nan nan 0
-3.868808 -0.491691 0 78
-3.85739 -0.1385326 -0.02000138 35
-3.838611 0.2098368 -0.04449353 6
nan nan nan 0
-3.867094 -0.4968759 0.08959366 87
-3.861615 -0.1460015 0.06542047 34
-3.858961 0.2036583 0.04673003 29
nan nan nan 0
nan nan nan 0
-3.944569 -0.8782333 -0.5559744 5
-4.599832 -0.9833442 -0.4417115 18
-3.866439 -0.8396944 -0.2512384 96
-3.880371 -0.4843411 -0.2706551 108
-3.866996 -0.1248578 -0.2892549 84
-3.885227 0.2252178 -0.3146754 76
nan nan nan 0
-3.873266 -0.5024624 -0.1802779 93
-3.862047 -0.1427054 -0.2004467 46
-3.857743 0.204226 -0.2224723 60
nan nan nan 0
-3.873248 -0.4881431 -0.08970972 84
-3.841069 -0.1312769 -0.1108886 49
-3.846358 0.2143048 -0.1318107 8
-3.852118 0.2006462 -0.69242 9
-4.141382 0.2455622 -0.4623584 10
-3.83505 0.2230053 0.1527015 32
nan nan nan 0
-3.839252 0.2439062 0.3096826 98
nan nan nan 0
-16.16439 1.048098 2.945287 24
nan nan nan 0
nan nan nan 0
-3.870501 -0.4781834 0 75
-3.852853 -0.1249073 -0.0199752 40
-3.842846 0.2235322 -0.044552 7
-3.865416 -0.850473 0.1156078 42
-3.868804 -0.4833742 0.08959366 78
-3.862102 -0.132521 0.06542047 32
-3.858227 0.2171273 0.04673003 44
nan nan nan 0
-0.3463948 -0.07318306 -0.08214208 10
-3.976628 -0.8708547 -0.5601029 11
-4.603237 -0.9672819 -0.4417115 15
-3.893738 -0.8314354 -0.2528387 112
-3.882038 -0.4707931 -0.2706551 103
-3.867409 -0.1113587 -0.2892549 90
-3.884417 0.2387785 -0.3146754 75
-3.858741 -0.8504212 -0.1591642 133
-3.874997 -0.4889391 -0.1802779 98
-3.857531 -0.1290588 -0.200185 44
-3.857006 0.2176908 -0.2224723 50
-3.869287 -0.8380184 -0.06841343 49
-3.874928 -0.47462 -0.08970972 69
-3.846499 -0.1180191 -0.1110343 65
-3.840599 0.2274274 -0.1316379 7
-3.856306 0.2143712 -0.6933123 8
-4.135541 0.2596988 -0.4617994 9
-3.834248 0.2363908 0.1527015 30
-3.914085 -0.8385044 0.2306044 37
-3.838377 0.2573062 0.3096826 96
-3.924721 -0.8216448 0.4874774 45
-16.16554 1.104853 2.946184 24
nan nan nan 0
-3.885056 -0.8385316 0.02266385 89
-3.872147 -0.4646699 0 47
-3.853266 -0.1114575 -0.0199752 42
-3.842042 0.2369448 -0.044552 6
-3.892777 -0.8422941 0.1163451 62
-3.865506 -0.4692618 0.08947761 40
-3.857543 -0.1188872 0.06533496 32
-3.857445 0.2305937 0.04673003 32
nan nan nan 0
-0.3277688 -0.0677292 -0.07708719 10
-3.989324 -0.8590667 -0.5614791 12
-4.596837 -0.9491836 -0.4407686 17
-3.857561 -0.8095869 -0.2502783 114
-3.883658 -0.4572394 -0.2706551 107
-3.867774 -0.09785828 -0.2892549 91
-3.888532 0.2526664 -0.3150825 72
-3.886091 -0.8422722 -0.1601806 156
-3.87668 -0.4754099 -0.1802779 97
-3.852967 -0.1154455 -0.1999234 44
-3.85124 0.2308473 -0.2221818 55
-3.89663 -0.8297466 -0.06884974 71
-3.871598 -0.4604984 -0.08959366 75
-3.846888 -0.1045916 -0.1110343 40
-3.844768 0.241152 -0.1318107 8
-3.860445 0.2281278 -0.6942046 8
-4.124695 0.2734622 -0.4606812 9
-3.833399 0.2497734 0.1527015 21
-3.95117 -0.8320833 0.2326374 44
-3.837456 0.270703 0.3096826 97
-3.922705 -0.8069335 0.486868 61
-16.16649 1.161628 2.947081 31
-4.0103 -0.8120595 1.085746 36
-3.87818 -0.8228757 0.02260625 95
-3.873745 -0.4511507 0 28
-3.853631 -0.09800646 -0.0199752 48
-3.84618 0.2506868 -0.04461047 8
-3.876146 -0.8245136 0.1157553 84
-3.867121 -0.4557658 0.08947761 16
-3.862932 -0.1055554 0.06542047 38
-3.856617 0.2440573 0.04673003 11
nan nan nan 0
-0.3421738 -0.06971842 -0.08087836 10
nan nan nan 0
-4.580614 -0.929152 -0.438883 17
-3.850592 -0.7940878 -0.2496382 117
-3.880275 -0.443112 -0.2703063 105
-3.873077 -0.08446279 -0.2896316 81
-3.887626 0.2662383 -0.3150825 71
-3.884123 -0.8276541 -0.1599773 164
-3.873357 -0.4612818 -0.1800449 93
-3.853347 -0.1019954 -0.1999234 41
-3.850411 0.2442892 -0.2221818 54
-3.870152 -0.8099546 -0.06832617 78
-3.873182 -0.4469811 -0.08959366 43
-3.84723 -0.09116285 -0.1110343 42
-3.848888 0.2549086 -0.1319834 7
-3.869445 0.24223 -0.6959891 8
-4.10389 0.2864478 -0.4584448 8
-3.832504 0.2631529 0.1527015 14
-3.934503 -0.8142132 0.2314757 49
-3.841457 0.284472 0.3100879 97
-3.925497 -0.7932358 0.486868 76
-16.16724 1.218424 2.947977 29
-4.017846 -0.799004 1.08704 62
-3.866349 -0.8062506 0.02251986 98
-3.870328 -0.4370627 0 17
-3.858948 -0.08466151 -0.02000138 97
-3.850269 0.2644607 -0.04466894 7
-3.869219 -0.8089188 0.1154604 86
-3.863722 -0.4416941 0.08936156 15
-3.868276 -0.09218757 0.06550599 42
-3.860729 0.257858 0.04679111 8
nan nan nan 0
-0.3329608 -0.0664674 -0.07835092 9
-4.043696 -0.8413481 -0.56836 7
-4.574068 -0.9112013 -0.4379402 14
-3.843562 -0.7786471 -0.2489981 119
-3.881798 -0.4295646 -0.2703063 106
-3.873348 -0.07094272 -0.2896316 90
-3.886673 0.2798071 -0.3150825 76
-3.872323 -0.8109977 -0.1593675 168
-3.874943 -0.4477584 -0.1800449 84
-3.858671 -0.08865651 -0.200185 44
-3.844555 0.2573878 -0.2218914 61
-3.872956 -0.7964403 -0.06832617 80
-3.869751 -0.4329005 -0.08947761 20
-3.847524 -0.07773296 -0.1110343 50
-3.852959 0.2686968 -0.1321562 7
-3.873484 0.2560666 -0.6968815 8
-4.078092 0.2989216 -0.4556494 5
-3.831563 0.2765293 0.1527015 13
-3.922651 -0.797471 0.2306044 63
-3.840441 0.2978794 0.3100879 96
-3.899044 -0.7736938 0.4832119 96
-16.18251 1.276405 2.951564 29
-4.02535 -0.7859057 1.088334 97
-3.869139 -0.7927496 0.02251986 99
-3.87183 -0.4235501 0 16
-3.859221 -0.07119074 -0.02000138 121
-3.854309 0.278266 -0.0447274 6
-3.857337 -0.7923698 0.115018 88
-3.86524 -0.4282044 0.08936156 15
-3.873572 -0.07878365 0.06559151 96
-3.859806 0.2713329 0.04679111 3
nan nan nan 0
-0.3331907 -0.06530474 -0.07835092 10
-4.027205 -0.8232343 -0.5656076 13
-4.010665 -0.7837673 -0.3832566 7
-3.836472 -0.7632653 -0.248358 119
-3.878315 -0.4154785 -0.2699575 106
-3.873572 -0.05742178 -0.2896316 93
-3.885673 0.2933724 -0.3150825 69
-3.870239 -0.796462 -0.1591642 167
-3.871519 -0.4336711 -0.179812 86
-3.863949 -0.07528167 -0.2004467 43
-3.853591 0.2715218 -0.2224723 50
-3.861015 -0.7799262 -0.06806438 86
-3.871239 -0.4193899 -0.08947761 15
-3.85277 -0.06438324 -0.1111801 44
-3.856982 0.2825166 -0.132329 7
-3.877474 0.2699343 -0.6977738 8
-4.067116 0.3123805 -0.4545313 7
-3.835555 0.2902864 0.1529021 16
-3.91073 -0.7808213 0.2297331 63
-3.844344 0.3116934 0.3104933 97
-3.896851 -0.7591234 0.4826026 96
-16.18286 1.333291 2.95246 31
-4.018584 -0.7700199 1.085746 99
-3.857183 -0.7762588 0.02243347 98
-3.868313 -0.4095035 0 16
-3.859446 -0.05771912 -0.02000138 124
-3.858299 0.2921028 -0.04478587 5
-3.850284 -0.7769094 0.114723 95
-3.866711 -0.4147097 0.08936156 16
-3.893818 -0.06558996 0.06593358 119
-3.858835 0.2848045 0.04679111 3
nan nan nan 0
-0.3334167 -0.0641413 -0.07835092 10
-4.015492 -0.8062274 -0.5635433 47
-4.003601 -0.767875 -0.3823138 8
-3.829321 -0.7479424 -0.2477179 119
-3.879741 -0.4019381 -0.2699575 107
-3.873749 -0.04390014 -0.2896316 95
-3.884625 0.3069341 -0.3150825 70
-3.863204 -0.7809537 -0.1587576 168
-3.873009 -0.4201543 -0.179812 65
-3.874174 -0.06194863 -0.2009701 43
-3.857597 0.2853468 -0.2227627 51
-3.853909 -0.7644848 -0.06788985 84
-3.872679 -0.4058742 -0.08947761 15
-3.857968 -0.05099785 -0.1113258 41
-3.855972 0.2959783 -0.132329 7
-3.88632 0.2841985 -0.6995583 8
-4.08581 0.3281936 -0.4567676 8
-3.834518 0.3036732 0.1529021 15
-3.898741 -0.7642646 0.2288618 59
-3.843233 0.3251107 0.3104933 96
-3.884857 -0.742701 0.4807746 89
-5.401335 0.4601917 0.9808659 16
-4.040228 -0.7595811 1.090922 19
-3.845157 -0.759861 0.02234707 100
-3.864745 -0.3954867 0 16
-3.859624 -0.04424679 -0.02000138 96
-3.862239 0.3059708 -0.04484434 7
-3.838269 -0.7605293 0.1142807 97
-3.863164 -0.4006916 0.08924551 17
-3.879026 -0.0518039 0.06567702 107
-3.857817 0.2982726 0.04679111 4
nan nan nan 0
-0.3336385 -0.06297706 -0.07835092 9
-4.032855 -0.7950994 -0.5656076 75
-3.991585 -0.7511149 -0.3808995 9
-3.82211 -0.7326789 -0.2470778 119
-3.881121 -0.3883928 -0.2699575 103
-3.873878 -0.03037797 -0.2896316 84
-3.888496 0.3209092 -0.3154896 67
-3.856109 -0.7655044 -0.1583511 170
-3.869486 -0.4061086 -0.1795791 27
-3.884351 -0.04854513 -0.2014934 98
-3.866529 0.2995956 -0.2233436 52
-3.846743 -0.7491026 -0.06771533 81
-3.874072 -0.3923535 -0.08947761 15
-3.858123 -0.03753071 -0.1113258 35
-3.854915 0.3094363 -0.132329 6
-3.89021 0.2981451 -0.7004507 8
-4.109393 0.3445628 -0.459563 13
-3.833435 0.3170563 0.1529021 16
-3.891584 -0.7487512 0.2282809 61
-3.842074 0.3385242 0.3104933 97
-3.882549 -0.7282144 0.4801652 95
-5.399696 0.479043 0.9808659 15
nan nan nan 0
-3.833066 -0.7435569 0.02226068 100
-3.866102 -0.3819939 0 16
-3.854755 -0.03073639 -0.0199752 44
-3.86613 0.3198699 -0.04490281 7
-3.831091 -0.7452039 0.1139858 96
-3.864539 -0.3872042 0.08924551 17
-3.874185 -0.03821613 0.06559151 47
-3.856753 0.3117371 0.04679111 5
nan nan nan 0
-0.3385974 -0.06277405 -0.07961464 9
-4.016161 -0.777227 -0.5628552 26
-3.984395 -0.7353577 -0.3799567 9
-3.819742 -0.7184038 -0.2467578 119
-3.877488 -0.3743613 -0.2696088 106
-3.87396 -0.01685542 -0.2896316 90
-3.887352 0.3344806 -0.3154896 65
-3.848953 -0.750114 -0.1579445 169
-3.865911 -0.3920927 -0.1793462 17
-3.899477 -0.03511402 -0.2022785 47
-3.86546 0.3130905 -0.2233436 50
-3.844426 -0.7347251 -0.06762807 86
-3.875418 -0.3788281 -0.08947761 16
-3.863228 -0.02409191 -0.1114715 22
-3.853812 0.3228906 -0.132329 7
-3.894048 0.3121223 -0.7013429 8
-4.142809 0.3619788 -0.4634766 13
-3.832305 0.3304355 0.1529021 18
-3.889271 -0.7342296 0.2279905 74
-3.845831 0.3523955 0.3108986 96
-3.889947 -0.7155617 0.4807746 85
-5.402888 0.4983455 0.9817625 15
nan nan nan 0
-3.850368 -0.7329985 0.02234707 100
-3.862435 -0.3680197 0 16
-3.854838 -0.0172806 -0.0199752 32
-3.86997 0.3337999 -0.04496127 6
-3.863116 -0.7374917 0.1148705 93
-3.860892 -0.3732286 0.08912945 17
-3.864296 -0.02463314 0.06542047 35
-3.860623 0.3256248 0.0468522 17
nan nan nan 0
-0.3388144 -0.06159174 -0.07961464 10
-4.009122 -0.7613423 -0.5614791 59
-3.98204 -0.7205525 -0.3794853 9
-3.817321 -0.7041541 -0.2464377 120
-3.878772 -0.360824 -0.2696088 106
-3.86901 -0.003330935 -0.2892549 93
-3.891124 0.3484996 -0.3158966 68
-3.841737 -0.734783 -0.157538 170
-3.857315 -0.3776175 -0.1788803 17
-3.914554 -0.02157791 -0.2030635 45
-3.864344 0.3265815 -0.2233436 48
-3.856791 -0.7231575 -0.06780259 96
-3.871741 -0.3648267 -0.08936156 16
-3.873284 -0.01062926 -0.1117629 23
-3.852661 0.3363409 -0.132329 7
-3.897837 0.32613 -0.7022352 9
-4.131625 0.3755249 -0.4623584 14
-3.831128 0.3438108 0.1529021 23
-3.886903 -0.7197334 0.2277001 42
-3.844578 0.3658178 0.3108986 96
-3.882656 -0.7002042 0.4795558 75
-5.39622 0.516728 0.9808659 17
nan nan nan 0
-3.862731 -0.7214035 0.02240467 100
-3.863696 -0.354535 0 18
-3.849875 -0.00382198 -0.01994902 34
-3.868781 0.3473066 -0.04496127 6
-3.8804 -0.7267835 0.1153129 96
-3.857194 -0.3592833 0.08901339 18
-3.859359 -0.01113187 0.06533496 31
-3.854483 0.3386545 0.04679111 15
nan nan nan 0
-0.343775 -0.06133756 -0.08087836 9
-4.00202 -0.7455161 -0.5601029 98
-3.979631 -0.7057728 -0.3790139 10
-3.819755 -0.6908249 -0.2464377 120
-3.880008 -0.3472824 -0.2696088 106
-3.868998 0.01017445 -0.2892549 96
-3.889884 0.36208 -0.3158966 73
-3.834461 -0.7195115 -0.1571314 170
-3.85861 -0.3641507 -0.1788803 17
-3.884647 -0.007866371 -0.2014934 40
-3.86318 0.3400686 -0.2233436 51
-3.869123 -0.7115124 -0.06797712 86
-3.87299 -0.3513097 -0.08936156 17
-3.873298 0.002891093 -0.1117629 15
-3.846487 0.3493282 -0.1321562 7
-3.906476 0.3406019 -0.7040198 9
-4.135235 0.3904184 -0.4629175 10
-3.834878 0.3576528 0.1531028 15
-3.884482 -0.7052627 0.2274096 66
-3.848236 0.3797324 0.311304 96
-3.899734 -0.6892579 0.4813839 71
-5.404172 0.5365434 0.9826591 15
nan nan nan 0
-3.875059 -0.7097312 0.02246226 100
-3.86491 -0.3410461 0 18
-3.849865 0.009616617 -0.01994902 39
-3.867545 0.360809 -0.04496127 7
-3.897656 -0.7159637 0.1157553 73
-3.858424 -0.3458169 0.08901339 18
-3.864374 0.002345114 0.06542047 26
-3.868212 0.3534925 0.04697437 12
nan nan nan 0
-0.343987 -0.06013718 -0.08087836 9
-4.01921 -0.7342317 -0.5621672 104
-3.972264 -0.6901602 -0.3780711 10
-3.827055 -0.6783649 -0.2467578 118
-3.881196 -0.3337366 -0.2696088 105
-3.868939 0.02367971 -0.2892549 97
-3.893556 0.3761423 -0.3163037 69
-3.851685 -0.7088561 -0.1577413 173
-3.854883 -0.350225 -0.1786474 18
-3.859685 0.005645694 -0.200185 33
-3.86197 0.3535516 -0.2233436 54
-3.881421 -0.6997901 -0.06815165 86
-3.869214 -0.3373517 -0.08924551 17
-3.868267 0.01638786 -0.1116172 12
-3.845244 0.3627528 -0.1321562 6
-3.910162 0.3546869 -0.7049121 11
-4.138792 0.4053416 -0.4634766 7
-3.833606 0.3710369 0.1531028 13
-3.882006 -0.6908177 0.2271192 56
-3.846887 0.3931629 0.311304 97
nan nan nan 0
-5.407158 0.5559124 0.9835556 14
-4.424173 -0.7525553 1.191862 6
-3.877513 -0.6962004 0.02246226 96
-3.866077 -0.3275529 0 18
-3.849808 0.0230551 -0.01994902 39
-3.866262 0.3743071 -0.04496127 6
-3.875544 -0.6978902 0.115018 96
-3.854628 -0.3319151 0.08889734 18
-3.864342 0.01583428 0.06542047 26
-3.857001 0.3660345 0.0468522 10
nan nan nan 0
-0.3441949 -0.05893608 -0.08087836 10
-3.95839 -0.7087633 -0.5532221 89
-3.969743 -0.675449 -0.3775997 11
-3.834315 -0.6658623 -0.2470778 116
-3.882338 -0.3201866 -0.2696088 103
-3.868833 0.03718469 -0.2892549 96
-3.892219 0.3897311 -0.3163037 68
-3.863966 -0.6971952 -0.1581478 170
-3.851107 -0.3363298 -0.1784145 17
-3.869627 0.0191725 -0.2007084 32
-3.860712 0.3670302 -0.2233436 52
-3.888762 -0.6871138 -0.06823891 78
-3.865387 -0.3234244 -0.08912945 17
-3.868186 0.02989053 -0.1116172 11
-3.848927 0.3766667 -0.132329 7
-3.918696 0.36927 -0.7066967 8
-4.132409 0.419278 -0.4629175 17
-3.837258 0.3849222 0.1533034 11
-3.879478 -0.6763986 0.2268288 81
-3.850447 0.4071199 0.3117093 95
nan nan nan 0
nan nan nan 0
-4.622061 -0.7698575 1.24492 41
-3.874997 -0.6817877 0.02243347 100
-3.867197 -0.3140558 0 18
-3.849704 0.03649329 -0.01994902 38
-3.859958 0.3872945 -0.04490281 7
-3.873037 -0.6834822 0.1148705 95
-3.855763 -0.3184579 0.08889734 18
-3.864263 0.02932325 0.06542047 26
-3.875599 0.381482 0.04709654 4
nan nan nan 0
-0.3491556 -0.05861336 -0.08214208 9
-3.907196 -0.6854538 -0.545653 20
-3.967167 -0.6607637 -0.3771283 12
-3.841534 -0.6533173 -0.2473979 120
-3.878459 -0.306238 -0.26926 104
-3.873665 0.05075708 -0.2896316 79
-3.895791 0.403836 -0.3167108 62
-3.890968 -0.6880881 -0.1591642 149
-3.852257 -0.3228848 -0.1784145 19
-3.904488 0.03299102 -0.2025401 41
-3.864374 0.381001 -0.223634 52
-3.881287 -0.6718163 -0.06806438 91
-3.861509 -0.309528 -0.08901339 17
-3.868058 0.04339283 -0.1116172 9
-3.847589 0.3900997 -0.132329 7
-3.927174 0.383917 -0.7084813 7
-4.13092 0.4337002 -0.4629175 12
-3.840859 0.3988374 0.1535041 15
-3.876896 -0.6620054 0.2265383 73
-3.849002 0.420558 0.3117093 96
nan nan nan 0
-16.27132 1.799266 2.976668 27
-4.858248 -0.7920441 1.30833 18
-3.872427 -0.6674011 0.02240467 101
-3.863284 -0.3001652 0 19
-3.849554 0.04993105 -0.01994902 20
-3.868527 0.4018128 -0.04501974 8
-3.865552 -0.6682419 0.1145756 96
-3.851869 -0.3046003 0.08878128 20
-3.864137 0.04281187 0.06542047 27
nan nan nan 0
nan nan nan 0
-0.349358 -0.05739422 -0.08214208 9
-3.904685 -0.6709653 -0.544965 6
-3.964538 -0.6461046 -0.3766569 12
-3.83887 -0.6390777 -0.2470778 122
-3.879504 -0.2926978 -0.26926 103
-3.873464 0.06427838 -0.2896316 96
-3.894357 0.4174324 -0.3167108 62
-3.888425 -0.6736421 -0.1589609 171
-3.853361 -0.309436 -0.1784145 23
-3.914335 0.04674377 -0.2030635 43
-3.867986 0.3950018 -0.2239244 50
-3.873753 -0.6565794 -0.06788985 93
-3.862566 -0.2960469 -0.08901339 17
-3.867883 0.05689461 -0.1116172 8
-3.851173 0.4040563 -0.1325017 8
-3.935599 0.3986277 -0.7102659 9
-4.129381 0.4481172 -0.4629175 9
-3.844411 0.4127825 0.1537048 12
-3.874262 -0.6476388 0.2262479 60
-3.852462 0.4345568 0.3121147 95
nan nan nan 0
-16.28938 1.858849 2.981151 32
-4.999272 -0.7972807 1.345859 15
-3.864875 -0.6522017 0.02234707 100
-3.864309 -0.286678 0 20
-3.854355 0.06345283 -0.0199752 37
-3.901893 0.4190998 -0.04542901 6
-3.862934 -0.6539032 0.1144281 96
-3.852908 -0.291153 0.08878128 20
-3.868963 0.056375 0.06550599 26
-3.838042 0.4048103 0.04666894 4
nan nan nan 0
-0.3543194 -0.05702025 -0.08340581 9
-3.916769 -0.6589884 -0.5463412 6
-3.961854 -0.6314721 -0.3761854 14
-3.841077 -0.6256737 -0.2470778 120
-3.875528 -0.2787939 -0.2689112 103
-3.873216 0.0777989 -0.2896316 90
-3.897829 0.4315792 -0.3171179 63
-3.880904 -0.6583796 -0.1585544 170
-3.854417 -0.2959834 -0.1784145 21
-3.934118 0.06072427 -0.2041102 45
-3.866583 0.4085012 -0.2239244 53
-3.87109 -0.6422283 -0.06780259 95
-3.858591 -0.2821953 -0.08889734 18
-3.867661 0.07039569 -0.1116172 8
-3.854706 0.4180427 -0.1326745 7
-3.943967 0.4134018 -0.7120505 9
-4.122854 0.4619688 -0.4623584 4
-3.842946 0.4261995 0.1537048 12
-3.871574 -0.6332984 0.2259575 66
-3.850921 0.4480018 0.3121147 96
-3.960172 -0.6289421 0.4874774 6
-16.29256 1.916851 2.982944 30
-5.087906 -0.7933046 1.369153 13
-3.862196 -0.637885 0.02231828 101
-3.860298 -0.2728324 0 20
-3.85411 0.07690666 -0.0199752 26
-3.925249 0.4355083 -0.04572134 8
-3.855334 -0.638767 0.1141332 94
-3.853901 -0.277702 0.08878128 23
-3.868743 0.06987986 0.06550599 26
-3.861454 0.4209483 0.04697437 13
nan nan nan 0
-0.3545163 -0.0557831 -0.08340581 9
-3.928816 -0.6469351 -0.5477173 35
-3.959117 -0.6168661 -0.375714 15
-3.838311 -0.6114703 -0.2467578 121
-3.876477 -0.2652641 -0.2689112 105
-3.877905 0.09143855 -0.2900082 90
-3.896299 0.4451825 -0.3171179 64
-3.878251 -0.6440033 -0.1583511 171
-3.855427 -0.2825271 -0.1784145 19
-3.958843 0.07494017 -0.2054186 43
-3.870095 0.4225442 -0.2242149 52
-3.863442 -0.627096 -0.06762807 91
-3.859553 -0.2687246 -0.08889734 18
-3.867391 0.08389591 -0.1116172 7
-3.858189 0.4320587 -0.1328472 7
-3.952281 0.4282392 -0.7138351 7
-4.126152 0.4769345 -0.4629175 7
-3.846398 0.4401864 0.1539054 9
-3.868833 -0.6189848 0.225667 62
-3.854281 0.4620417 0.31252 95
-3.90841 -0.606669 0.4807746 7
-16.3053 1.976085 2.98653 24
-5.14793 -0.784326 1.384682 13
-3.859464 -0.623595 0.02228948 99
-3.861228 -0.2593558 0 22
-3.853818 0.09035954 -0.0199752 34
-3.983302 0.4561135 -0.04642295 8
-3.852608 -0.6244987 0.1139858 95
-3.84986 -0.2639033 0.08866523 23
-3.868475 0.08338387 0.06550599 20
-3.859961 0.4344247 0.04697437 8
nan nan nan 0
-0.3737846 -0.05779566 -0.08846071 10
-3.935939 -0.6340114 -0.5484054 102
-3.961246 -0.6030424 -0.375714 14
-3.840423 -0.5980684 -0.2467578 121
-3.87738 -0.251731 -0.2689112 104
-3.877562 0.1049744 -0.2900082 90
-3.894721 0.4587805 -0.3171179 59
-3.875546 -0.6296535 -0.1581478 169
-3.85639 -0.2690674 -0.1784145 22
-3.963549 0.0888728 -0.2056803 41
-3.873556 0.4366167 -0.2245053 51
-3.860671 -0.6128156 -0.06754081 95
-3.860467 -0.2552506 -0.08889734 22
-3.867075 0.09739513 -0.1116172 6
-3.86162 0.446104 -0.13302 7
-3.960539 0.4431396 -0.7156196 12
-4.134328 0.4925233 -0.4640357 27
-3.844838 0.4536102 0.1539054 11
-3.87097 -0.6054763 0.225667 75
-3.852645 0.4754929 0.31252 96
-3.895787 -0.5907704 0.4789465 8
-16.32271 2.036042 2.991014 18
-5.169742 -0.7692137 1.389858 14
-3.851743 -0.6085445 0.02223188 100
-3.862109 -0.245876 0 24
-3.853479 0.1038113 -0.0199752 36
-3.932041 0.4640866 -0.04583828 6
-3.84983 -0.6102571 0.1138383 95
-3.850758 -0.2504632 0.08866523 20
-3.86816 0.09688687 0.06550599 18
-3.858421 0.4478959 0.04697437 8
nan nan nan 0
-0.3453536 -0.05171488 -0.08087836 9
-3.933237 -0.6194912 -0.5477173 102
-3.958405 -0.5884731 -0.3752426 15
-3.837555 -0.5839017 -0.2464377 120
-3.873257 -0.2378869 -0.2685624 103
-3.877172 0.118509 -0.2900082 91
-3.898042 0.4729801 -0.317525 54
-3.872787 -0.6153305 -0.1579445 170
-3.857306 -0.2556045 -0.1784145 23
-3.923283 0.101655 -0.2035869 41
-3.872008 0.4501353 -0.2245053 51
-3.857847 -0.5985621 -0.06745355 88
-3.861335 -0.2417735 -0.08889734 26
-3.866711 0.1108931 -0.1116172 5
-3.865001 0.4601786 -0.1331927 10
-3.973628 0.4586736 -0.7182965 10
-4.132584 0.5069518 -0.4640357 17
-3.858107 0.4688576 0.1545074 8
-3.87306 -0.5919603 0.225667 64
-3.855905 0.4895732 0.3129254 95
-3.883101 -0.5749674 0.4771185 7
-16.33014 2.094889 2.993703 12
-5.19151 -0.7539586 1.395035 13
-3.848903 -0.5943257 0.02220308 100
-3.862944 -0.2323932 0 27
-3.858091 0.1174163 -0.02000138 32
-3.885737 0.4723176 -0.04531208 6
-3.846999 -0.5960428 0.1136908 97
-3.851609 -0.23702 0.08866523 20
-3.867799 0.1103887 0.06550599 16
-3.871724 0.4631634 0.04715762 18
nan nan nan 0
-0.3407575 -0.04972977 -0.07961464 9
-3.950057 -0.6080385 -0.5497816 71
-3.955509 -0.5739309 -0.3747712 13
-3.834635 -0.5697625 -0.2461177 121
-3.874063 -0.2243653 -0.2685624 103
-3.876735 0.1320421 -0.2900082 91
-3.896368 0.4865839 -0.317525 64
-3.869976 -0.6010345 -0.1577413 169
-3.858174 -0.2421384 -0.1784145 23
-3.882977 0.1141572 -0.2014934 28
-3.875369 0.4642489 -0.2247957 51
-3.859913 -0.5850921 -0.06745355 86
-3.862155 -0.2282934 -0.08889734 23
-3.866301 0.1243898 -0.1116172 5
-3.863371 0.4736672 -0.1331927 5
-4.001309 0.4760671 -0.7236503 11
-4.140646 0.5226316 -0.4651538 4
-3.836621 0.4798139 0.1537048 10
-3.875103 -0.5784373 0.225667 75
-3.854172 0.5030298 0.3129254 96
-3.889995 -0.5621257 0.4777278 7
nan nan nan 0
-5.194111 -0.7358323 1.395035 12
-3.846011 -0.580134 0.02217429 101
-3.863732 -0.2189076 0 31
-3.857657 0.1308828 -0.02000138 34
-3.948546 0.4940358 -0.04607215 8
-3.849056 -0.5826106 0.1136908 96
-3.847422 -0.2232819 0.08854917 23
-3.86739 0.1238891 0.06550599 16
-3.880006 0.4779114 0.04727979 3
nan nan nan 0
-0.3457063 -0.04930262 -0.08087836 9
-3.937466 -0.5920172 -0.5477173 100
-3.957489 -0.5601202 -0.3747712 15
-3.831664 -0.5556507 -0.2457976 122
-3.874823 -0.2108409 -0.2685624 103
-3.876251 0.1455736 -0.2900082 88
-3.899587 0.5008237 -0.317932 59
-3.867112 -0.5867655 -0.157538 172
-3.858996 -0.2286694 -0.1784145 27
-3.877565 0.1275442 -0.2012317 28
-3.873725 0.4777736 -0.2247957 51
-3.856987 -0.5708759 -0.06736629 96
-3.862929 -0.2148106 -0.08889734 25
-3.870837 0.1380655 -0.1117629 5
-3.861694 0.48715 -0.1331927 6
-3.960564 0.4851939 -0.7165119 7
-3.912179 0.5073678 -0.4394361 4
-3.85474 0.4957806 0.1545074 7
-3.877098 -0.5649071 0.225667 37
-3.857332 0.5171497 0.3133307 96
-16.29782 -2.314162 2.016328 8
nan nan nan 0
-5.201431 -0.7183625 1.396329 10
-3.843068 -0.5659698 0.02214549 101
-3.864472 -0.2054193 0 33
-3.862174 0.1445371 -0.02002756 16
-3.981503 0.5123293 -0.04648142 6
-3.846123 -0.5684335 0.1135434 96
-3.848178 -0.2098505 0.08854917 25
-3.866934 0.1373881 0.06550599 16
-3.90311 0.4946286 0.04758522 4
nan nan nan 0
-3.825578 -0.5911358 -1.00087 4
-3.929711 -0.5768172 -0.5463412 94
-3.95942 -0.5463025 -0.3747712 16
-3.83358 -0.5422724 -0.2457976 122
-3.875535 -0.197314 -0.2685624 103
-3.875719 0.1591034 -0.2900082 82
-3.902755 0.5150917 -0.3183391 59
-3.859255 -0.5717846 -0.1571314 170
-3.864757 -0.2154782 -0.1786474 26
-3.897055 0.141814 -0.2022785 33
-3.876984 0.4919277 -0.2250862 56
-3.85401 -0.5566875 -0.06727903 77
-3.863655 -0.2013252 -0.08889734 26
-3.870332 0.1515764 -0.1117629 6
-3.85997 0.5006269 -0.1331927 7
-4.041811 0.5095851 -0.7316809 11
-3.895611 0.5190314 -0.4377589 8
-3.848034 0.5085716 0.1543067 7
-3.874105 -0.5506607 0.2253766 8
-3.860439 0.5312979 0.3137361 95
-16.21731 -2.24498 2.00536 10
-4.083662 0.5630855 0.744167 3
-5.208694 -0.7008505 1.397623 9
-3.840072 -0.5518332 0.02211669 101
-3.865166 -0.1919286 0 29
-3.861645 0.1580177 -0.02002756 18
-3.905356 0.5162928 -0.04560441 6
-3.843138 -0.5542839 0.1133959 96
-3.848887 -0.1964166 0.08854917 27
-3.866431 0.1508854 0.06550599 17
-3.871619 0.5043344 0.04721871 5
nan nan nan 0
-0.3651716 -0.04980493 -0.08593326 10
-3.887587 -0.5567161 -0.5401484 14
-3.95637 -0.5318087 -0.3742998 15
-3.830507 -0.528199 -0.2454775 121
-3.8762 -0.1837846 -0.2685624 102
-3.880121 0.1728556 -0.2903849 84
