# .PCD v0.7 - Point Cloud Data file format
VERSION 0.7
FIELDS x y z intensity
SIZE 4 4 4 4
TYPE F F F F
COUNT 1 1 1 1
WIDTH 1635
HEIGHT 1
VIEWPOINT 0 0 0 1 0 0 0
POINTS 1635
DATA ascii
2.560668 -9.213572 -0.719371 31
1.628935 -8.932148 -0.7384491 28
6.97003 -14.0475 -0.6364534 17
5.109197 -13.23244 -0.6596213 14
3.606317 -12.74646 -0.692143 13
2.24905 -12.00009 -0.7080774 16
10.36208 -21.07097 -0.4091716 31
7.216427 -18.8932 -0.4686259 14
4.597527 -16.42643 -0.4961574 10
2.866632 -15.54304 -0.5450363 8
1.018969 -5.395313 -0.9886615 20
1.360846 -7.509363 -0.8542728 17
8.875234 -48.85497 1.992744 10
nan nan nan 0
8.561075 -48.61868 4.012092 8
10.40175 -21.52925 2.930958 23
8.239216 -46.83752 8.661028 12
14.53055 -30.31247 8.99655 41
16.12852 -32.84798 0.2105405 42
11.94531 -31.50112 0 15
7.687176 -27.65606 -0.1500889 18
nan nan nan 0
nan nan nan 0
18.08485 -47.48924 1.178876 7
nan nan nan 0
8.387854 -45.67231 0.5668688 6
nan nan nan 0
0.1985812 -0.4100689 -0.1086803 41
3.074741 -6.28054 -0.9660743 27
3.817103 -7.96818 -0.8329821 41
5.21496 -10.78547 -0.7658772 14
3.539377 -9.401324 -0.6996574 28
2.507415 -9.145515 -0.7133448 30
1.596873 -8.932875 -0.738042 31
6.914333 -14.0583 -0.6358436 20
5.057626 -13.2362 -0.6589226 14
nan nan nan 0
2.181042 -11.86548 -0.6996549 17
10.31695 -21.16542 -0.4103061 28
7.13806 -18.88555 -0.4678135 14
4.525533 -16.38939 -0.4945545 10
2.811471 -15.54803 -0.5448636 10
1.00013 -5.398837 -0.9886615 20
1.33376 -7.509175 -0.8537138 19
8.689765 -48.80204 1.989333 10
14.73324 -30.39495 1.963042 8
8.378613 -48.5746 4.006012 9
10.34369 -21.60123 2.935833 25
8.058144 -46.76419 8.6422 11
13.80893 -29.06747 8.612203 9
16.03127 -32.94004 0.2107709 37
11.79488 -31.43496 0 16
7.602488 -27.72612 -0.1503245 20
nan nan nan 0
nan nan nan 0
17.91368 -47.53805 1.178528 8
15.94242 -57.71478 1.023553 12
8.179683 -45.43068 0.5635092 10
nan nan nan 0
0.1992973 -0.4150938 -0.109944 45
3.050634 -6.286781 -0.9653862 25
3.795678 -7.994941 -0.8343962 37
5.179438 -10.80811 -0.7661972 14
3.492604 -9.376231 -0.6968671 30
2.488481 -9.202344 -0.7171112 29
1.564825 -8.933485 -0.7376349 32
6.854265 -14.0599 -0.6348273 18
5.004323 -13.23509 -0.6579909 16
nan nan nan 0
2.117534 -11.75021 -0.6923941 19
10.23213 -21.1788 -0.4098697 25
7.073845 -18.91503 -0.4679296 10
4.469609 -16.40991 -0.4947003 10
2.755441 -15.54791 -0.5445181 9
0.9804036 -5.397454 -0.9877692 21
1.306691 -7.50889 -0.8531547 18
8.505631 -48.75332 1.986122 10
14.58597 -30.36072 1.957523 37
8.197394 -48.53475 4.000337 9
11.30064 -23.81146 3.231365 13
7.878501 -46.69503 8.624268 11
13.68681 -29.0718 8.599262 35
15.9879 -33.1444 0.2117212 21
11.64679 -31.37282 0 18
7.473034 -27.63183 -0.14967 18
3.889312 -22.27608 -0.2639794 22
14.57427 -30.17468 0.9875326 29
18.87761 -50.6306 1.253615 11
15.68567 -57.56749 1.019961 11
8.004555 -45.3654 0.5623485 8
nan nan nan 0
0.1978471 -0.415787 -0.109944 46
3.02652 -6.292929 -0.9646981 28
3.742286 -7.954108 -0.8287394 41
5.113824 -10.76754 -0.7620366 15
3.428793 -9.304129 -0.690589 31
2.429386 -9.109803 -0.7092019 31
1.532792 -8.933979 -0.7372278 28
6.796444 -14.06575 -0.6340141 20
4.959846 -13.25716 -0.6582238 16
nan nan nan 0
2.040136 -11.55106 -0.6801958 20
nan nan nan 0
6.983486 -18.87398 -0.4663048 9
4.408412 -16.41093 -0.4942631 10
2.700299 -15.55251 -0.5443453 9
0.961557 -5.400843 -0.9877692 21
1.280473 -7.513405 -0.8531547 19
8.321104 -48.69899 1.982711 11
nan nan nan 0
8.016555 -48.49423 3.994662 10
nan nan nan 0
7.70024 -46.63003 8.607233 11
4.254569 -9.12793 2.687836 12
14.54325 -30.42148 0.1939818 46
11.54065 -31.42267 0 17
7.412604 -27.79302 -0.1504031 16
3.807322 -22.26487 -0.263687 22
14.55088 -30.39666 0.9931359 41
18.77515 -50.89784 1.258605 12
nan nan nan 0
7.818068 -45.23049 0.5603327 9
nan nan nan 0
0.1963945 -0.4164751 -0.109944 47
3.000267 -6.294518 -0.963322 28
3.609196 -7.741611 -0.8051689 96
5.008147 -10.64089 -0.751795 16
3.418515 -9.376956 -0.6951233 28
2.387437 -9.079651 -0.7061888 30
1.500775 -8.934362 -0.7368208 29
6.742986 -14.08038 -0.6336076 19
4.917007 -13.28375 -0.6586896 15
nan nan nan 0
nan nan nan 0
9.878169 -20.81618 -0.4014926 27
6.896936 -18.84191 -0.4649122 9
4.348541 -16.41655 -0.4939716 10
2.645994 -15.56184 -0.5443453 9
0.9418579 -5.399319 -0.9868769 19
1.253424 -7.512928 -0.8525956 18
8.137059 -48.64397 1.9793 9
nan nan nan 0
7.8361 -48.45304 3.988987 13
11.16978 -23.96624 3.241724 24
7.52253 -46.56436 8.590198 10
nan nan nan 0
15.85034 -33.45401 0.2129883 27
nan nan nan 0
7.358768 -27.98313 -0.1512932 16
3.724634 -22.24844 -0.2633362 21
nan nan nan 0
18.67278 -51.16968 1.263712 11
nan nan nan 0
7.646796 -45.17863 0.5593554 8
nan nan nan 0
0.1949396 -0.4171581 -0.109944 50
2.976157 -6.300476 -0.9626338 24
3.628137 -7.853548 -0.8155398 66
5.017418 -10.75777 -0.7588361 17
3.375605 -9.360682 -0.6930305 27
2.365729 -9.126541 -0.7092019 33
1.467968 -8.929711 -0.7360066 30
6.689507 -14.0948 -0.6332011 19
4.874045 -13.31022 -0.6591554 15
nan nan nan 0
nan nan nan 0
9.805446 -20.85054 -0.4014926 23
nan nan nan 0
4.286162 -16.41229 -0.4933888 10
2.590838 -15.56606 -0.5441726 10
0.923005 -5.402574 -0.9868769 19
1.225598 -7.507449 -0.8514774 19
7.954306 -48.59319 1.976089 10
nan nan nan 0
7.656029 -48.41119 3.983313 9
11.15683 -24.15825 3.262442 18
7.346138 -46.50288 8.574059 9
4.144464 -9.056425 2.658072 45
15.72072 -33.48198 0.2128156 35
11.20938 -31.19192 0 16
nan nan nan 0
3.661478 -22.35012 -0.2643887 24
nan nan nan 0
nan nan nan 0
nan nan nan 0
6.885603 -41.55994 0.5142136 11
nan nan nan 0
0.1934822 -0.417836 -0.109944 47
2.952044 -6.306343 -0.9619458 30
3.579955 -7.820916 -0.8108257 81
5.007075 -10.83409 -0.7629967 14
3.337881 -9.358315 -0.6919842 24
2.322759 -9.091266 -0.7058122 30
1.435212 -8.924938 -0.7351924 31
6.63601 -14.10903 -0.6327945 18
4.832659 -13.34124 -0.6598542 14
nan nan nan 0
1.900333 -11.45852 -0.6735158 17
9.734719 -20.88917 -0.4015799 21
nan nan nan 0
4.223864 -16.40779 -0.492806 10
2.537288 -15.57994 -0.5443453 9
0.903334 -5.400909 -0.9859847 19
1.198604 -7.506773 -0.8509184 18
7.772008 -48.54174 1.972879 14
14.76733 -31.87019 2.041459 33
7.475585 -48.36374 3.977232 11
11.01253 -24.06619 3.244771 37
7.169519 -46.43587 8.557024 10
4.124806 -9.097222 2.665836 43
15.62485 -33.58197 0.2131035 34
11.06694 -31.13664 0 16
7.048142 -27.5833 -0.1488585 16
3.589758 -22.40226 -0.2648564 17
nan nan nan 0
13.48751 -37.7787 0.9304047 19
nan nan nan 0
7.288842 -44.96935 0.5561179 7
nan nan nan 0
0.1920225 -0.4185088 -0.109944 56
2.927925 -6.312118 -0.9612576 26
3.515578 -7.751788 -0.8023404 97
4.960908 -10.83336 -0.7617165 15
3.298553 -9.351095 -0.690589 24
2.298307 -9.128329 -0.7080719 32
1.401736 -8.915123 -0.7339711 32
6.582496 -14.12305 -0.6323879 20
4.777633 -13.33452 -0.6586896 15
nan nan nan 0
1.855541 -11.43552 -0.6717733 20
9.630288 -20.85495 -0.4002709 28
nan nan nan 0
4.160422 -16.39821 -0.4920774 10
2.483673 -15.59363 -0.5445181 9
0.8836858 -5.399174 -0.9850924 20
1.171631 -7.506002 -0.8503593 17
7.590937 -48.49453 1.969869 9
14.76642 -32.16195 2.056852 11
7.295567 -48.31563 3.971153 10
nan nan nan 0
6.993458 -46.3682 8.539989 12
4.096988 -9.120374 2.668424 43
15.54103 -33.70896 0.2135643 36
10.92336 -31.07602 0 16
nan nan nan 0
3.522355 -22.48381 -0.2656749 20
nan nan nan 0
nan nan nan 0
nan nan nan 0
7.113835 -44.88094 0.5547129 7
nan nan nan 0
0.1905605 -0.4191765 -0.109944 47
2.903802 -6.317802 -0.9605696 29
3.572255 -7.95012 -0.8216683 41
4.925126 -10.85515 -0.7620366 16
3.264248 -9.357843 -0.6902403 26
2.267629 -9.141134 -0.7084486 30
1.37287 -8.934739 -0.7351924 33
6.526869 -14.13234 -0.6317781 20
4.724383 -13.33228 -0.6577579 15
3.167 -12.51786 -0.6746104 17
1.786752 -11.25951 -0.6610272 17
9.586567 -20.95207 -0.4014926 27
nan nan nan 0
4.098309 -16.39324 -0.4914945 11
2.432294 -15.62196 -0.5452091 9
0.8640608 -5.397367 -0.9842001 23
1.145423 -7.510046 -0.8503593 19
7.409536 -48.44171 1.966658 9
14.66233 -32.23148 2.058013 37
7.1167 -48.27177 3.965477 10
10.79746 -24.03838 3.230756 32
6.817955 -46.29986 8.522954 13
4.071025 -9.147854 2.672307 47
15.46276 -33.8494 0.2141114 32
10.87721 -31.29343 0 16
nan nan nan 0
3.455181 -22.5701 -0.2665519 22
nan nan nan 0
20.62135 -59.0563 1.451371 10
nan nan nan 0
6.944891 -44.82644 0.5537356 7
nan nan nan 0
0.1890961 -0.4198392 -0.109944 57
2.879675 -6.323394 -0.9598815 28
3.599211 -8.085292 -0.8343962 37
4.895396 -10.89048 -0.7633168 14
3.234818 -9.37861 -0.6909378 25
2.235707 -9.148994 -0.7084486 30
1.34241 -8.944407 -0.7355995 33
6.471256 -14.14141 -0.6311683 23
4.671206 -13.32984 -0.6568263 14
3.124492 -12.53368 -0.6748721 17
1.765745 -11.38407 -0.6679976 16
9.474133 -20.89891 -0.3998346 24
6.496681 -18.75631 -0.4599218 7
4.035088 -16.38318 -0.490766 12
2.3725 -15.59577 -0.5439999 10
0.8452151 -5.40035 -0.9842001 21
1.118472 -7.509084 -0.8498002 18
7.231546 -48.40799 1.964251 9
14.6359 -32.47357 2.070212 24
6.937521 -48.22233 3.959398 10
10.72761 -24.10766 3.235022 30
6.643714 -46.23574 8.506815 14
4.056623 -9.201774 2.683954 47
15.36719 -33.95327 0.2144282 35
10.76953 -31.33593 0 17
6.781456 -27.74788 -0.1493559 17
3.368994 -22.53257 -0.2659673 25
nan nan nan 0
nan nan nan 0
nan nan nan 0
6.763704 -44.68728 0.5517198 10
nan nan nan 0
0.1856026 -0.4161041 -0.1086803 59
2.855544 -6.328895 -0.9591934 30
3.566944 -8.088699 -0.8334535 37
4.822809 -10.83003 -0.757876 15
3.187564 -9.34736 -0.6877988 28
2.202591 -9.151896 -0.7080719 30
1.315496 -8.978626 -0.738042 34
6.415661 -14.15026 -0.6305585 21
4.618104 -13.32719 -0.6558946 15
3.074772 -12.52026 -0.6735637 16
1.742399 -11.49874 -0.6743872 17
9.440062 -21.01849 -0.4014926 28
6.42631 -18.76469 -0.4595737 9
3.970809 -16.36802 -0.4898916 10
2.316581 -15.59407 -0.5436543 9
0.8256202 -5.398404 -0.9833078 20
1.092254 -7.512942 -0.8498002 19
7.04812 -48.33406 1.960237 10
14.50007 -32.47433 2.067017 27
6.758774 -48.17222 3.953317 10
10.60935 -24.06776 3.224663 25
6.469321 -46.16608 8.489779 13
3.989646 -9.136228 2.66066 48
15.26086 -34.03408 0.214601 29
10.6633 -31.3828 0 17
nan nan nan 0
3.271578 -22.41556 -0.2644471 25
15.69412 -34.95103 1.129241 37
nan nan nan 0
nan nan nan 0
6.594528 -44.62159 0.5506203 9
nan nan nan 0
0.184149 -0.4167494 -0.1086803 59
2.83141 -6.334304 -0.9585053 26
3.530706 -8.082859 -0.8315678 37
4.74264 -10.75094 -0.7511549 17
3.14854 -9.339525 -0.6864037 25
2.169483 -9.154676 -0.7076953 32
1.281338 -8.963428 -0.7364137 36
6.360082 -14.1589 -0.6299487 26
4.576414 -13.3574 -0.6565933 15
3.012277 -12.45327 -0.6693769 17
1.694967 -11.45537 -0.6714828 17
9.303602 -20.90974 -0.3987875 30
6.339924 -18.72546 -0.458065 10
3.909006 -16.36234 -0.4893088 11
2.260702 -15.59217 -0.5433088 9
0.8067712 -5.401253 -0.9833078 24
1.066022 -7.516709 -0.8498002 18
6.870924 -48.29901 1.957829 10
14.35834 -32.46085 2.062951 18
6.581136 -48.12639 3.947643 10
10.55309 -24.16832 3.233193 28
6.296163 -46.10066 8.473641 12
3.988445 -9.221006 2.681365 110
15.19273 -34.20137 0.2153209 29
10.53458 -31.36296 0 16
6.656743 -28.08646 -0.1509266 20
3.209496 -22.5407 -0.2657919 25
nan nan nan 0
19.4583 -57.65871 1.411913 39
nan nan nan 0
6.417337 -44.49588 0.5487877 10
nan nan nan 0
0.180697 -0.412983 -0.1074166 60
2.807274 -6.339623 -0.9578173 29
3.496532 -8.081432 -0.8301535 38
4.669083 -10.68515 -0.745394 20
3.103298 -9.312604 -0.6836134 26
2.136383 -9.157338 -0.7073187 31
1.247988 -8.953037 -0.7351924 33
6.306553 -14.17189 -0.6295421 28
4.531363 -13.37802 -0.6568263 15
2.959538 -12.42485 -0.6672834 16
1.651414 -11.43652 -0.6700307 15
9.212399 -20.90092 -0.3980021 24
6.277696 -18.75696 -0.4582971 9
3.841573 -16.3321 -0.4879974 12
2.204866 -15.59007 -0.5429633 9
0.7879124 -5.404036 -0.9833078 18
1.039101 -7.515462 -0.8492411 18
6.690628 -48.23857 1.954418 10
14.26499 -32.55648 2.065855 16
6.403243 -48.07497 3.941562 10
10.4391 -24.13669 3.224053 23
6.124186 -46.03946 8.4584 13
3.910534 -9.128349 2.650307 56
15.11153 -34.34114 0.2158681 30
10.27219 -30.93925 0 15
6.567749 -28.14848 -0.1511361 22
3.141089 -22.62605 -0.2666689 24
nan nan nan 0
14.31646 -42.91788 1.049476 22
nan nan nan 0
4.437555 -31.53656 0.3886228 36
nan nan nan 0
0.1792543 -0.4136113 -0.1074166 55
2.783134 -6.344849 -0.9571292 27
3.464375 -8.084441 -0.8292108 37
4.709135 -10.87994 -0.757876 16
3.06765 -9.313906 -0.6829159 28
2.104404 -9.16474 -0.7073187 30
1.215393 -8.947462 -0.7343782 33
6.248978 -14.17553 -0.628729 29
4.484637 -13.39376 -0.6568263 15
2.941215 -12.54205 -0.6730404 17
1.628135 -11.56085 -0.6770011 17
9.0233 -20.66724 -0.3929409 24
nan nan nan 0
3.786794 -16.35515 -0.4882888 11
2.149752 -15.59272 -0.5427906 10
0.769044 -5.406753 -0.9833078 21
1.01286 -7.519043 -0.8492411 21
4.313389 -31.9034 1.291441 16
14.1115 -32.51451 2.060047 11
6.223868 -48.00807 3.934266 11
nan nan nan 0
5.952083 -45.97275 8.442261 11
nan nan nan 0
15.02154 -34.46243 0.2163001 33
10.06122 -30.66138 0 16
6.460502 -28.13225 -0.1509266 18
3.071456 -22.70624 -0.2674874 25
nan nan nan 0
19.05843 -57.80264 1.412145 32
nan nan nan 0
4.332194 -31.58653 0.3890504 14
nan nan nan 0
0.1758441 -0.409814 -0.1061528 55
2.760969 -6.354526 -0.9571292 28
3.432239 -8.087322 -0.8282679 39
4.663256 -10.87797 -0.7565957 17
3.036664 -9.3293 -0.6832646 25
2.072401 -9.172029 -0.7073187 33
1.182852 -8.941769 -0.7335641 31
6.189454 -14.17437 -0.6277127 21
4.437857 -13.40933 -0.6568263 15
2.899662 -12.56197 -0.6735637 16
1.600625 -11.66042 -0.6825193 15
8.839919 -20.44168 -0.3880542 21
nan nan nan 0
3.725241 -16.34877 -0.4877059 11
2.094647 -15.59518 -0.5426178 9
0.7508374 -5.414279 -0.9842001 20
0.9859653 -7.517607 -0.848682 18
4.096498 -31.11582 1.258934 117
12.49723 -29.07399 1.839026 17
6.050022 -47.98006 3.930213 9
11.43185 -26.94534 3.589052 35
5.781135 -45.91028 8.427019 11
3.826106 -9.10646 2.636072 103
14.9408 -34.60646 0.216876 32
3.199111 -9.869388 0 15
6.328108 -28.00344 -0.1501151 18
3.005864 -22.82092 -0.2687152 25
nan nan nan 0
18.84105 -57.82129 1.410984 22
nan nan nan 0
4.21662 -31.56182 0.3885617 32
nan nan nan 0
0.1744125 -0.4104253 -0.1061528 58
2.73681 -6.359577 -0.956441 27
3.400126 -8.090078 -0.8273251 37
4.564743 -10.75182 -0.7466742 28
3.001024 -9.330347 -0.6825671 22
2.040372 -9.179208 -0.7073187 29
1.150366 -8.935957 -0.7327499 33
6.130014 -14.17297 -0.6266963 28
4.395683 -13.43898 -0.6575251 13
nan nan nan 0
1.494642 -11.1761 -0.6537664 15
8.723214 -20.36673 -0.3860472 24
3.209445 -9.936671 -0.2415083 25
3.671429 -16.37631 -0.4881431 10
2.03955 -15.59744 -0.5424451 9
0.7319334 -5.416867 -0.9842001 18
0.9590928 -7.516073 -0.848123 18
3.951724 -30.84746 1.247497 28
12.3722 -29.06233 1.835541 38
3.741657 -30.51462 2.497323 32
11.13772 -26.50929 3.52568 37
5.610696 -45.84717 8.411777 13
3.740427 -8.990476 2.598543 48
12.45032 -29.11904 0.1821747 43
3.155485 -9.851926 0 25
6.20537 -27.9131 -0.1495129 18
2.925552 -22.82631 -0.2686568 26
12.33435 -28.80635 0.9233879 41
3.182095 -9.887712 0.2402317 25
nan nan nan 0
4.088394 -31.43752 0.3868513 30
nan nan nan 0
0.1729788 -0.4110317 -0.1061528 57
2.712648 -6.364537 -0.955753 27
3.373781 -8.106492 -0.8277965 39
4.542672 -10.80448 -0.7492346 27
2.966925 -9.336011 -0.6822183 23
2.008318 -9.186274 -0.7073187 32
1.119166 -8.939919 -0.7327499 37
6.07066 -14.17132 -0.6256799 21
nan nan nan 0
2.737883 -12.25054 -0.6557695 22
1.451127 -11.1466 -0.6517333 15
8.630581 -20.34643 -0.3850873 27
3.170178 -9.933528 -0.2411601 24
3.613167 -16.38414 -0.4879974 11
1.984464 -15.59951 -0.5422723 10
0.7123835 -5.41451 -0.9833078 21
0.9322428 -7.514444 -0.8475639 18
3.842172 -30.84619 1.246895 31
nan nan nan 0
nan nan nan 0
11.12331 -26.73585 3.550663 43
5.440188 -45.77856 8.395638 14
3.725599 -9.043658 2.61019 67
nan nan nan 0
3.122585 -9.867647 0 27
6.128184 -28.02739 -0.1500104 17
2.850792 -22.87608 -0.2691245 31
nan nan nan 0
3.1415 -9.879706 0.2397675 25
nan nan nan 0
3.917849 -30.97046 0.3809261 33
nan nan nan 0
0.171543 -0.411633 -0.1061528 58
2.690416 -6.373967 -0.955753 28
3.345463 -8.118219 -0.8277965 37
4.495329 -10.79725 -0.7476344 41
2.932823 -9.341553 -0.6818694 26
1.988802 -9.251724 -0.7118383 29
1.088552 -8.948718 -0.733157 32
6.011391 -14.16944 -0.6246635 26
3.157061 -9.886865 -0.4821384 17
2.682248 -12.2015 -0.6526293 23
1.417207 -11.19122 -0.6540567 14
8.588566 -20.44557 -0.3863963 24
3.121949 -9.90163 -0.2401156 24
3.557013 -16.40154 -0.4881431 11
1.928776 -15.59642 -0.5419268 10
0.6934789 -5.416964 -0.9833078 23
0.9054158 -7.512718 -0.8470048 19
3.771634 -31.16693 1.259336 26
nan nan nan 0
3.601631 -31.17369 2.549207 25
11.02235 -26.75616 3.548226 42
5.27079 -45.7142 8.380397 12
3.741494 -9.172853 2.643836 96
14.69558 -35.04226 0.2186327 38
3.103049 -9.926207 0 25
6.022958 -28.0144 -0.1498271 20
2.780519 -22.96531 -0.27006 30
nan nan nan 0
3.114488 -9.914455 0.2403478 23
nan nan nan 0
3.757318 -30.55719 0.3756728 30
nan nan nan 0
0.1701051 -0.4122293 -0.1061528 54
2.666236 -6.378752 -0.955065 30
3.322755 -8.143672 -0.8292108 36
4.486171 -10.88206 -0.7524351 43
2.900197 -9.351733 -0.6818694 27
1.943108 -9.195193 -0.7069421 33
1.056727 -8.947514 -0.7327499 36
5.952209 -14.1673 -0.6236472 23
3.102984 -9.835907 -0.4791105 16
2.65651 -12.28888 -0.6568162 18
1.395143 -11.33482 -0.6621889 17
8.545962 -20.54465 -0.3877052 28
3.090341 -9.922011 -0.2403478 25
3.498697 -16.40897 -0.4879974 10
1.873729 -15.5981 -0.541754 10
0.674566 -5.419352 -0.9833078 19
0.8786125 -7.510898 -0.8464457 18
3.670384 -31.24441 1.261944 33
nan nan nan 0
3.483932 -31.10683 2.542721 38
10.90639 -26.73934 3.540914 39
5.102453 -45.65409 8.366051 12
3.671426 -9.091833 2.61666 44
14.62497 -35.21801 0.2194102 35
3.069857 -9.941755 0 23
5.95924 -28.19668 -0.150691 20
2.703833 -23.00467 -0.2704108 25
nan nan nan 0
3.085791 -9.944361 0.240812 24
10.3871 -48.69208 0.8509793 29
3.621032 -30.32189 0.3726185 32
nan nan nan 0
0.1686651 -0.4128205 -0.1061528 52
2.642056 -6.383445 -0.9543768 25
3.29244 -8.150606 -0.8287394 36
4.459485 -10.92536 -0.7543554 29
2.868998 -9.366569 -0.6822183 26
1.906947 -9.182392 -0.7054355 31
1.027745 -8.970953 -0.7343782 30
5.893117 -14.16494 -0.6226308 23
3.077553 -9.875287 -0.480508 15
nan nan nan 0
1.36147 -11.38919 -0.6650932 17
8.453241 -20.52352 -0.3867453 26
3.063042 -9.956627 -0.240928 24
3.441397 -16.42108 -0.4879974 10
1.818116 -15.59462 -0.5414085 10
0.655059 -5.416789 -0.9824155 21
0.8518327 -7.508982 -0.8458866 18
3.447795 -30.25928 1.221612 28
15.2113 -37.15884 2.333925 16
3.391423 -31.26744 2.554882 38
10.826 -26.80945 3.545179 20
4.934072 -45.58849 8.350809 13
3.641462 -9.109076 2.617954 37
14.59705 -35.50004 0.2208501 28
nan nan nan 0
5.861796 -28.22221 -0.1507172 21
2.621819 -22.99906 -0.2702354 29
nan nan nan 0
3.049594 -9.950293 0.2406959 10
nan nan nan 0
3.479539 -30.02642 0.3688312 32
nan nan nan 0
0.1653507 -0.4089461 -0.1048891 58
2.617876 -6.388048 -0.9536887 30
3.251013 -8.129704 -0.8254395 38
4.413834 -10.92236 -0.7530752 40
2.83484 -9.371752 -0.6818694 30
1.864926 -9.140139 -0.7016692 32
0.9925959 -8.939814 -0.7315286 38
5.832209 -14.15771 -0.6214111 23
3.051885 -9.91461 -0.4819055 17
nan nan nan 0
1.31655 -11.34924 -0.6624793 23
8.37966 -20.54827 -0.386658 31
nan nan nan 0
3.383049 -16.4281 -0.4878516 12
1.76255 -15.59094 -0.541063 9
0.6361468 -5.419043 -0.9824155 19
0.8250771 -7.50697 -0.8453276 18
3.347076 -30.31582 1.223418 27
14.74203 -36.37444 2.281357 42
3.285893 -31.31379 2.557719 31
nan nan nan 0
4.766212 -45.52227 8.335567 12
nan nan nan 0
14.56734 -35.78231 0.22229 23
nan nan nan 0
5.769242 -28.27189 -0.1508743 22
2.540426 -22.99814 -0.2701184 25
nan nan nan 0
nan nan nan 0
nan nan nan 0
3.373034 -30.02348 0.368648 32
nan nan nan 0
0.1620655 -0.4050536 -0.1036254 56
2.595562 -6.397147 -0.9536887 28
3.217111 -8.127121 -0.8240253 42
4.386814 -10.96549 -0.7549955 35
2.797825 -9.367255 -0.6808231 26
1.833989 -9.151482 -0.7020458 34
0.9597954 -8.928358 -0.7303075 31
5.778977 -14.16873 -0.6210046 18
4.129263 -13.58065 -0.6600872 11
nan nan nan 0
1.279148 -11.37361 -0.6636411 25
8.203008 -20.31782 -0.3817714 25
nan nan nan 0
3.324693 -16.43491 -0.4877059 10
1.707032 -15.58706 -0.5407175 9
0.617227 -5.42123 -0.9824155 20
0.7983459 -7.504863 -0.8447685 17
nan nan nan 0
14.62985 -36.46273 2.28368 45
3.12136 -30.77966 2.513131 31
nan nan nan 0
4.599367 -45.46032 8.321221 13
3.694191 -9.431016 2.703365 65
14.48161 -35.93032 0.2228948 26
nan nan nan 0
5.689183 -28.38501 -0.1513717 19
2.45695 -22.97703 -0.2697676 25
nan nan nan 0
nan nan nan 0
9.952984 -49.17548 0.8575641 11
3.282791 -30.16927 0.3702973 32
nan nan nan 0
0.1588094 -0.4011433 -0.1023617 50
2.571366 -6.401575 -0.9530006 32
3.181447 -8.119766 -0.8221397 34
4.3761 -11.05031 -0.7597963 22
2.759463 -9.357828 -0.679428 26
1.798186 -9.13826 -0.7005394 32
0.9363075 -9.006008 -0.7364137 32
5.727611 -14.18419 -0.6208013 25
4.076085 -13.57585 -0.6591554 13
nan nan nan 0
1.23621 -11.34823 -0.6618985 16
8.115327 -20.30456 -0.380986 26
5.445959 -18.37993 -0.4441386 7
3.266331 -16.44151 -0.4875602 12
1.651563 -15.58298 -0.540372 9
0.5982996 -5.423352 -0.9824155 20
0.7716395 -7.502662 -0.8442094 17
3.139453 -30.37821 1.225023 24
14.49879 -36.50431 2.2831 40
3.020199 -30.85485 2.5184 34
11.01366 -28.11808 3.703 15
4.432536 -45.39288 8.30598 14
3.626286 -9.353809 2.677483 41
14.45063 -36.21748 0.2243634 30
nan nan nan 0
5.605509 -28.48319 -0.1517906 22
2.385965 -23.07499 -0.2708201 27
30.96198 -77.46483 2.460205 48
nan nan nan 0
9.771524 -49.16089 0.8567089 15
3.17537 -30.16066 0.370053 36
nan nan nan 0
0.1555827 -0.3972152 -0.1010979 56
2.547172 -6.405911 -0.9523126 29
3.149479 -8.121543 -0.8211968 41
4.297392 -10.96334 -0.7527551 49
2.721201 -9.348248 -0.6780329 24
1.777611 -9.203226 -0.7050589 36
0.9132792 -9.093521 -0.7433341 31
5.676208 -14.19945 -0.620598 18
4.000267 -13.49423 -0.6544971 18
2.425162 -12.2501 -0.6523677 18
nan nan nan 0
8.022317 -20.27699 -0.3799389 23
nan nan nan 0
3.207964 -16.44791 -0.4874145 11
1.596143 -15.57871 -0.5400265 9
0.5788472 -5.420515 -0.9815232 18
0.7454456 -7.505309 -0.8442094 17
3.030422 -30.35915 1.223819 38
14.35118 -36.5036 2.279905 29
2.904533 -30.78086 2.51151 28
10.80596 -27.87412 3.66583 17
4.266693 -45.32971 8.291635 14
3.446363 -8.983212 2.567485 45
14.30208 -36.21191 0.2240179 33
nan nan nan 0
5.518375 -28.5664 -0.1521309 20
2.308874 -23.118 -0.2712293 20
30.7815 -77.80016 2.46743 211
nan nan nan 0
9.594117 -49.16526 0.8561958 14
3.074618 -30.21633 0.3706027 37
nan nan nan 0
0.1523853 -0.3932695 -0.09983423 49
2.522978 -6.410157 -0.9516245 29
3.117538 -8.123194 -0.820254 39
4.255483 -10.96897 -0.7521151 56
2.694066 -9.376865 -0.679428 26
1.758458 -9.277958 -0.7103317 30
0.8777103 -9.056971 -0.7400774 30
5.626608 -14.21918 -0.620598 23
3.958753 -13.52728 -0.6554288 15
2.377627 -12.23398 -0.6510593 18
1.152926 -11.31686 -0.659575 18
7.958785 -20.32348 -0.3802879 27
5.306415 -18.37908 -0.4432101 7
3.149591 -16.45409 -0.4872688 11
1.540283 -15.56927 -0.5395082 9
0.5599226 -5.422502 -0.9815232 20
0.7200819 -7.502794 -0.8436503 17
2.915366 -30.21984 1.217799 38
14.07151 -36.12526 2.253475 26
2.812335 -30.83946 2.515563 26
10.68581 -27.80878 3.653033 20
4.125045 -45.26379 8.277289 13
3.381709 -8.888999 2.53772 52
14.17353 -36.18187 0.2235859 35
nan nan nan 0
5.482847 -28.78704 -0.1532305 21
2.255764 -23.15841 -0.2716386 21
30.57852 -77.84257 2.466398 182
16.71926 -57.85637 1.39729 9
9.481594 -49.18199 0.8561103 12
3.010831 -30.21772 0.3705416 35
nan nan nan 0
0.1510803 -0.3937727 -0.09983423 42
2.499905 -6.413875 -0.9509364 28
3.090231 -8.128296 -0.8197826 40
4.23534 -11.01954 -0.7546754 62
2.667597 -9.389615 -0.6797768 25
1.727271 -9.263529 -0.7088252 30
0.8514874 -9.049461 -0.7392632 30
5.583225 -14.22554 -0.6201915 27
3.923325 -13.5376 -0.6554288 15
nan nan nan 0
1.116425 -11.23023 -0.6543472 18
7.901851 -20.32423 -0.3799389 26
5.261948 -18.38146 -0.442978 8
3.114194 -16.45575 -0.4871231 11
1.507191 -15.56749 -0.5393355 9
0.5504577 -5.423471 -0.9815232 19
0.7056763 -7.504163 -0.8436503 18
2.837163 -30.01151 1.209171 33
13.97779 -36.10811 2.250571 31
2.753475 -30.90981 2.520833 18
10.48106 -27.46206 3.604286 40
4.015379 -45.19464 8.262943 13
3.324096 -8.802374 2.510545 44
14.0742 -36.18844 0.2234131 35
8.650345 -30.43446 0 15
5.384406 -28.67844 -0.152576 28
2.194841 -23.20444 -0.2721063 21
nan nan nan 0
18.50906 -64.769 1.563015 8
9.315131 -49.10185 0.8542289 12
2.925948 -30.33154 0.3718244 33
nan nan nan 0
0.1503241 -0.394062 -0.09983423 42
2.485793 -6.414046 -0.9502483 25
3.064391 -8.111474 -0.8174255 39
4.201557 -11.00042 -0.7527551 67
2.654404 -9.424447 -0.6818694 21
1.687312 -9.164449 -0.7009159 35
0.8289212 -9.046554 -0.7388561 31
5.546633 -14.23449 -0.6199882 23
3.886492 -13.54303 -0.6551958 16
2.395969 -12.68294 -0.6743488 15
1.080284 -11.18362 -0.6514429 17
7.778474 -20.17365 -0.3767102 24
5.192406 -18.34409 -0.4417014 8
3.061568 -16.46053 -0.4869774 12
1.457349 -15.56219 -0.53899 9
0.5315229 -5.425359 -0.9815232 18
0.6790333 -7.501631 -0.8430912 16
2.733742 -30.03615 1.209773 12
13.807 -36.04016 2.24331 36
2.686262 -31.39592 2.559746 14
10.33953 -27.37778 3.588443 38
3.851332 -45.13486 8.249495 14
3.313665 -8.868201 2.526074 74
13.92803 -36.18602 0.2230964 32
8.571065 -30.56075 0 16
5.288793 -28.72165 -0.1527069 19
2.116996 -23.24681 -0.2725156 14
nan nan nan 0
nan nan nan 0
9.125387 -49.03576 0.8525186 12
2.808046 -30.21213 0.3702362 33
nan nan nan 0
0.1489476 -0.3945843 -0.09983423 45
2.461611 -6.418061 -0.9495602 26
3.039549 -8.131444 -0.8183683 38
4.106615 -10.86569 -0.7425135 90
2.614809 -9.409628 -0.6801256 30
1.665042 -9.224256 -0.7050589 38
0.7969035 -9.044427 -0.7384491 30
5.493313 -14.24444 -0.6195816 23
3.837833 -13.5517 -0.654963 16
2.288957 -12.35246 -0.6562929 19
1.039398 -11.16744 -0.6502811 17
7.74546 -20.29875 -0.3785427 25
5.118926 -18.3284 -0.440889 10
3.003195 -16.4662 -0.4868317 10
1.402124 -15.55723 -0.5386444 9
0.5125816 -5.427182 -0.9815232 19
0.6528436 -7.503956 -0.8430912 17
2.691021 -30.75723 1.238467 35
13.92008 -36.7182 2.282519 35
2.549817 -31.07729 2.532993 16
10.29256 -27.54386 3.605504 36
3.688151 -45.07939 8.236942 14
3.309523 -8.95218 2.546779 47
13.81232 -36.26245 0.2232691 34
8.465671 -30.59531 0 16
5.192943 -28.76454 -0.1528378 23
2.027138 -23.15445 -0.2713463 12
nan nan nan 0
19.22495 -69.09592 1.664214 9
8.940705 -48.99355 0.8512359 12
2.715458 -30.36617 0.3720077 20
nan nan nan 0
0.1475694 -0.3951018 -0.09983423 43
2.437432 -6.421987 -0.9488721 27
3.004229 -8.123333 -0.8164827 38
4.003915 -10.70706 -0.7306718 95
2.592503 -9.45718 -0.6829159 25
1.646713 -9.308568 -0.711085 31
0.7657447 -9.052119 -0.7388561 30
5.441774 -14.25886 -0.6193784 23
3.78916 -13.56021 -0.65473 16
nan nan nan 0
0.9968677 -11.13122 -0.6479577 19
7.667489 -20.30696 -0.3781936 29
5.056244 -18.35098 -0.4410051 9
2.94482 -16.47166 -0.4866859 10
1.347381 -15.55706 -0.5384718 10
0.4936341 -5.428938 -0.9815232 21
0.626646 -7.506189 -0.8430912 17
2.582391 -30.7515 1.237865 30
13.96019 -37.21521 2.3104 35
2.444046 -31.12078 2.53583 30
10.33237 -27.94732 3.653643 26
3.522339 -44.98411 8.217218 12
3.268286 -8.936468 2.539015 50
13.71741 -36.39466 0.2237875 33
8.382524 -30.71149 0 16
5.053319 -28.56093 -0.1516597 24
1.941292 -23.10159 -0.2706446 9
nan nan nan 0
nan nan nan 0
8.755548 -48.94572 0.8498676 11
2.629514 -30.60958 0.3748787 32
nan nan nan 0
0.1461893 -0.3956145 -0.09983423 41
2.413255 -6.42582 -0.948184 30
2.987847 -8.166487 -0.8197826 33
3.935312 -10.63675 -0.7249109 84
2.546448 -9.418024 -0.679428 24
1.603156 -9.250395 -0.7061888 35
0.7357409 -9.074607 -0.7404845 28
5.388435 -14.26842 -0.6189718 25
3.737819 -13.55891 -0.6540313 16
nan nan nan 0
0.9409865 -10.9357 -0.6363403 17
7.507267 -20.09479 -0.3737433 25
4.976419 -18.31063 -0.4396124 9
2.886443 -16.47692 -0.4865402 11
1.292245 -15.5517 -0.5381262 8
0.4746805 -5.430628 -0.9815232 19
0.6000482 -7.503377 -0.8425322 17
2.489425 -30.93961 1.245089 28
13.38888 -36.07514 2.23663 26
2.334656 -31.11918 2.53502 15
10.45305 -28.57976 3.731639 28
3.357602 -44.89311 8.198389 9
3.319347 -9.174856 2.603719 98
13.60077 -36.47042 0.2239603 34
8.253169 -30.65849 0 15
4.931397 -28.45031 -0.150979 19
nan nan nan 0
nan nan nan 0
20.24052 -74.76265 1.797328 12
8.570837 -48.8972 0.8484993 11
2.519374 -30.57872 0.37439 23
nan nan nan 0
0.1465309 -0.4006427 -0.1010979 40
2.389082 -6.429564 -0.9474959 25
2.964413 -8.190906 -0.8211968 34
nan nan nan 0
2.5097 -9.412397 -0.6783816 26
1.55086 -9.137958 -0.6971496 34
0.7013839 -9.042338 -0.7376349 36
5.336845 -14.28247 -0.6187685 29
3.687845 -13.56223 -0.6535655 16
nan nan nan 0
0.911787 -11.04836 -0.6427299 16
nan nan nan 0
4.899528 -18.27961 -0.4384519 10
2.828066 -16.48197 -0.4863946 11
1.237557 -15.55114 -0.5379534 10
0.4553146 -5.427349 -0.9806309 21
0.5738528 -7.505426 -0.8425322 18
2.411622 -31.34163 1.260941 23
13.21124 -35.98109 2.227917 20
2.26821 -31.71868 2.583256 11
10.0914 -27.89278 3.63719 38
3.192497 -44.7868 8.176871 9
3.303597 -9.23185 2.61666 74
13.44914 -36.45201 0.2235571 33
8.162782 -30.74994 0 15
4.870532 -28.6941 -0.1521833 16
nan nan nan 0
nan nan nan 0
19.95751 -74.75074 1.795355 8
8.386569 -48.84798 0.847131 11
nan nan nan 0
nan nan nan 0
0.1451315 -0.4011517 -0.1010979 39
2.364911 -6.433218 -0.9468078 27
2.937483 -8.205888 -0.8216683 37
nan nan nan 0
2.470484 -9.396982 -0.6766378 23
1.525481 -9.182665 -0.7001627 28
0.668721 -9.029821 -0.7364137 32
5.285224 -14.29632 -0.6185653 25
3.636598 -13.56055 -0.6528667 16
nan nan nan 0
0.879077 -11.12613 -0.6470863 15
nan nan nan 0
4.825468 -18.25794 -0.4375235 9
2.769688 -16.48681 -0.4862488 11
1.182888 -15.55038 -0.5377807 9
0.4363669 -5.428905 -0.9806309 20
0.5472927 -7.502428 -0.8419731 17
2.299649 -31.31498 1.259536 30
13.12989 -36.14897 2.235469 34
7.109238 -104.737 8.535323 27
9.970554 -27.86242 3.628659 39
3.026846 -44.66026 8.151767 11
3.289103 -9.293398 2.630896 98
13.36984 -36.63023 0.2243634 33
nan nan nan 0
nan nan nan 0
1.681736 -22.88131 -0.2678382 7
nan nan nan 0
nan nan nan 0
8.203578 -48.80301 0.8458483 12
2.313332 -30.69527 0.3756117 23
nan nan nan 0
0.1437303 -0.4016559 -0.1010979 37
2.340745 -6.43678 -0.9461198 23
2.913813 -8.230165 -0.8230824 32
nan nan nan 0
2.433911 -9.391064 -0.6755914 23
1.483832 -9.128877 -0.6956431 33
0.6354588 -9.007244 -0.7343782 32
5.233571 -14.30999 -0.618362 21
3.585408 -13.55868 -0.652168 16
2.101019 -12.55797 -0.66519 17
0.8379939 -11.09926 -0.6453438 20
7.04969 -19.49069 -0.3610902 20
4.744054 -18.20695 -0.4358987 9
2.711312 -16.49145 -0.4861031 11
1.12824 -15.54943 -0.537608 9
0.4174139 -5.430395 -0.9806309 21
0.521101 -7.504293 -0.8419731 17
2.197625 -31.42748 1.26375 21
13.30922 -37.0448 2.288037 27
6.726961 -104.5026 8.514245 96
9.884832 -27.9298 3.632925 38
2.865896 -44.59201 8.137421 13
3.312568 -9.46434 2.676189 103
13.26058 -36.72841 0.2246802 33
7.857955 -30.45759 0 15
4.683726 -28.8113 -0.1526283 12
1.598725 -22.84216 -0.267312 8
13.55306 -37.47687 1.174658 32
nan nan nan 0
8.021813 -48.76228 0.844651 12
nan nan nan 0
nan nan nan 0
0.1423274 -0.4021552 -0.1010979 38
2.316581 -6.440253 -0.9454317 24
2.88342 -8.23559 -0.822611 36
nan nan nan 0
2.392467 -9.365675 -0.6731499 21
1.466027 -9.222635 -0.7024224 34
0.6043441 -9.01438 -0.7347853 35
5.180185 -14.31878 -0.6179554 26
3.538058 -13.57111 -0.652168 16
nan nan nan 0
0.7924808 -11.00752 -0.6398255 17
6.991724 -19.54342 -0.3616138 30
4.665544 -18.16531 -0.434506 10
2.652936 -16.49588 -0.4859574 11
1.073956 -15.55327 -0.537608 9
0.3984557 -5.431819 -0.9806309 18
0.4945797 -7.501108 -0.841414 17
2.106733 -31.7191 1.275188 10
13.13468 -36.96404 2.280195 35
nan nan nan 0
9.756115 -27.87514 3.621347 38
2.706651 -44.54283 8.126662 14
3.398156 -9.818087 2.773246 105
13.17434 -36.89219 0.2254002 32
7.767613 -30.54783 0 16
4.596467 -28.91142 -0.1530734 16
1.515346 -22.79272 -0.2666689 7
nan nan nan 0
nan nan nan 0
7.842024 -48.73076 0.8436248 11
2.183996 -31.95769 0.3908829 12
nan nan nan 0
0.1392626 -0.3981056 -0.09983423 44
2.292423 -6.443635 -0.9447436 24
2.846498 -8.22209 -0.820254 39
nan nan nan 0
2.362198 -9.383644 -0.6738475 26
1.43459 -9.232623 -0.7027991 31
0.5744389 -9.041304 -0.7368208 33
5.126801 -14.32737 -0.6175489 26
3.491908 -13.58822 -0.6524009 16
2.026708 -12.65615 -0.6696386 15
0.7679365 -11.2144 -0.6517333 16
6.898431 -19.49702 -0.3603049 27
4.587382 -18.12333 -0.4331134 8
2.594563 -16.5001 -0.4858117 10
1.019658 -15.55693 -0.537608 9
0.3791546 -5.428269 -0.9797386 20
0.468393 -7.502789 -0.841414 17
1.985677 -31.56172 1.268566 19
12.95757 -36.87311 2.271773 37
2.699069 -46.99679 3.825634 6
9.652256 -27.89027 3.61891 35
2.547504 -44.48816 8.115006 13
3.19317 -9.3319 2.63219 58
13.04215 -36.92852 0.2253426 34
7.693753 -30.70571 0 16
4.487077 -28.87294 -0.1527854 13
1.430766 -22.71804 -0.2657334 8
nan nan nan 0
nan nan nan 0
7.654783 -48.64919 0.8417435 11
nan nan nan 0
nan nan nan 0
0.1378721 -0.3985893 -0.09983423 42
2.268269 -6.446928 -0.9440555 27
2.812936 -8.217851 -0.8188397 38
3.417353 -9.868277 -0.6673021 99
2.325823 -9.377309 -0.6728011 28
1.420288 -9.355882 -0.7118383 33
0.5434664 -9.053202 -0.7376349 34
5.071753 -14.33105 -0.6169391 20
3.445682 -13.60516 -0.6526337 15
1.963226 -12.53982 -0.6630965 16
0.7329625 -11.28177 -0.6555089 16
6.848506 -19.57288 -0.3612648 27
4.510781 -18.08589 -0.4318368 10
2.534675 -16.49424 -0.4853745 12
0.9653481 -15.56039 -0.537608 8
0.3602041 -5.429559 -0.9797386 19
0.4419119 -7.499418 -0.8408549 18
1.824976 -30.71565 1.234253 11
12.80583 -36.8521 2.267707 39
2.532326 -46.95617 3.821581 7
9.567702 -27.96136 3.623785 29
2.388507 -44.42801 8.102454 11
3.107875 -9.187469 2.588191 45
12.93626 -37.03991 0.2257458 32
7.62368 -30.88286 0 16
nan nan nan 0
1.348204 -22.66799 -0.2650903 9
nan nan nan 0
nan nan nan 0
7.469726 -48.57679 0.8400331 12
nan nan nan 0
nan nan nan 0
0.1348516 -0.3945128 -0.0985705 43
2.244121 -6.45013 -0.9433674 25
2.77784 -8.208764 -0.8169541 37
3.378029 -9.865986 -0.666342 105
2.299 -9.409595 -0.674545 25
1.387621 -9.360783 -0.7118383 31
0.512418 -9.064995 -0.7384491 33
5.016742 -14.33452 -0.6163293 23
3.39938 -13.62195 -0.6528667 16
1.899073 -12.41333 -0.6560312 16
0.6911465 -11.2444 -0.6531855 16
6.793229 -19.63446 -0.3619629 28
4.438076 -18.06269 -0.4309084 9
2.47486 -16.48816 -0.4849374 12
0.9110262 -15.56367 -0.537608 9
0.3409455 -5.425873 -0.9788463 21
0.4157314 -7.500915 -0.8408549 18
1.712187 -30.62206 1.23024 13
12.6333 -36.76913 2.259865 35
2.364897 -46.89504 3.815906 8
9.64029 -28.49756 3.688985 36
2.229962 -44.3673 8.089902 10
3.066581 -9.170784 2.580426 50
12.81995 -37.12264 0.2259761 29
7.544192 -31.02588 0 16
nan nan nan 0
1.265453 -22.60767 -0.2643302 8
nan nan nan 0
nan nan nan 0
7.286009 -48.50863 0.8384083 12
2.458781 -42.55045 0.520261 6
nan nan nan 0
0.1334736 -0.3949811 -0.0985705 44
2.219977 -6.453243 -0.9426793 26
2.744423 -8.204251 -0.8155398 36
3.309922 -9.778481 -0.6596209 95
2.268476 -9.427262 -0.6752426 25
1.339255 -9.257009 -0.7035524 29
0.4810329 -9.071706 -0.7388561 37
4.960132 -14.33307 -0.6155161 23
3.349424 -13.62404 -0.6524009 15
1.811501 -12.12357 -0.6403304 20
0.6435844 -11.10223 -0.6447629 16
6.710077 -19.61549 -0.3611775 34
4.364412 -18.03435 -0.4298639 9
2.415118 -16.48186 -0.4845002 11
0.8566934 -15.56675 -0.537608 9
0.3220035 -5.42703 -0.9788463 18
0.3895457 -7.50232 -0.8408549 18
2.459005 -46.97238 1.887599 7
12.49524 -36.78465 2.258122 38
2.198392 -46.84327 3.811042 10
9.68248 -28.95461 3.743826 26
2.072557 -44.32076 8.08004 10
3.048213 -9.222695 2.592072 88
12.70483 -37.20975 0.2262353 33
7.428857 -31.02285 0 14
4.160145 -28.7501 -0.1518953 10
1.18314 -22.54704 -0.2635701 9
19.6232 -57.3647 1.787645 32
nan nan nan 0
7.102861 -48.43979 0.8367835 13
2.285633 -42.10448 0.5147022 8
nan nan nan 0
0.1320941 -0.3954447 -0.0985705 44
2.195839 -6.456265 -0.9419912 24
2.709506 -8.19488 -0.8136542 36
3.274184 -9.785245 -0.6593009 77
2.237856 -9.44483 -0.6759402 24
1.305542 -9.251753 -0.7027991 31
0.4496072 -9.078306 -0.7392632 37
4.901974 -14.32666 -0.6144998 26
3.300671 -13.63079 -0.652168 15
nan nan nan 0
0.5999833 -11.01469 -0.6395351 17
6.78582 -20.06497 -0.3690311 27
4.288682 -17.99599 -0.4285873 9
2.356158 -16.4803 -0.4842088 11
0.8020947 -15.56466 -0.5374352 9
0.3030577 -5.428121 -0.9788463 23
0.3633554 -7.503634 -0.8408549 18
2.29381 -46.95572 1.886595 7
12.79755 -38.11032 2.33683 33
2.032278 -46.79091 3.806178 10
3.251698 -9.849128 1.26866 15
1.915928 -44.2835 8.071971 10
3.006989 -9.20574 2.584308 46
12.59567 -37.31545 0.2266097 32
7.282649 -30.888 0 14
nan nan nan 0
1.101265 -22.48611 -0.2628101 9
19.49811 -57.65536 1.794575 41
nan nan nan 0
6.921699 -48.38016 0.8353297 13
2.150029 -42.33689 0.517451 7
nan nan nan 0
0.1307129 -0.3959033 -0.0985705 48
2.171706 -6.459198 -0.9413031 27
2.676237 -8.190096 -0.81224 40
3.23373 -9.777668 -0.6580207 90
2.201473 -9.438013 -0.6748939 23
1.269848 -9.231556 -0.7009159 30
0.4183674 -9.089778 -0.7400774 35
4.840718 -14.31056 -0.6130769 27
3.251911 -13.63737 -0.651935 16
nan nan nan 0
0.5650545 -11.08651 -0.6436012 16
6.737946 -20.15491 -0.3702528 32
4.213273 -17.95732 -0.4273107 9
2.297926 -16.48347 -0.4840631 11
0.747759 -15.56736 -0.5374352 9
0.2841082 -5.429146 -0.9788463 20
0.3371606 -7.504857 -0.8408549 17
2.126052 -46.8786 1.883184 10
12.70534 -38.27793 2.344381 30
1.866754 -46.74295 3.801719 9
3.209589 -9.836833 1.265613 26
1.75939 -44.24077 8.063004 10
2.974837 -9.216179 2.584308 71
12.49225 -37.43982 0.2270993 31
7.214359 -31.0837 0 16
3.657577 -26.58413 -0.1402977 16
1.019604 -22.4199 -0.2619915 10
19.28723 -57.69464 1.793691 70
nan nan nan 0
6.749325 -48.37926 0.8349021 12
1.989751 -42.07946 0.5142136 10
nan nan nan 0
0.1293302 -0.3963572 -0.0985705 48
2.147581 -6.462041 -0.9406151 24
2.63997 -8.175709 -0.809883 36
3.177842 -9.722507 -0.65354 83
2.162929 -9.421333 -0.6731499 23
1.237616 -9.235932 -0.7009159 33
0.3878877 -9.121057 -0.7425199 27
4.803423 -14.36527 -0.6147031 20
3.203146 -13.64378 -0.6517021 15
1.697469 -12.23585 -0.6453023 16
0.5296317 -11.15822 -0.6476672 14
6.565519 -19.86979 -0.3645808 25
4.137061 -17.91347 -0.4259181 9
2.239702 -16.48643 -0.4839174 11
0.6931936 -15.56488 -0.5372624 9
0.2651552 -5.430104 -0.9788463 18
0.3109617 -7.505988 -0.8408549 17
1.960527 -46.84081 1.881378 9
nan nan nan 0
1.701589 -46.69439 3.79726 10
3.170657 -9.833809 1.263785 32
1.603351 -44.20239 8.054935 11
2.951468 -9.25411 2.592072 98
12.36932 -37.50694 0.2272432 32
7.131428 -31.22081 0 17
3.543515 -26.43815 -0.1394599 18
0.9396701 -22.38335 -0.2615238 9
19.0716 -57.71889 1.792363 86
nan nan nan 0
6.562903 -48.27374 0.8326786 12
nan nan nan 0
nan nan nan 0
0.1279458 -0.3968062 -0.0985705 49
2.125011 -6.469498 -0.9406151 24
2.606868 -8.170649 -0.8084687 35
3.142349 -9.728794 -0.6532199 76
2.12783 -9.419096 -0.6724523 27
1.196999 -9.175924 -0.6960197 36
0.3543252 -9.077538 -0.7388561 30
4.748541 -14.36772 -0.6140932 29
3.1555 -13.65488 -0.6517021 14
1.647398 -12.18727 -0.6424238 16
0.4902453 -11.15003 -0.6470863 15
nan nan nan 0
4.063423 -17.87906 -0.4247575 9
2.18214 -16.49416 -0.4839174 11
0.6384516 -15.55722 -0.536917 10
0.246199 -5.430997 -0.9788463 19
0.284759 -7.507028 -0.8408549 17
1.794911 -46.79246 1.879171 9
3.194782 -9.867836 0.6011978 25
1.536787 -46.64526 3.792801 10
3.140837 -9.858999 1.265613 32
1.447441 -44.15856 8.04597 11
2.846452 -9.034077 2.527368 99
3.223297 -9.903044 0.05975538 22
7.054208 -31.38698 0 15
3.446035 -26.4107 -0.1392505 19
0.8596213 -22.33654 -0.2609391 10
3.223982 -9.887733 0.3056824 11
nan nan nan 0
4.104276 -30.99481 0.5341389 17
nan nan nan 0
nan nan nan 0
0.12656 -0.3972504 -0.0985705 53
2.100883 -6.472167 -0.939927 26
2.58133 -8.189194 -0.8094116 36
3.114448 -9.758714 -0.6545001 71
2.085191 -9.382647 -0.6693133 25
1.170601 -9.224564 -0.6994094 34
0.3219408 -9.058796 -0.7372278 34
nan nan nan 0
3.107817 -13.66581 -0.6517021 15
1.606148 -12.20285 -0.6429472 15
0.4549115 -11.24145 -0.6523142 19
3.193743 -9.905894 -0.1809814 29
3.988985 -17.83947 -0.4234809 9
2.123914 -16.49671 -0.4837717 12
0.5839571 -15.55437 -0.5367442 9
0.2272398 -5.431823 -0.9788463 21
0.2585528 -7.507976 -0.8408549 17
1.629655 -46.74352 1.876964 10
3.155747 -9.864669 0.6003265 26
1.372494 -46.60053 3.788748 11
3.115358 -9.898301 1.269269 25
1.290423 -44.06501 8.028038 15
2.8149 -9.043959 2.527368 113
3.182576 -9.895198 0.05964019 35
6.92193 -31.30889 0 17
nan nan nan 0
0.7806054 -22.30942 -0.2605883 9
3.186378 -9.889416 0.3053874 36
nan nan nan 0
4.00053 -31.04365 0.5347376 26
1.525178 -41.44847 0.5062725 13
nan nan nan 0
0.1266891 -0.4022835 -0.09983423 50
2.076761 -6.474746 -0.9392389 25
2.552729 -8.198154 -0.8094116 37
3.08788 -9.793317 -0.6561004 74
2.063087 -9.438593 -0.6728011 24
1.138394 -9.228593 -0.6994094 38
0.2890655 -9.020019 -0.7339711 35
3.194741 -9.903456 -0.4217952 84
3.060095 -13.67657 -0.6517021 15
1.559741 -12.17866 -0.6413772 16
0.4131202 -11.17313 -0.6482481 18
3.154586 -9.902693 -0.1807197 35
3.917021 -17.80935 -0.4224364 9
2.065696 -16.49907 -0.4836259 11
0.5294904 -15.55131 -0.5365714 9
0.2082778 -5.432583 -0.9788463 19
0.2321935 -7.503866 -0.8402959 17
1.464919 -46.69897 1.874957 10
3.121294 -9.875625 0.6003265 23
1.208532 -46.55521 3.784694 10
9.158096 -29.42111 3.778559 32
1.135969 -44.04466 8.023555 10
nan nan nan 0
3.140432 -9.882426 0.0594962 39
6.828539 -31.40614 0 15
nan nan nan 0
0.7013207 -22.26704 -0.2600621 8
3.141207 -9.867147 0.3043552 35
10.61774 -48.50299 1.151836 14
3.899599 -31.11695 0.5357637 24
1.39325 -41.8383 0.5109761 10
nan nan nan 0
0.1252841 -0.4027233 -0.09983423 53
2.052648 -6.477236 -0.9385508 23
2.524096 -8.207016 -0.8094116 36
3.058134 -9.818325 -0.6570605 68
2.033274 -9.460367 -0.6738475 23
1.110318 -9.267164 -0.7020458 36
0.2578563 -9.030936 -0.7347853 36
3.143435 -9.862196 -0.4195592 97
3.011262 -13.68229 -0.6514692 15
nan nan nan 0
0.373293 -11.14956 -0.6467959 15
3.121503 -9.918413 -0.1808069 36
3.835801 -17.73498 -0.4203475 10
2.007489 -16.50122 -0.4834802 10
0.4750521 -15.54807 -0.5363987 9
0.1893133 -5.433278 -0.9788463 20
0.2059988 -7.504631 -0.8402959 18
1.300653 -46.65886 1.873151 10
3.095744 -9.915043 0.6020691 25
1.044904 -46.50933 3.780641 11
nan nan nan 0
0.9806907 -43.9795 8.011003 10
2.664546 -8.776916 2.447134 48
3.105917 -9.893328 0.0594962 37
nan nan nan 0
nan nan nan 0
0.6226189 -22.23437 -0.2596528 9
3.112753 -9.89712 0.3049451 35
10.4389 -48.49577 1.150791 31
3.801226 -31.21474 0.5372176 29
1.24883 -41.89788 0.511648 10
nan nan nan 0
0.125362 -0.4077625 -0.1010979 47
2.028542 -6.479638 -0.9378628 30
2.491084 -8.201489 -0.8079973 41
3.016495 -9.805099 -0.6554602 80
2.000239 -9.467406 -0.6738475 27
1.076238 -9.256125 -0.7009159 32
0.2264527 -9.036762 -0.7351924 31
3.115002 -9.892167 -0.4203723 96
2.963484 -13.69272 -0.6514692 16
nan nan nan 0
0.3326051 -11.09092 -0.6433107 18
3.088349 -9.934022 -0.1808942 38
3.770751 -17.73359 -0.4199993 10
1.94929 -16.50316 -0.4833345 11
0.4207762 -15.54964 -0.5363987 9
0.1703464 -5.433905 -0.9788463 18
0.1798014 -7.505304 -0.8402959 17
1.136563 -46.61317 1.871145 11
nan nan nan 0
0.8816099 -46.46286 3.776587 10
nan nan nan 0
0.2004322 -10.42647 1.893591 18
2.625556 -8.75841 2.439369 47
nan nan nan 0
6.55461 -31.19372 0 15
2.753095 -23.67003 -0.1245636 12
0.5439112 -22.19142 -0.2591266 9
3.085613 -9.931784 0.3056824 33
nan nan nan 0
3.570202 -30.19516 0.51943 21
1.100478 -41.82201 0.5106707 8
nan nan nan 0
0.1239379 -0.4081976 -0.1010979 54
2.004445 -6.481948 -0.9371747 25
2.455276 -8.186299 -0.8056403 38
2.976438 -9.796474 -0.65418 70
1.96312 -9.454797 -0.6724523 30
1.04002 -9.225144 -0.6982795 34
0.1953246 -9.057427 -0.7368208 31
3.099778 -9.964985 -0.4230149 96
2.916709 -13.70787 -0.6517021 14
nan nan nan 0
0.2941481 -11.102 -0.6438916 16
3.058064 -9.959076 -0.181156 10
3.705757 -17.73197 -0.4196512 10
1.889967 -16.49497 -0.4828974 11
0.3664953 -15.55101 -0.5363987 9
0.1513775 -5.434467 -0.9788463 19
0.1536019 -7.505886 -0.8402959 18
0.9728084 -46.56691 1.869138 10
nan nan nan 0
0.7186536 -46.41583 3.772534 10
nan nan nan 0
0.1651562 -10.50089 1.90704 40
2.594967 -8.767522 2.439369 41
nan nan nan 0
6.433547 -31.15765 0 16
2.819398 -25.00111 -0.1315274 22
0.465407 -22.14319 -0.2585419 9
nan nan nan 0
nan nan nan 0
3.499513 -30.51041 0.5246466 22
nan nan nan 0
nan nan nan 0
0.1225123 -0.4086277 -0.1010979 56
1.980356 -6.48417 -0.9364865 29
2.415356 -8.156644 -0.801869 39
2.940788 -9.802026 -0.65386 64
1.92312 -9.427383 -0.6700109 30
1.00349 -9.189067 -0.6952664 37
0.1641419 -9.082968 -0.7388561 33
3.063504 -9.970969 -0.4228116 16
2.868842 -13.71796 -0.6517021 14
nan nan nan 0
0.2560674 -11.1329 -0.6456342 17
6.149308 -20.25866 -0.3688566 33
3.637802 -17.71542 -0.4189548 10
1.831275 -16.49153 -0.4826059 11
0.3122099 -15.55219 -0.5363987 10
0.1322917 -5.430044 -0.977954 20
0.1273199 -7.501409 -0.8397368 16
0.8093042 -46.51508 1.866931 10
nan nan nan 0
0.5560362 -46.36822 3.768481 10
nan nan nan 0
0.130916 -10.70798 1.944697 26
2.584704 -8.846052 2.458781 44
nan nan nan 0
nan nan nan 0
nan nan nan 0
0.3873325 -22.0997 -0.2580157 9
nan nan nan 0
10.03258 -49.10197 1.162629 11
3.348274 -30.11997 0.5177197 22
0.7954271 -41.14886 0.5023631 13
nan nan nan 0
0.1210852 -0.4090528 -0.1010979 59
1.956276 -6.486303 -0.9357985 25
2.391068 -8.179356 -0.8032832 35
2.919332 -9.855283 -0.6567405 65
1.895104 -9.458491 -0.6717548 27
0.9677476 -9.157804 -0.69263 39
0.1324354 -9.083486 -0.7388561 31
4.388824 -14.45555 -0.6130769 18
2.82094 -13.72789 -0.6517021 14
nan nan nan 0
0.2172047 -11.13372 -0.6456342 17
6.092921 -20.32788 -0.3697292 34
3.571986 -17.7084 -0.4184906 9
1.772097 -16.48292 -0.4821688 11
0.2579207 -15.55319 -0.5363987 9
0.1133365 -5.430472 -0.977954 20
0.1011344 -7.501807 -0.8397368 17
0.6462424 -46.46766 1.864924 11
nan nan nan 0
0.3937601 -46.32005 3.764427 32
15.34852 -52.50677 6.711954 26
nan nan nan 0
2.544423 -8.822541 2.449722 58
nan nan nan 0
6.250071 -31.37343 0 17
2.665799 -25.21908 -0.1325746 17
0.3092228 -22.03093 -0.2571972 10
nan nan nan 0
9.861116 -49.13669 1.162629 16
3.245254 -30.15136 0.5180618 26
0.6548487 -41.34634 0.5047454 9
nan nan nan 0
0.1196566 -0.4094731 -0.1010979 55
1.933622 -6.493093 -0.9357985 28
2.363884 -8.192434 -0.8037546 37
2.912971 -9.961183 -0.6631414 60
1.869786 -9.5042 -0.674545 33
0.9474033 -9.275209 -0.7012925 37
0.1003621 -9.04901 -0.7360066 33
4.322536 -14.41815 -0.6108409 25
2.773993 -13.74255 -0.651935 14
nan nan nan 0
0.178417 -11.1394 -0.6459246 19
6.030446 -20.37778 -0.3702528 33
3.504321 -17.69135 -0.4177943 9
1.713517 -16.47906 -0.4818774 11
0.2035647 -15.549 -0.5362259 9
0.09429924 -5.425915 -0.9770617 19
0.07494755 -7.502114 -0.8397368 17
0.4835217 -46.41968 1.862918 12
nan nan nan 0
0.2318514 -46.27629 3.760779 8
nan nan nan 0
nan nan nan 0
nan nan nan 0
nan nan nan 0
6.1338 -31.3607 0 16
2.574705 -25.19839 -0.1324175 17
0.2321641 -22.01687 -0.2570218 9
nan nan nan 0
9.686638 -49.15611 1.162281 15
3.176718 -30.51554 0.5241334 26
0.506671 -41.03343 0.500897 11
nan nan nan 0
0.1182265 -0.4098882 -0.1010979 57
1.909545 -6.495052 -0.9351104 26
2.33664 -8.205422 -0.804226 37
2.880955 -9.980876 -0.6637815 58
1.853637 -9.598818 -0.6808231 36
0.9169741 -9.298309 -0.7027991 40
0.06880931 -9.054289 -0.7364137 33
4.272181 -14.43315 -0.6108409 30
2.726005 -13.75215 -0.651935 14
nan nan nan 0
0.140554 -11.22481 -0.650862 16
5.962082 -20.40831 -0.3704273 33
3.436817 -17.67403 -0.417098 9
1.654986 -16.47499 -0.4815859 11
0.1492874 -15.54961 -0.5362259 9
0.07535869 -5.426212 -0.9770617 18
0.04875983 -7.502331 -0.8397368 17
0.3211438 -46.37112 1.860911 18
nan nan nan 0
0.07025293 -46.23196 3.757131 10
16.35341 -57.42846 7.326785 13
0.01785172 -9.951245 1.806622 42
2.639791 -9.397968 2.605014 78
10.57962 -36.2934 0.2175096 18
nan nan nan 0
2.4676 -25.01316 -0.1313965 20
0.1550713 -21.98255 -0.2566125 9
nan nan nan 0
9.503598 -49.13073 1.160888 13
3.06518 -30.47671 0.5232783 25
0.365616 -41.28492 0.5039513 9
nan nan nan 0
0.116795 -0.4102984 -0.1010979 55
1.886861 -6.501678 -0.9351104 27
2.307983 -8.213529 -0.804226 39
2.857054 -10.02926 -0.666342 68
1.849864 -9.762044 -0.6919842 28
nan nan nan 0
0.03711655 -9.029556 -0.7343782 36
4.22458 -14.45756 -0.6112474 28
