# .PCD v0.7 - Point Cloud Data file format
VERSION 0.7
FIELDS x y z intensity
SIZE 4 4 4 4
TYPE F F F F
COUNT 1 1 1 1
WIDTH 1603
HEIGHT 1
VIEWPOINT 0 0 0 1 0 0 0
POINTS 1603
DATA ascii
-32.08282 -33.21905 1.853286 18
nan nan nan 0
-19.56358 -20.04171 2.274789 39
-17.17033 -31.61269 4.412279 8
-8.269697 -8.47355 2.150912 41
-5.229407 -9.548801 2.906538 34
-12.85872 -24.03 0.1567463 11
nan nan nan 0
-13.57428 -16.904 -0.1133063 15
-13.93917 -14.43722 -0.2342196 20
-21.61716 -40.45641 1.352198 7
-23.33072 -35.3123 0.9817005 10
-23.51506 -29.39635 0.6432586 9
-20.25905 -21.05995 0.3565532 10
nan nan nan 0
-0.2058749 -0.3791463 -0.1023617 14
-3.046568 -5.677295 -0.8896966 25
-3.923381 -7.16433 -0.7698131 27
-4.871158 -8.971608 -0.6522598 62
-5.314948 -7.978385 -0.6675694 24
-5.919834 -7.318754 -0.7080719 18
-6.450947 -6.641683 -0.7531041 15
-5.897384 -11.03754 -0.5075772 72
-6.357638 -9.645655 -0.5368739 14
nan nan nan 0
-7.663756 -7.968781 -0.6409873 9
-8.001296 -14.84843 -0.293724 35
-8.649166 -13.01966 -0.3619723 33
-9.172632 -11.38289 -0.4250488 42
-9.609353 -9.934308 -0.4764533 38
-3.909774 -4.076146 -1.017215 46
-5.392609 -5.539752 -0.8654544 18
-32.24736 -33.15699 1.856095 17
nan nan nan 0
-19.25603 -19.58954 2.231012 19
-17.29964 -31.58739 4.417154 9
-8.237132 -8.381511 2.134773 41
-5.213723 -9.441681 2.879362 35
-12.96625 -24.02897 0.1570343 9
-13.49757 -20.2125 0 15
-13.62063 -16.84097 -0.1132015 19
-14.09407 -14.49599 -0.2359736 25
nan nan nan 0
-23.45384 -35.23065 0.9817005 9
-23.70849 -29.42697 0.6457385 9
-25.39135 -26.2095 0.4453708 8
nan nan nan 0
-0.2071971 -0.3784253 -0.1023617 13
-3.066367 -5.666626 -0.8896966 27
-3.950768 -7.154951 -0.7702845 27
-4.880899 -8.915147 -0.6493793 81
-5.362218 -7.988777 -0.6700109 25
-5.951645 -7.305776 -0.7088252 20
-6.477578 -6.622684 -0.7535112 14
-5.888522 -10.92891 -0.5035117 80
-6.440994 -9.698302 -0.5410665 13
nan nan nan 0
-7.684576 -7.934812 -0.6404064 8
nan nan nan 0
-8.716801 -13.02262 -0.3629007 29
nan nan nan 0
-9.650948 -9.907859 -0.4767988 35
nan nan nan 0
-5.415394 -5.524441 -0.8660135 19
-20.53902 -20.97429 1.177467 13
nan nan nan 0
-19.28222 -19.47971 2.226148 33
-17.43138 -31.56591 4.422638 10
-8.262877 -8.349213 2.133877 38
-5.178575 -9.30102 2.841833 40
-13.07394 -24.02749 0.1573222 10
-13.63502 -20.26483 0 19
nan nan nan 0
-13.79121 -14.08598 -0.2300684 21
-21.87045 -40.25181 1.350429 6
-23.57667 -35.14856 0.9817005 9
-23.85517 -29.39839 0.6469358 9
-20.47891 -20.99315 0.3578359 16
nan nan nan 0
-0.206236 -0.3734335 -0.1010979 12
-3.088497 -5.660237 -0.8903847 26
-3.978138 -7.145467 -0.7707559 28
-4.897535 -8.871839 -0.647459 87
-5.390071 -7.970011 -0.6700109 27
-5.983438 -7.292664 -0.7095785 21
-6.507653 -6.607129 -0.7543253 14
-5.8051 -10.68435 -0.4931447 98
-6.502578 -9.717274 -0.5433956 13
nan nan nan 0
nan nan nan 0
-7.883892 -14.38878 -0.2856959 30
-8.801328 -13.05014 -0.3645255 31
nan nan nan 0
-9.695975 -9.884809 -0.4773171 39
-3.505506 -3.604801 -0.9047859 113
-5.438138 -5.509037 -0.8665726 19
-20.60509 -20.89536 1.177065 30
nan nan nan 0
-19.37121 -19.43345 2.22858 32
-17.55836 -31.53523 4.426904 10
-8.531675 -8.56061 2.195741 107
-5.163769 -9.198635 2.815951 35
-13.18177 -24.02555 0.1576102 9
-13.69446 -20.20055 0 13
-13.74738 -16.75706 -0.1132801 16
-13.74199 -13.93809 -0.2284313 19
-22.02762 -40.20591 1.351461 6
-23.7384 -35.12403 0.9833252 9
-23.9703 -29.33042 0.6472778 9
-20.55557 -20.9251 0.357897 45
nan nan nan 0
-0.2052425 -0.3684531 -0.09983423 11
-3.108236 -5.649422 -0.8903847 28
-4.00549 -7.135879 -0.7712272 29
-4.923624 -8.845966 -0.6468189 75
-5.409436 -7.938781 -0.6689646 27
-6.012034 -7.275576 -0.7099552 18
-6.534188 -6.58791 -0.7547324 14
-5.861547 -10.69908 -0.4947709 97
-6.525291 -9.677949 -0.542464 14
nan nan nan 0
-7.680296 -7.820458 -0.635469 11
-7.912326 -14.32179 -0.2849105 30
-8.886154 -13.07722 -0.3661503 28
nan nan nan 0
-9.737447 -9.858011 -0.4776626 42
nan nan nan 0
-5.46084 -5.493542 -0.8671317 18
nan nan nan 0
nan nan nan 0
-19.43893 -19.36572 2.22858 37
-17.6829 -31.49971 4.43056 9
-8.993784 -8.961097 2.306918 104
-5.181586 -9.155327 2.808187 33
-13.28975 -24.02314 0.1578982 10
-13.8523 -20.28063 0 16
nan nan nan 0
-14.16758 -14.26957 -0.2346873 36
-22.21616 -40.21627 1.35441 6
-19.98137 -29.34315 0.8232868 14
-24.10748 -29.28903 0.6482185 10
-20.6531 -20.8781 0.3583246 18
nan nan nan 0
-0.2019063 -0.359234 -0.09730678 10
-3.130336 -5.642871 -0.8910728 26
-4.032823 -7.126187 -0.7716987 26
-4.878845 -8.693793 -0.6368974 100
-5.44558 -7.932187 -0.6700109 28
-6.043774 -7.262209 -0.7107084 18
-6.560669 -6.568584 -0.7551395 14
-5.881962 -10.64794 -0.493348 105
-6.539392 -9.626189 -0.5408335 14
nan nan nan 0
-7.749688 -7.836169 -0.6389542 9
-7.891762 -14.1674 -0.2823799 39
-8.976921 -13.11212 -0.3680071 28
nan nan nan 0
-9.789426 -9.841668 -0.4785264 39
-4.059672 -4.115643 -1.041307 34
-5.4835 -5.477956 -0.8676907 18
nan nan nan 0
-22.40001 -40.01964 2.666182 9
-19.43908 -19.23117 2.220878 38
-17.8123 -31.47235 4.435435 9
-9.147446 -9.050682 2.338298 32
-5.215904 -9.14138 2.809481 34
-13.39787 -24.02028 0.1581862 10
-13.94852 -20.26922 0 13
nan nan nan 0
-14.15365 -14.1564 -0.2336349 29
nan nan nan 0
-20.12327 -29.33094 0.8249117 16
-24.24467 -29.24703 0.6491593 9
nan nan nan 0
nan nan nan 0
-0.2008337 -0.3542849 -0.09604306 10
-3.152428 -5.636234 -0.8917609 27
-4.060138 -7.116392 -0.7721701 26
-4.997535 -8.833098 -0.6484192 81
-5.459054 -7.892617 -0.668267 23
-6.07229 -7.244888 -0.711085 20
-6.59063 -6.552667 -0.7559537 14
-5.940955 -10.66663 -0.4951774 99
-6.598338 -9.640403 -0.5429298 13
nan nan nan 0
-7.808711 -7.840887 -0.6415681 11
-7.892237 -14.05258 -0.2806347 30
-8.985745 -13.02721 -0.3664984 37
nan nan nan 0
-9.837872 -9.821554 -0.4792174 43
nan nan nan 0
-5.509649 -5.465775 -0.8688089 17
nan nan nan 0
-22.39976 -39.6934 2.649627 68
-19.42787 -19.08638 2.211961 28
-17.93434 -31.43153 4.438481 10
nan nan nan 0
-5.250188 -9.127305 2.810775 41
-13.50859 -24.02131 0.1585029 9
-14.06476 -20.28615 0 15
-13.86429 -16.54321 -0.1128088 16
-14.11073 -14.01533 -0.2321148 20
-22.445 -39.96867 1.351314 39
nan nan nan 0
-24.38186 -29.20444 0.6500999 9
nan nan nan 0
nan nan nan 0
-0.1973888 -0.3451138 -0.0935156 8
-3.172083 -5.625196 -0.8917609 28
-4.084954 -7.102176 -0.7721701 29
-5.015987 -8.793922 -0.6468189 82
-5.480868 -7.865328 -0.6675694 22
-6.103976 -7.231266 -0.7118383 18
-6.617011 -6.53312 -0.7563608 14
-5.926826 -10.55433 -0.4909087 97
-6.680139 -9.687219 -0.5468894 14
nan nan nan 0
-7.864324 -7.841763 -0.6438916 11
-7.894468 -13.94227 -0.2789767 31
-8.971271 -12.90956 -0.3640613 34
nan nan nan 0
-9.907595 -9.82232 -0.4809449 40
-4.084824 -4.083725 -1.040415 34
-5.532236 -5.449994 -0.869368 19
nan nan nan 0
-22.75041 -39.98811 2.674604 50
-19.53719 -19.0602 2.216825 14
-18.06127 -31.39886 4.442747 10
-8.974416 -8.756548 2.278227 24
-5.284437 -9.113102 2.812069 36
-13.62194 -24.02621 0.1588485 10
-14.27863 -20.4419 0 21
-13.93485 -16.51 -0.1129136 20
-14.16313 -13.9695 -0.2321732 20
-22.66562 -40.03362 1.35618 57
-24.34647 -34.96146 0.9881995 8
-24.51904 -29.16124 0.6510406 10
nan nan nan 0
nan nan nan 0
-0.1938824 -0.3359711 -0.09098815 10
-3.194143 -5.618395 -0.892449 33
-4.112215 -7.092181 -0.7726415 24
-4.999438 -8.694149 -0.6407381 71
-5.50256 -7.837982 -0.6668718 19
-6.135641 -7.217512 -0.7125916 20
-6.643336 -6.51347 -0.7567679 15
-5.990684 -10.58141 -0.4931447 96
-6.716762 -9.667945 -0.5471223 14
nan nan nan 0
-7.884552 -7.807243 -0.6433107 11
-7.935657 -13.9016 -0.2787149 29
-9.044943 -12.91912 -0.3652218 34
nan nan nan 0
-9.927571 -9.773659 -0.4802539 38
nan nan nan 0
-5.554781 -5.434122 -0.869927 18
nan nan nan 0
nan nan nan 0
nan nan nan 0
-18.19067 -31.36996 4.447621 10
-8.870626 -8.595159 2.244157 97
-5.6401 -9.649307 2.984184 65
-13.73548 -24.03061 0.1591941 9
-14.46786 -20.55959 0 15
-13.9503 -16.41173 -0.1125732 16
-14.07246 -13.78358 -0.229893 17
nan nan nan 0
-24.50568 -34.92946 0.9897082 8
-24.65946 -29.12126 0.6520668 10
-22.61861 -22.23471 0.3870346 3
nan nan nan 0
-0.1926843 -0.3310747 -0.08972443 10
-3.216195 -5.611511 -0.893137 29
-4.139455 -7.082083 -0.773113 29
-5.044756 -8.702553 -0.6426583 94
-5.524128 -7.810582 -0.6661743 18
-6.164041 -7.199837 -0.7129682 23
-6.673177 -6.497189 -0.7575819 14
-6.030057 -10.56478 -0.493348 103
-6.741878 -9.632163 -0.5464236 13
nan nan nan 0
-7.908195 -7.776175 -0.6430203 9
-8.171039 -14.19885 -0.2852596 34
-9.130313 -12.94466 -0.3668466 37
nan nan nan 0
-9.958054 -9.735455 -0.4800811 39
nan nan nan 0
-5.580848 -5.421618 -0.8710452 19
nan nan nan 0
nan nan nan 0
nan nan nan 0
nan nan nan 0
-8.900576 -8.564142 2.244157 110
-5.629653 -9.554642 2.96089 41
-13.85172 -24.03884 0.1595685 10
-14.44123 -20.37028 0 17
-14.04977 -16.41231 -0.1129136 16
-14.03087 -13.64725 -0.2284313 22
nan nan nan 0
-24.60726 -34.81514 0.9888958 9
-24.79665 -29.07684 0.6530075 9
-22.53506 -21.99849 0.3842858 4
nan nan nan 0
-0.1914544 -0.3261909 -0.08846071 9
-3.235763 -5.60025 -0.893137 31
-4.166675 -7.07188 -0.7735844 26
-5.10277 -8.732295 -0.6461788 75
-5.557145 -7.799376 -0.6668718 17
-6.192392 -7.182052 -0.7133448 19
-6.702985 -6.480779 -0.7583961 14
nan nan nan 0
nan nan nan 0
-7.09208 -8.30354 -0.5702002 15
-7.93529 -7.748523 -0.6430203 11
-8.215538 -14.16159 -0.285085 29
-9.204391 -12.95346 -0.3680071 30
nan nan nan 0
-10.01349 -9.721511 -0.4811176 38
-3.958469 -3.875679 -0.9975845 58
-5.603317 -5.405551 -0.8716043 19
nan nan nan 0
nan nan nan 0
-22.46765 -21.46343 2.524076 18
-18.52005 -31.43036 4.474433 5
nan nan nan 0
-5.717185 -9.626313 2.98936 47
-13.96819 -24.04655 0.1599428 9
-14.68949 -20.56795 0 21
-14.07759 -16.32909 -0.1126779 16
-14.29065 -13.80306 -0.2318809 24
nan nan nan 0
-24.77502 -34.79417 0.9907527 10
-24.94685 -29.04699 0.6542903 10
-22.45733 -21.77009 0.3816591 4
nan nan nan 0
-0.1901928 -0.3213196 -0.08719698 9
-3.257781 -5.593202 -0.8938252 27
-4.193874 -7.061574 -0.7740558 29
-5.085146 -8.632718 -0.6400979 88
-5.569797 -7.759668 -0.6651279 19
-6.220694 -7.164156 -0.7137215 20
-6.729163 -6.460791 -0.7588032 14
nan nan nan 0
-6.736662 -9.483056 -0.5406007 15
nan nan nan 0
-7.951534 -7.710357 -0.642149 10
-8.184209 -13.99471 -0.2822927 39
-9.200097 -12.85215 -0.3660342 42
-9.158781 -10.58719 -0.4069802 43
-10.04377 -9.68303 -0.4809449 37
nan nan nan 0
-5.625742 -5.389394 -0.8721634 18
nan nan nan 0
-22.84892 -38.88755 2.622036 17
-22.53159 -21.37459 2.522859 27
-18.67526 -31.44233 4.485401 6
-9.249307 -8.77591 2.31678 104
-5.686304 -9.498528 2.955714 35
-14.06972 -24.02786 0.1601444 10
nan nan nan 0
nan nan nan 0
-14.28822 -13.70465 -0.2310624 28
nan nan nan 0
-24.91381 -34.73185 0.9914491 9
-25.08734 -29.00511 0.6553165 10
-22.33145 -21.49743 0.3782384 5
nan nan nan 0
-0.1913132 -0.3206538 -0.08719698 8
-3.279789 -5.586069 -0.8945132 27
-4.221052 -7.051165 -0.7745272 28
-5.041437 -8.490453 -0.6308165 104
-5.611459 -7.76039 -0.6668718 18
-6.248946 -7.146151 -0.7140981 24
-6.758893 -6.444136 -0.7596174 15
nan nan nan 0
-6.737757 -9.414799 -0.5380386 15
-7.339529 -8.472691 -0.5853776 13
-8.010775 -7.713699 -0.6447629 10
-8.194951 -13.90144 -0.2809837 31
-9.323833 -12.92943 -0.3691677 35
nan nan nan 0
-10.12445 -9.692819 -0.4831907 37
-4.112961 -3.970848 -1.029707 35
-5.651726 -5.376568 -0.8732815 17
nan nan nan 0
-22.95655 -38.7603 2.618841 50
-22.61694 -21.30606 2.524076 25
-18.82823 -31.44934 4.49576 7
-9.527016 -8.976213 2.378645 48
-5.749343 -9.528256 2.971242 35
-14.17891 -24.02166 0.1604324 9
-14.61268 -20.16125 0 15
-14.10896 -16.13632 -0.1120235 14
-14.307 -13.62712 -0.2305946 25
-22.88383 -38.82245 1.328457 41
-25.05246 -34.66899 0.9921454 10
-25.21142 -28.94375 0.6559151 9
-22.26177 -21.28118 0.3757949 7
nan nan nan 0
-0.190003 -0.3158 -0.08593326 8
-3.301786 -5.578851 -0.8952013 28
-4.248209 -7.040651 -0.7749986 28
-5.137609 -8.584158 -0.6391377 64
-5.650257 -7.756885 -0.668267 20
-6.277148 -7.128036 -0.7144747 19
-6.788587 -6.427351 -0.7604316 15
nan nan nan 0
-6.869866 -9.528988 -0.5459577 14
nan nan nan 0
-8.055699 -7.702929 -0.6462151 10
nan nan nan 0
-9.380657 -12.91299 -0.3696319 34
-9.176427 -10.45914 -0.404503 27
-10.2017 -9.698717 -0.4852638 39
-3.693156 -3.541491 -0.9208472 104
-5.666844 -5.353397 -0.8727224 18
-22.371 -21.15538 1.235056 5
-29.24403 -48.98827 3.317334 34
-22.69118 -21.22698 2.524076 15
-18.97378 -31.44292 4.504291 12
-9.145051 -8.556605 2.275537 113
-5.80263 -9.54115 2.981595 98
-14.28568 -24.0107 0.1606916 9
nan nan nan 0
-14.22799 -16.15826 -0.1125209 18
-14.43441 -13.65265 -0.2318809 22
-23.17745 -39.00874 1.3376 13
-25.18803 -34.60154 0.9927257 10
-21.57361 -24.59391 0.5589389 6
-22.21261 -21.08633 0.3737181 7
nan nan nan 0
-0.1886613 -0.3109593 -0.08466953 9
-3.32124 -5.567291 -0.8952013 26
-4.275342 -7.030033 -0.77547 27
-5.149516 -8.536255 -0.6368974 80
-5.6891 -7.753201 -0.6696621 20
-6.308609 -7.11354 -0.715228 20
-6.814615 -6.407028 -0.7608387 14
nan nan nan 0
-6.85027 -9.432199 -0.5417652 15
nan nan nan 0
-8.104266 -7.695374 -0.6479577 10
nan nan nan 0
-9.511269 -12.99716 -0.3729975 27
-9.239357 -10.457 -0.4056688 32
-10.23549 -9.663048 -0.4852638 42
-3.741159 -3.562468 -0.9297702 108
-5.685497 -5.333584 -0.8727224 18
nan nan nan 0
nan nan nan 0
-22.85643 -21.23242 2.534209 17
-19.18139 -31.53763 4.527446 6
-9.095552 -8.451006 2.255812 35
-5.848509 -9.54143 2.988066 44
-14.39511 -24.00357 0.1609796 8
-15.09669 -20.526 0 20
-14.34734 -16.17957 -0.1130183 17
-14.60227 -13.71511 -0.2338103 31
-23.86802 -39.85381 1.369451 12
-25.34117 -34.55774 0.9940023 10
-21.6825 -24.54468 0.5595375 10
-22.17329 -20.90237 0.3718244 14
nan nan nan 0
-0.1872881 -0.3061319 -0.08340581 10
-3.343202 -5.559911 -0.8958894 27
-4.302454 -7.019313 -0.7759414 25
-5.207772 -8.565141 -0.640418 76
-5.725021 -7.74533 -0.6707085 20
-6.336724 -7.095193 -0.7156047 18
-6.844226 -6.389998 -0.7616528 16
-6.424396 -10.72771 -0.5071707 102
-6.948017 -9.496922 -0.5468894 14
-7.417924 -8.384151 -0.5845926 14
-8.149245 -7.684151 -0.6494098 10
-8.489845 -14.06314 -0.2860449 26
-9.538786 -12.93973 -0.3723011 27
-9.275803 -10.42468 -0.4056688 39
-10.28739 -9.644341 -0.4861275 39
-4.125693 -3.900548 -1.022569 44
-5.70408 -5.313705 -0.8727224 18
nan nan nan 0
nan nan nan 0
-22.7802 -21.014 2.51759 17
-19.33026 -31.53395 4.536586 7
-9.58794 -8.84595 2.370575 89
-5.886852 -9.529177 2.990654 102
-14.50467 -23.99597 0.1612675 9
-15.01646 -20.26828 0 17
-14.46701 -16.20024 -0.1135157 17
-14.67931 -13.69132 -0.2342781 35
nan nan nan 0
-25.49431 -34.51331 0.9952788 9
-25.70587 -28.89478 0.6608751 8
-22.12564 -20.71211 0.3698086 37
nan nan nan 0
-0.1858835 -0.3013178 -0.08214208 9
-3.362589 -5.548207 -0.8958894 28
-4.326931 -7.004251 -0.7759414 27
-5.266292 -8.593724 -0.6439385 87
-5.760957 -7.737304 -0.6717548 19
-6.368123 -7.080444 -0.7163579 18
-6.873803 -6.37284 -0.762467 15
-6.327654 -10.48275 -0.4966004 97
-6.883364 -9.339914 -0.5392032 16
-7.463755 -8.376843 -0.585901 13
-8.183309 -7.662478 -0.6499907 11
-8.54148 -14.03769 -0.2861322 30
-9.583897 -12.90636 -0.3723011 30
-9.33215 -10.41457 -0.406543 45
-10.31002 -9.598164 -0.4856092 37
-4.200311 -3.943311 -1.037738 34
-5.686096 -5.260047 -0.8671317 23
nan nan nan 0
nan nan nan 0
-20.55994 -18.83425 2.264655 18
-19.50019 -31.5634 4.550601 6
nan nan nan 0
-5.958341 -9.570087 3.010066 50
-14.61435 -23.9879 0.1615555 9
nan nan nan 0
-14.47666 -16.0976 -0.1131492 12
-14.60961 -13.53132 -0.2324071 27
-24.66771 -40.54448 1.39909 10
-25.65342 -34.47624 0.9967875 10
-25.81992 -28.81977 0.6612172 10
-22.28205 -20.71303 0.3712136 9
nan nan nan 0
-0.1869342 -0.3006672 -0.08214208 9
-3.381935 -5.536436 -0.8958894 28
-4.353981 -6.993332 -0.7764128 30
-5.2753 -8.541316 -0.6413781 78
-5.796906 -7.729118 -0.6728011 22
-6.396146 -7.061866 -0.7167345 21
-6.903343 -6.355553 -0.7632812 14
-6.392749 -10.50756 -0.4988364 99
nan nan nan 0
-7.546314 -8.410193 -0.5900879 12
-8.213663 -7.637264 -0.6502811 11
-8.52774 -13.90549 -0.2840379 30
-9.682775 -12.94488 -0.3743901 28
-9.244542 -10.24466 -0.4011516 28
-10.32144 -9.541771 -0.4845727 41
-3.904314 -3.640397 -0.9610004 98
-5.759345 -5.290547 -0.8755178 20
nan nan nan 0
-23.99076 -38.94027 2.658921 7
-20.64031 -18.77578 2.266277 17
-19.6863 -31.61732 4.568272 12
-9.158071 -8.332135 2.249536 37
-6.00197 -9.5656 3.015242 63
-14.72153 -23.97509 0.1618147 9
nan nan nan 0
-9.269589 -10.23639 -0.07209922 25
-14.74877 -13.56483 -0.2338688 33
nan nan nan 0
-25.85156 -34.49048 0.999805 15
-9.188496 -10.18593 0.2339744 24
-22.2697 -20.55714 0.3698086 6
nan nan nan 0
-0.1879826 -0.3000128 -0.08214208 9
-3.403834 -5.528816 -0.8965775 28
-4.378366 -6.978092 -0.7764128 30
-5.307717 -8.527087 -0.6416981 84
-5.829862 -7.716797 -0.6734987 20
-6.424118 -7.04318 -0.7171112 18
-6.932847 -6.338139 -0.7640954 15
-6.41895 -10.46814 -0.4980233 109
-7.097923 -9.491649 -0.550849 14
-7.515357 -8.317125 -0.5853776 14
-8.24761 -7.615316 -0.650862 10
-8.578852 -13.87989 -0.2841251 27
-9.634667 -12.78723 -0.3707924 32
-9.276884 -10.20863 -0.4010059 30
-10.39887 -9.54622 -0.4866458 39
-4.043462 -3.743608 -0.9922307 62
-5.785123 -5.277103 -0.876636 18
nan nan nan 0
-24.09232 -38.80116 2.655145 15
-20.776 -18.76707 2.273978 14
-19.87039 -31.66612 4.585334 8
-9.154236 -8.270454 2.241467 39
-5.952786 -9.413927 2.973831 47
-14.83143 -23.96608 0.1621027 10
-15.19468 -20.06606 0 16
-9.301895 -10.20027 -0.07207304 36
-14.85142 -13.56382 -0.2347458 33
-24.05962 -38.92994 1.349102 17
-25.95674 -34.38008 0.9992247 7
-9.234081 -10.1649 0.234231 30
nan nan nan 0
nan nan nan 0
-0.1890287 -0.2993548 -0.08214208 9
-3.423112 -5.516901 -0.8965775 28
-4.402698 -6.962765 -0.7764128 31
-5.329502 -8.495823 -0.6407381 80
-5.862803 -7.70434 -0.6741963 18
-6.452039 -7.024383 -0.7174878 18
-6.962312 -6.320594 -0.7649094 14
-6.505316 -10.52644 -0.5018855 90
-7.118995 -9.450855 -0.5499173 16
-7.581316 -8.331458 -0.5882561 13
-8.281504 -7.593223 -0.6514429 10
-8.619325 -13.83713 -0.2838634 27
-9.661115 -12.72963 -0.3700961 24
-9.282093 -10.14301 -0.3996945 23
-10.4469 -9.523321 -0.4873368 38
-4.263124 -3.919068 -1.043091 25
-5.810879 -5.263544 -0.8777542 18
nan nan nan 0
nan nan nan 0
-20.83025 -18.68445 2.272762 18
-20.06832 -31.735 4.605443 8
-9.128105 -8.189203 2.228018 117
-5.931146 -9.307533 2.946655 34
-14.94145 -23.95659 0.1623906 8
-15.24947 -19.99302 0 17
-9.327298 -10.1567 -0.07199451 30
-14.93942 -13.54883 -0.2353889 26
-24.15574 -38.78208 1.34689 8
-26.10684 -34.32906 1.000385 8
-9.289756 -10.15473 0.2347441 25
-22.23518 -20.23966 0.3668765 3
nan nan nan 0
-0.1900725 -0.2986932 -0.08214208 9
-3.444971 -5.50912 -0.8972656 25
-4.429648 -6.951554 -0.7768842 28
-5.359126 -8.477168 -0.6407381 70
-5.895728 -7.691747 -0.6748939 19
-6.483291 -7.009138 -0.7182411 20
-6.991739 -6.302922 -0.7657236 15
-6.560496 -10.53336 -0.5033085 83
-7.188162 -9.473701 -0.5527123 15
-7.66771 -8.367517 -0.5927047 12
-8.311651 -7.567627 -0.6517333 11
-8.733988 -13.91283 -0.2860449 23
-9.714597 -12.70774 -0.3704443 23
-9.37164 -10.16934 -0.4020259 20
-10.50603 -9.510262 -0.488546 41
nan nan nan 0
nan nan nan 0
nan nan nan 0
nan nan nan 0
-20.89907 -18.61494 2.273168 17
-20.26163 -31.7945 4.624332 7
-9.325657 -8.307725 2.269261 104
-5.966207 -9.290837 2.947949 40
-15.04626 -23.93816 0.162621 9
-15.37094 -20.00708 0 17
-9.38646 -10.14977 -0.07217776 8
-14.84913 -13.37284 -0.2332256 21
nan nan nan 0
-26.24779 -34.2655 1.001198 9
-9.362411 -10.16268 0.2356848 15
-22.21295 -20.07812 0.3653494 7
nan nan nan 0
-0.1936581 -0.3021425 -0.08340581 9
-3.46418 -5.497061 -0.8972656 29
-4.456574 -6.940241 -0.7773557 32
-5.394041 -8.466828 -0.6413781 84
-5.925588 -7.675068 -0.6752426 21
-6.511117 -6.990111 -0.7186177 19
-7.021128 -6.285121 -0.7665378 14
-6.642344 -10.58235 -0.5067641 86
-7.218155 -9.444583 -0.5524794 14
-7.591881 -8.226963 -0.5845926 14
-8.349129 -7.548605 -0.6526046 9
-8.884011 -14.04284 -0.2893609 31
-9.764994 -12.68168 -0.3706764 23
-9.54309 -10.28308 -0.4078545 32
-10.57262 -9.503583 -0.4901008 38
nan nan nan 0
nan nan nan 0
nan nan nan 0
-24.93364 -39.23347 2.702486 46
-20.67643 -18.28771 2.241956 18
-20.46632 -31.86975 4.645659 9
-9.269826 -8.2002 2.24864 34
-5.998601 -9.269956 2.947949 33
-15.16183 -23.93618 0.1629666 9
-15.5692 -20.11939 0 17
nan nan nan 0
-14.86963 -13.29761 -0.2328164 17
-24.99222 -39.50798 1.378151 31
-26.40388 -34.22116 1.00259 7
nan nan nan 0
-22.29779 -20.01382 0.3655938 15
nan nan nan 0
-0.1921531 -0.2973589 -0.08214208 9
-3.485999 -5.489117 -0.8979536 27
-4.486176 -6.933003 -0.7782985 29
-5.458578 -8.502552 -0.6455387 70
-5.958465 -7.662213 -0.6759402 22
-6.542301 -6.974612 -0.719371 21
-7.050478 -6.267191 -0.767352 15
-6.673904 -10.55065 -0.5063576 88
-7.193204 -9.344123 -0.548054 15
nan nan nan 0
-8.382859 -7.526082 -0.6531855 10
-8.908802 -13.97379 -0.2885755 31
-9.760194 -12.58431 -0.3688195 29
-9.647185 -10.32273 -0.4107687 31
-10.59081 -9.453316 -0.4894098 38
-3.601301 -3.242892 -0.871771 14
nan nan nan 0
nan nan nan 0
-25.11081 -39.20926 2.706842 50
-20.64277 -18.12994 2.231417 18
-20.64753 -31.90646 4.661502 9
-9.217057 -8.096412 2.228914 56
-6.025652 -9.240868 2.945361 10
-15.28832 -23.95055 0.1634274 9
-15.63626 -20.06098 0 18
-14.66694 -15.63774 -0.1120496 14
nan nan nan 0
-25.08431 -39.34886 1.375644 49
-26.58758 -34.21167 1.005027 7
nan nan nan 0
-22.37124 -19.93919 0.3656548 7
nan nan nan 0
-0.2009085 -0.3089766 -0.08593326 10
-3.505138 -5.476916 -0.8979536 27
-4.513065 -6.921473 -0.7787699 27
-5.439478 -8.40801 -0.6397779 93
-5.991325 -7.649222 -0.6766378 18
-6.570031 -6.955356 -0.7197476 20
-7.079787 -6.249134 -0.7681661 13
-6.694591 -10.502 -0.5051379 95
-7.314513 -9.433437 -0.5548086 15
-7.7515 -8.283117 -0.592443 12
-8.416534 -7.503414 -0.6537664 10
-9.04395 -14.07723 -0.2913679 34
-9.828676 -12.58168 -0.3697479 22
-9.648905 -10.2526 -0.4093116 27
-10.62374 -9.416288 -0.4894098 42
-3.568547 -3.190998 -0.8610635 16
-5.898727 -5.195023 -0.8799905 22
-35.76055 -31.5234 1.913082 17
nan nan nan 0
-20.53313 -17.90714 2.212771 32
-20.82383 -31.93397 4.676126 7
-9.49002 -8.277477 2.288089 46
nan nan nan 0
-15.41239 -23.96012 0.1638593 8
-15.74941 -20.06134 0 17
-14.94804 -15.82633 -0.1137775 17
-15.04837 -13.2695 -0.2341611 17
nan nan nan 0
-26.68836 -34.09504 1.004331 7
nan nan nan 0
-22.44445 -19.86429 0.3657159 5
nan nan nan 0
-0.1916372 -0.2919225 -0.08087836 10
-3.526915 -5.468812 -0.8986418 28
-4.539928 -6.909839 -0.7792413 29
-5.48513 -8.41406 -0.6416981 87
-6.024166 -7.636095 -0.6773353 21
-6.601144 -6.939604 -0.7205009 19
-7.109056 -6.230947 -0.7689803 15
-6.723114 -10.46596 -0.5045281 85
-7.347397 -9.407846 -0.5548086 15
-7.725566 -8.197876 -0.5882561 13
-8.453891 -7.483909 -0.6546376 10
-9.093034 -14.04558 -0.2913679 29
-9.838539 -12.50408 -0.3684714 24
-9.73621 -10.27326 -0.4114974 28
-10.66405 -9.385749 -0.4897553 41
nan nan nan 0
-5.920568 -5.177669 -0.8805496 20
-35.96059 -31.47735 1.917898 31
nan nan nan 0
-20.60305 -17.84188 2.213582 14
-21.06867 -32.06433 4.705984 7
-9.470499 -8.202458 2.276434 36
nan nan nan 0
-15.53399 -23.96492 0.1642625 9
-15.76042 -19.93172 0 16
-15.06523 -15.83926 -0.1142487 16
-15.07202 -13.19714 -0.2338103 32
nan nan nan 0
-26.80102 -33.99382 1.004099 9
-20.06031 -21.17121 0.4982218 10
-22.58878 -19.85182 0.3669376 14
nan nan nan 0
-0.1822494 -0.274937 -0.07582346 9
-3.545984 -5.456467 -0.8986418 30
-4.566766 -6.898101 -0.7797127 29
-5.484358 -8.348971 -0.6381776 85
-6.060092 -7.626736 -0.6783816 19
-6.632227 -6.923719 -0.7212542 19
-7.138286 -6.212634 -0.7697945 14
-6.743329 -10.41726 -0.5033085 98
-7.386365 -9.389994 -0.5552744 15
-7.747259 -8.163618 -0.5877327 13
-8.491216 -7.464236 -0.6555089 9
-9.185688 -14.08076 -0.2927641 35
-9.928691 -12.52843 -0.3702122 17
-9.841031 -10.31152 -0.4144116 19
-10.69675 -9.348467 -0.4897553 41
-4.425526 -3.900419 -1.062722 34
-5.938605 -5.156971 -0.8805496 19
-36.31915 -31.56791 1.931142 16
nan nan nan 0
nan nan nan 0
-21.32564 -32.20992 4.73828 10
-9.44311 -8.121264 2.262985 39
nan nan nan 0
-15.65035 -23.96079 0.1646081 9
-15.914 -19.98219 0 17
-15.02358 -15.68549 -0.1135157 20
-15.06516 -13.09854 -0.2329918 21
nan nan nan 0
-26.97235 -33.96661 1.006072 8
nan nan nan 0
-22.57882 -19.70383 0.3656548 156
nan nan nan 0
-0.1989018 -0.2987166 -0.08340581 8
-3.565009 -5.444056 -0.8986418 27
-4.593576 -6.886261 -0.7801841 32
-5.488701 -8.292316 -0.6352972 75
-6.086677 -7.605536 -0.6783816 20
-6.663279 -6.907702 -0.7220075 20
-7.167473 -6.194191 -0.7706087 14
-6.79056 -10.4104 -0.5041215 97
nan nan nan 0
-7.899919 -8.266459 -0.5971532 12
-8.528505 -7.444392 -0.6563803 10
-9.223804 -14.03189 -0.2924151 35
-10.02848 -12.56402 -0.3723011 20
-9.894284 -10.29512 -0.4151402 27
-10.74819 -9.327439 -0.4906191 41
-4.450229 -3.894658 -1.065399 34
-5.971631 -5.149178 -0.8827859 19
-36.48586 -31.4899 1.934152 15
nan nan nan 0
-22.14101 -18.90435 2.364775 11
-21.45447 -32.16006 4.741936 11
-9.579921 -8.180839 2.288986 75
-23.23675 -34.59669 11.15639 17
-15.76962 -23.96032 0.1649824 9
-16.04622 -20.00453 0 15
-15.05047 -15.60416 -0.1133063 18
-15.24706 -13.16345 -0.2350966 23
nan nan nan 0
-27.12198 -33.91129 1.007232 9
nan nan nan 0
-22.74949 -19.71328 0.3673041 151
nan nan nan 0
nan nan nan 0
-3.58399 -5.431579 -0.8986418 32
-4.62036 -6.874318 -0.7806555 28
-5.476117 -8.210815 -0.6304964 95
-6.116317 -7.588127 -0.6787304 19
-6.6943 -6.891551 -0.7227607 20
-7.196618 -6.17562 -0.7714228 14
-6.859764 -10.43674 -0.5065609 101
nan nan nan 0
-7.93219 -8.24243 -0.5974149 12
-8.565759 -7.42438 -0.6572515 11
-9.272728 -13.99961 -0.2924151 32
-10.00965 -12.45102 -0.36998 23
nan nan nan 0
-10.76554 -9.276821 -0.4899281 39
nan nan nan 0
-5.993344 -5.13153 -0.8833449 18
-36.68281 -31.43711 1.938767 15
nan nan nan 0
-22.0776 -18.7174 2.350994 9
-21.67455 -32.24562 4.7657 7
-9.743534 -8.261814 2.321263 49
nan nan nan 0
-15.93051 -24.02181 0.1657888 8
nan nan nan 0
-15.20588 -15.65553 -0.1140655 18
-15.10309 -12.9475 -0.2321732 27
nan nan nan 0
-27.27154 -33.85534 1.008393 10
-20.36435 -21.04621 0.5002742 14
-22.88639 -19.69243 0.3684036 150
nan nan nan 0
-0.1904064 -0.2811159 -0.07835092 9
-3.605666 -5.423162 -0.8993298 27
-4.647117 -6.862271 -0.7811269 30
-5.507526 -8.195793 -0.6308165 92
-6.145911 -7.570604 -0.6790792 20
-6.728777 -6.878832 -0.7238906 19
-7.225722 -6.156921 -0.772237 14
-6.838263 -10.32524 -0.5022921 98
-7.546856 -9.390001 -0.5599328 14
-7.804519 -8.053361 -0.5856393 14
-8.606763 -7.407452 -0.6584133 9
-9.338182 -13.99211 -0.2929386 33
-10.03103 -12.3888 -0.3691677 28
-10.16826 -10.43336 -0.4235916 42
-10.78646 -9.229445 -0.4894098 40
nan nan nan 0
-6.015008 -5.113793 -0.883904 20
-36.87223 -31.37685 1.942981 13
nan nan nan 0
-22.20381 -18.69156 2.357479 6
-21.86766 -32.28894 4.783371 7
-9.896536 -8.332244 2.350851 104
-23.49675 -34.46156 11.16545 10
-16.08092 -24.06585 0.1664799 9
-16.07189 -19.75239 0 16
-14.92828 -15.26281 -0.1115784 17
-15.24339 -12.9757 -0.2336349 21
nan nan nan 0
-27.41789 -33.79488 1.009437 9
-20.43769 -20.97499 0.5002742 9
-22.99301 -19.64489 0.3690145 153
nan nan nan 0
-0.1913866 -0.2804496 -0.07835092 8
-3.624575 -5.410543 -0.8993298 25
-4.673845 -6.850121 -0.7815983 29
-5.592007 -8.259184 -0.6372175 71
-6.175456 -7.552968 -0.679428 21
-6.759747 -6.862405 -0.7246439 18
-7.254782 -6.138094 -0.7730511 14
-6.915831 -10.36366 -0.5053412 101
-7.585871 -9.371367 -0.5603986 15
-7.87095 -8.065372 -0.5885178 13
-8.643955 -7.387086 -0.6592846 9
-9.403696 -13.98433 -0.2934622 33
-10.16582 -12.46606 -0.3725332 21
-10.19762 -10.39067 -0.4233002 34
-10.82242 -9.194972 -0.4895826 40
-4.513202 -3.867029 -1.070753 34
-6.04042 -5.099171 -0.8850222 19
-37.05786 -31.31244 1.946994 12
-26.22888 -38.83224 2.724268 35
-37.1914 -31.08222 3.93913 6
-19.83523 -29.06794 4.316003 18
-9.940662 -8.310262 2.354437 105
-23.63331 -34.40322 11.17322 11
-16.24857 -24.13401 0.1673439 7
-16.15341 -19.71164 0 18
nan nan nan 0
-15.49483 -13.09663 -0.2367921 24
-26.25011 -39.03948 1.386851 15
-27.56416 -33.7338 1.010482 9
-20.55981 -20.95348 0.5014715 28
-23.13389 -19.62595 0.3701751 137
nan nan nan 0
-0.1923643 -0.2797798 -0.07835092 9
-3.646207 -5.401965 -0.900018 27
-4.700546 -6.837869 -0.7820697 28
-5.55899 -8.148898 -0.6301764 98
-6.208123 -7.539066 -0.6801256 19
-6.790684 -6.845845 -0.7253972 19
-7.287617 -6.122344 -0.7742724 14
-7.002108 -10.4141 -0.5090001 100
-7.586983 -9.306113 -0.5580694 15
nan nan nan 0
-8.68111 -7.366551 -0.6601559 11
-9.466468 -13.97211 -0.2938985 29
-10.10459 -12.30302 -0.3687035 30
-10.12842 -10.24838 -0.4189288 41
-10.81243 -9.12171 -0.4876823 37
-4.541673 -3.86399 -1.074322 32
-6.061993 -5.081244 -0.8855813 18
-37.24732 -31.25032 1.951208 12
-26.52432 -38.97569 2.740823 18
-37.36104 -31.00312 3.945616 8
-19.90284 -28.94944 4.308691 21
-9.905241 -8.22213 2.339195 107
-23.78623 -34.36818 11.18875 10
-16.36639 -24.1268 0.1676894 8
-16.21257 -19.64357 0 21
-15.39716 -15.52384 -0.1142749 17
-15.39872 -12.92358 -0.2346288 25
-26.31895 -38.84829 1.383312 41
-27.71032 -33.67212 1.011526 9
-20.63634 -20.88514 0.501557 24
nan nan nan 0
nan nan nan 0
-0.1960261 -0.2831299 -0.07961464 9
-3.667822 -5.393301 -0.9007061 30
-4.727217 -6.825513 -0.7825412 29
-5.618465 -8.174694 -0.6336969 100
-6.237585 -7.52119 -0.6804744 18
-6.825111 -6.83268 -0.726527 21
-7.316601 -6.103247 -0.7750866 14
nan nan nan 0
-7.581395 -9.233246 -0.5552744 15
nan nan nan 0
-8.722046 -7.349061 -0.6613176 9
-9.534903 -13.9679 -0.2945094 28
-10.09969 -12.20989 -0.3669626 23
-10.17823 -10.22713 -0.4195116 38
-10.86336 -9.099949 -0.488546 41
-4.491196 -3.794197 -1.059153 41
-6.087335 -5.066405 -0.8866994 20
-37.4368 -31.18725 1.955422 12
-20.07597 -29.27761 2.063241 15
-37.53442 -30.92638 3.952507 9
nan nan nan 0
-9.82756 -8.099953 2.31409 37
-23.90881 -34.2889 11.19004 11
-16.47025 -24.09843 0.167891 9
-16.33218 -19.64838 0 17
-15.46539 -15.48415 -0.1143796 19
-15.3938 -12.82816 -0.2338688 28
-20.05671 -29.38104 1.048433 10
-27.86916 -33.62522 1.013035 9
nan nan nan 0
nan nan nan 0
nan nan nan 0
-0.1916126 -0.2744161 -0.07708719 9
-3.689422 -5.384553 -0.9013941 27
-4.753859 -6.813053 -0.7830125 27
-5.590198 -8.072956 -0.627296 96
-6.270195 -7.507029 -0.6811719 19
-6.855994 -6.815843 -0.7272803 22
-7.34554 -6.084023 -0.7759007 14
-7.023978 -10.29067 -0.5053412 106
-7.68359 -9.291415 -0.5603986 14
-8.081882 -8.109812 -0.5979383 13
-8.762966 -7.331376 -0.6624793 10
-9.56378 -13.90569 -0.2938985 32
-10.21903 -12.26674 -0.3697479 26
-10.3094 -10.28685 -0.4234459 38
-10.92965 -9.090718 -0.4901008 39
-4.568537 -3.832189 -1.074322 33
-6.112648 -5.05145 -0.8878176 19
-37.64553 -31.13916 1.960639 12
nan nan nan 0
-37.70773 -30.84881 3.959398 9
-22.74794 -32.59914 4.875992 6
-9.88624 -8.090508 2.321263 98
-24.06166 -34.25266 11.20557 10
-16.61947 -24.13552 0.1685534 8
-16.3782 -19.56441 0 17
-15.55126 -15.46179 -0.1146152 18
-15.35758 -12.70744 -0.232641 22
-20.15348 -29.30261 1.048138 7
-28.028 -33.57762 1.014544 9
nan nan nan 0
nan nan nan 0
nan nan nan 0
-0.189855 -0.2697411 -0.07582346 9
-3.711005 -5.37572 -0.9020822 25
-4.777612 -6.796418 -0.7830125 29
-5.646871 -8.094332 -0.6304964 95
-6.30278 -7.492731 -0.6818694 19
-6.886841 -6.798874 -0.7280336 23
-7.374434 -6.064672 -0.7767149 14
-7.04854 -10.24962 -0.5045281 109
-7.783087 -9.345143 -0.5652899 15
-8.085379 -8.056883 -0.5961065 13
-8.796187 -7.30712 -0.6630602 11
-9.57811 -13.8229 -0.2928514 35
-10.265 -12.23483 -0.369864 17
nan nan nan 0
-10.98444 -9.071595 -0.4911374 38
-4.58567 -3.819364 -1.075214 35
-6.130244 -5.030082 -0.8878176 20
-37.80806 -31.05195 1.963448 12
nan nan nan 0
-37.88868 -30.77669 3.967099 10
-22.95291 -32.64946 4.895491 12
-9.868592 -8.018745 2.310504 37
-6.953366 -9.818867 3.213238 22
-15.43287 -22.24489 0.1557096 9
-16.14991 -19.15541 0 14
-15.52329 -15.32663 -0.1140131 18
-15.5023 -12.73624 -0.2341611 24
nan nan nan 0
-28.19007 -33.53315 1.016168 9
nan nan nan 0
nan nan nan 0
nan nan nan 0
-0.1907955 -0.2690768 -0.07582346 8
-3.729747 -5.362733 -0.9020822 29
-4.804181 -6.783764 -0.7834839 30
nan nan nan 0
-6.335344 -7.478297 -0.6825671 18
-6.917654 -6.781772 -0.7287869 19
-7.403282 -6.045192 -0.7775291 13
-7.206539 -10.40159 -0.5132689 98
-7.85096 -9.360018 -0.567852 14
-8.163151 -8.077772 -0.5997701 14
-8.829344 -7.282719 -0.6636411 10
-9.546213 -13.67457 -0.290408 30
-10.31087 -12.20274 -0.36998 22
nan nan nan 0
-11.04309 -9.055367 -0.4923466 36
nan nan nan 0
-6.147764 -5.008653 -0.8878176 18
-23.77512 -19.3907 1.230641 17
-27.14328 -38.71191 2.748665 34
-38.09675 -30.72558 3.977638 8
-23.15277 -32.69065 4.913772 6
-13.89479 -11.20699 3.246541 46
-6.979188 -9.782736 3.209356 12
-15.65933 -22.40402 0.1572071 9
nan nan nan 0
-15.46245 -15.16034 -0.1131754 16
-15.57379 -12.70416 -0.2345704 23
-27.18772 -38.94836 1.40027 7
-28.34248 -33.47651 1.017445 9
nan nan nan 0
-30.20866 -24.73239 0.4765241 10
nan nan nan 0
-0.1917335 -0.2684091 -0.07582346 9
-3.751282 -5.35374 -0.9027703 26
-4.827832 -6.766953 -0.7834839 29
-5.714767 -8.071008 -0.6317766 86
-6.364646 -7.459932 -0.6829159 20
-6.948431 -6.764537 -0.7295401 21
-7.432084 -6.025585 -0.7783432 13
-7.217083 -10.33949 -0.5114394 102
-7.867472 -9.313475 -0.5666873 15
-8.155677 -8.014237 -0.5971532 12
-8.866301 -7.261337 -0.6645124 11
-9.619761 -13.67798 -0.2911934 31
-10.40198 -12.22378 -0.3717209 22
-10.54884 -10.30754 -0.4288373 33
-11.09789 -9.035684 -0.4933831 42
-4.577978 -3.759189 -1.067183 38
nan nan nan 0
-23.81548 -19.28559 1.229237 14
-27.20914 -38.51907 2.741695 43
-38.25824 -30.63601 3.983313 9
nan nan nan 0
-13.54594 -10.84799 3.155986 99
-7.00766 -9.750467 3.206768 17
-15.8583 -22.52094 0.1584166 13
-16.59517 -19.40703 0 16
-15.60125 -15.18998 -0.1138037 18
-15.73851 -12.74724 -0.2363829 22
-27.2229 -38.71013 1.395109 41
-28.50781 -33.43443 1.019186 9
nan nan nan 0
-30.38017 -24.69616 0.477868 10
nan nan nan 0
nan nan nan 0
-3.769948 -5.340613 -0.9027703 27
-4.857229 -6.758147 -0.7844268 29
-5.737114 -8.042882 -0.6311365 80
-6.397147 -7.445237 -0.6836134 18
-6.979171 -6.747171 -0.7302934 20
-7.46084 -6.005851 -0.7791574 13
-7.26749 -10.33467 -0.5124558 99
-7.828748 -9.202253 -0.5615631 15
-8.226492 -8.027559 -0.6002934 12
-8.903216 -7.239786 -0.6653837 11
nan nan nan 0
-10.38605 -12.11907 -0.3696319 26
-10.5166 -10.20454 -0.4260688 34
-11.17212 -9.03143 -0.4952834 35
-4.621597 -3.768029 -1.074322 34
-6.190333 -4.971829 -0.8889357 18
-23.90602 -19.22112 1.230441 7
nan nan nan 0
-38.42736 -30.5519 3.989798 14
-23.42387 -32.58867 4.922912 5
-13.48744 -10.72414 3.133571 42
-7.021838 -9.698555 3.197709 41
-15.89055 -22.40019 0.1579558 14
-16.73133 -19.42855 0 18
-15.60026 -15.0833 -0.113411 18
-15.71666 -12.63898 -0.2353889 27
nan nan nan 0
-28.63085 -33.3423 1.019418 9
-22.38229 -21.72264 0.5328562 5
-30.52455 -24.63706 0.4787843 6
nan nan nan 0
-0.2019125 -0.2789626 -0.07961464 9
-3.791434 -5.331459 -0.9034584 27
-4.883707 -6.745185 -0.7848982 29
-5.750607 -8.00254 -0.6295363 94
-6.429623 -7.430407 -0.6843109 18
-7.009876 -6.729673 -0.7310467 20
-7.489548 -5.98599 -0.7799716 14
-7.338155 -10.35817 -0.5148951 99
-7.864071 -9.178662 -0.5617961 15
-8.268809 -8.012691 -0.6013401 12
-8.936205 -7.214931 -0.6659646 10
-9.909522 -13.88318 -0.29704 32
-10.32706 -11.96543 -0.3660342 32
-10.57375 -10.18857 -0.4269431 36
-11.20748 -8.995503 -0.4954562 39
-4.634722 -3.751874 -1.074322 34
-6.005533 -4.789246 -0.8598636 39
-24.00811 -19.1656 1.232247 6
nan nan nan 0
-14.74464 -11.64352 1.524903 26
-23.54621 -32.51877 4.92474 8
-13.50548 -10.66176 3.129088 42
-7.081248 -9.709115 3.209356 43
-15.92795 -22.28763 0.1575526 15
-16.76629 -19.33225 0 15
-15.71774 -15.09108 -0.1138822 18
-15.87401 -12.67448 -0.2370845 22
nan nan nan 0
-28.79938 -33.30265 1.021275 9
-22.36798 -21.55765 0.5307183 6
-23.9577 -19.20056 0.3746343 7
nan nan nan 0
-0.2112363 -0.2901255 -0.08340581 9
-3.810021 -5.318192 -0.9034584 26
-4.913083 -6.736144 -0.785841 28
-5.880836 -8.123939 -0.6407381 87
-6.458797 -7.411678 -0.6846597 18
-7.044151 -6.715481 -0.7321765 20
-7.518208 -5.966001 -0.7807858 13
-7.46128 -10.45453 -0.5209934 77
-7.886276 -9.13981 -0.5610974 15
-8.318318 -8.004549 -0.6029102 12
-8.973023 -7.193055 -0.6668358 10
-9.937502 -13.82008 -0.2964291 33
-10.38188 -11.9444 -0.3664984 20
-10.50452 -10.05141 -0.4227174 34
-11.25054 -8.965666 -0.4959744 35
-4.448247 -3.575579 -1.027922 49
-6.065088 -4.80215 -0.8660135 32
-38.76714 -30.72246 1.985119 11
-26.48897 -36.678 2.630168 5
-14.64005 -11.47825 1.509905 89
-23.78824 -32.61281 4.951551 8
-13.59296 -10.65399 3.140743 42
nan nan nan 0
-16.09035 -22.34959 0.1583878 9
-16.74158 -19.16816 0 18
-15.72327 -14.99127 -0.1135419 17
-15.83586 -12.55379 -0.2358567 22
nan nan nan 0
-28.98767 -33.28485 1.023828 9
-22.32029 -21.36192 0.5278107 6
-30.87189 -24.56342 0.4815331 13
nan nan nan 0
-0.2038551 -0.2775462 -0.07961464 8
-3.831456 -5.308878 -0.9041464 28
-4.942457 -6.72698 -0.7867839 26
-5.885655 -8.071095 -0.6381776 75
-6.491208 -7.396586 -0.6853573 20
-7.078414 -6.701132 -0.7333065 20
-7.542904 -5.942802 -0.7811928 13
-7.512301 -10.44871 -0.5220097 83
-7.921408 -9.115996 -0.5613303 15
-8.364262 -7.992709 -0.6042186 13
-9.001985 -7.164796 -0.6671263 11
-9.994478 -13.79746 -0.2966909 33
-10.50251 -11.99836 -0.3692837 16
-10.63013 -10.10074 -0.4263602 37
-11.28177 -8.926339 -0.4959744 41
nan nan nan 0
nan nan nan 0
-38.96838 -30.66108 1.989935 10
-26.15294 -35.94752 2.584279 12
-14.56595 -11.33834 1.49815 48
-24.10465 -32.80555 4.993596 8
-13.67666 -10.64271 3.151502 42
-7.958597 -10.75454 3.574291 32
nan nan nan 0
-16.97348 -19.29733 0 14
-15.7283 -14.89161 -0.1132015 17
-15.91102 -12.52316 -0.2363244 22
nan nan nan 0
-21.54631 -24.56594 0.7577164 7
-22.24976 -21.14613 0.52439 7
-31.0673 -24.54226 0.4832435 11
nan nan nan 0
-0.2104452 -0.2847067 -0.08214208 9
-3.852873 -5.29948 -0.9048345 26
-4.968866 -6.713689 -0.7872552 28
-5.955119 -8.106821 -0.6426583 70
-6.52029 -7.377621 -0.6857061 18
-7.109029 -6.683211 -0.7340598 19
-7.571456 -5.922573 -0.782007 14
-7.539942 -10.41028 -0.5213999 89
nan nan nan 0
-8.363132 -7.935973 -0.6021252 14
-9.030856 -7.136423 -0.6674168 10
-10.0308 -13.74633 -0.2963418 34
-10.61704 -12.04413 -0.3718369 17
-10.6944 -10.09101 -0.4275259 32
-11.32072 -8.893075 -0.4963199 38
-4.685333 -3.712289 -1.076999 40
-6.2905 -4.909348 -0.8934084 22
-39.13817 -30.57407 1.993145 11
-25.9744 -35.44128 2.554365 37
-14.63305 -11.30875 1.500988 37
-8.210623 -11.0871 1.689109 39
-13.67869 -10.56785 3.143433 58
-7.947044 -10.66085 3.552291 38
nan nan nan 0
-17.1634 -19.37646 0 15
nan nan nan 0
-16.29745 -12.73528 -0.2414111 24
-25.95921 -35.57637 1.298229 13
-21.63855 -24.49808 0.7579485 10
-22.218 -20.96883 0.52191 8
-31.24327 -24.50462 0.4846484 11
nan nan nan 0
nan nan nan 0
-3.871348 -5.285999 -0.9048345 28
-4.995244 -6.700295 -0.7877266 27
-5.968552 -8.065922 -0.641058 60
-6.552634 -7.362269 -0.6864037 21
-7.139606 -6.66516 -0.734813 18
-7.596021 -5.899162 -0.7824141 14
-7.567406 -10.37178 -0.5207901 74
nan nan nan 0
-8.496181 -8.006021 -0.6097139 13
-9.043926 -7.095618 -0.6665454 11
-9.91002 -13.48158 -0.2913679 37
-10.65902 -12.007 -0.3718369 16
-10.74415 -10.06728 -0.4281088 31
-11.31228 -8.822787 -0.4945924 38
-4.659568 -3.665528 -1.068076 21
-6.252582 -4.844792 -0.8855813 17
-39.30783 -30.48625 1.996356 9
-26.15131 -35.42269 2.559592 48
-14.50238 -11.12721 1.483558 44
-8.32342 -11.15784 1.704343 29
-13.60618 -10.43625 3.118329 43
-8.010296 -10.66781 3.563938 38
-16.77682 -22.79608 0.1627938 18
-16.96801 -19.02165 0 15
-15.74051 -14.69615 -0.112547 17
-16.27859 -12.6293 -0.2404756 18
-26.00333 -35.3768 1.294247 45
-29.48412 -33.14756 1.02905 7
-22.16338 -20.7715 0.518917 14
-31.4233 -24.46912 0.4861145 11
nan nan nan 0
-0.2067503 -0.2753962 -0.07961464 8
-3.892713 -5.276441 -0.9055226 28
-5.021589 -6.6868 -0.7881981 30
-5.990711 -8.037034 -0.640418 71
-6.581621 -7.343065 -0.6867524 18
-7.170142 -6.646975 -0.7355663 18
-7.624464 -5.878693 -0.7832283 14
-7.600606 -10.34128 -0.5205868 76
-8.019748 -9.036283 -0.5615631 16
-8.513137 -7.966081 -0.6089288 13
-9.104094 -7.091595 -0.6691593 9
-10.04325 -13.56345 -0.2938985 33
nan nan nan 0
-10.77557 -10.02631 -0.427963 40
-11.32325 -8.767957 -0.4937287 34
-4.625776 -3.612943 -1.057368 49
-6.245814 -4.804777 -0.8822268 31
-37.88591 -29.17249 1.918902 14
-26.26884 -35.32317 2.559012 49
-14.44993 -11.00709 1.474235 42
nan nan nan 0
-13.70907 -10.43933 3.133571 33
-7.232145 -9.560933 3.201591 22
-16.84736 -22.72532 0.1627074 18
-17.11783 -19.0553 0 14
-15.86872 -14.7125 -0.1130968 16
nan nan nan 0
-26.27236 -35.48265 1.301473 58
-29.62633 -33.07422 1.029979 9
-22.12596 -20.59184 0.5163514 14
-31.58368 -24.41738 0.4872751 10
nan nan nan 0
nan nan nan 0
-3.911108 -5.26282 -0.9055226 26
-5.044899 -6.669231 -0.7881981 28
-6.009748 -8.004099 -0.6394578 55
-6.613896 -7.327453 -0.68745 24
-7.196969 -6.625282 -0.7359429 22
-7.660773 -5.864149 -0.7848566 14
-7.544558 -10.19017 -0.5142853 82
nan nan nan 0
-8.562841 -7.956707 -0.6104989 11
-9.152493 -7.078084 -0.670902 12
-10.30266 -13.81289 -0.3000941 39
-9.267832 -10.29384 -0.3206571 15
-10.8876 -10.05985 -0.4310231 27
-11.2983 -8.685761 -0.4913101 40
-4.49052 -3.482346 -1.023461 98
nan nan nan 0
-39.67848 -30.33244 2.004382 6
-26.08379 -34.81974 2.529097 38
-14.25369 -10.77931 1.45032 17
-25.70987 -33.98574 5.227585 7
nan nan nan 0
-7.192341 -9.439558 3.169239 50
-16.91462 -22.65035 0.1625922 30
-9.278689 -10.25538 0 24
-15.78754 -14.53511 -0.1121543 15
nan nan nan 0
-26.07938 -34.96603 1.285842 39
-9.151448 -10.14302 0.3162471 30
-22.1206 -20.44323 0.5145556 11
-31.72822 -24.35263 0.4881913 11
nan nan nan 0
-0.2143999 -0.2817407 -0.08214208 9
-3.932419 -5.253103 -0.9062107 28
-5.071163 -6.655542 -0.7886695 27
-6.025619 -7.967146 -0.6381776 58
-6.642787 -7.308013 -0.6877988 18
-7.223732 -6.603482 -0.7363195 24
-7.697073 -5.849424 -0.7864849 13
-7.615902 -10.21185 -0.5167246 80
-8.04589 -8.939233 -0.5590011 15
-8.590563 -7.926768 -0.6104989 11
-9.196946 -7.061282 -0.6723541 9
-10.23976 -13.62893 -0.2968654 32
-9.286922 -10.24291 -0.3200769 28
-10.83426 -9.940705 -0.4275259 31
-11.26895 -8.600817 -0.4887188 41
-4.451936 -3.42768 -1.011861 102
-6.192055 -4.695074 -0.869927 45
-39.83586 -30.23301 2.006991 9
-26.2172 -34.74442 2.530259 31
-14.2992 -10.73547 1.451131 9
-7.594739 -9.960763 1.533116 31
-13.97444 -10.48799 3.177503 40
-7.113574 -9.268754 3.120063 40
-17.05067 -22.6671 0.1631394 35
-9.297594 -10.20445 0 31
-15.87509 -14.51365 -0.1124161 16
-16.65689 -12.64551 -0.2441006 28
-26.16826 -34.83082 1.28422 45
-9.243934 -10.17391 0.31822 34
-22.09974 -20.28139 0.5124176 6
-31.86871 -24.28415 0.4890465 11
nan nan nan 0
-0.2067433 -0.2693288 -0.07835092 8
-3.950732 -5.239344 -0.9062107 30
-5.097393 -6.64175 -0.7891409 26
-6.068501 -7.965919 -0.6397779 61
-6.674992 -7.292141 -0.6884964 18
-7.254123 -6.584927 -0.7370728 25
-7.741324 -5.840516 -0.7889274 11
-7.723476 -10.2811 -0.5216032 88
-8.080398 -8.914794 -0.559234 15
-8.629226 -7.906851 -0.6112839 12
-9.245366 -7.04728 -0.6740967 10
-10.236 -13.52532 -0.295382 39
-9.29903 -10.18459 -0.3192645 27
-10.96126 -9.986965 -0.4311688 29
-11.39452 -8.63382 -0.4928649 32
-4.436493 -3.391231 -1.005615 58
-6.279899 -4.727167 -0.8799905 45
-39.99701 -30.13585 2.0098 10
-26.74602 -35.18923 2.569467 48
nan nan nan 0
-7.566019 -9.85151 1.52032 28
-14.03069 -10.45383 3.181986 43
-7.187215 -9.297379 3.138181 38
-17.20214 -22.7031 0.1638305 36
-9.333158 -10.17193 0 25
-15.77757 -14.32372 -0.111369 15
-16.62505 -12.53013 -0.2429897 20
-26.57615 -35.1179 1.298229 44
-9.309754 -10.17478 0.3192645 31
-22.04476 -20.08964 0.50951 6
-32.00512 -24.21196 0.4898406 11
nan nan nan 0
-0.204789 -0.2647283 -0.07708719 9
-3.971988 -5.229468 -0.9068988 27
-5.123587 -6.627856 -0.7896123 28
-6.111447 -7.964488 -0.6413781 76
-6.707165 -7.276133 -0.689194 18
-7.284473 -6.56624 -0.7378261 20
-7.753684 -5.807487 -0.7881132 13
-7.726175 -10.21024 -0.5193672 87
-8.195631 -8.97877 -0.565057 15
-8.664161 -7.8834 -0.6118073 12
-9.257964 -7.005935 -0.6732254 11
-10.43766 -13.69232 -0.2998323 32
-9.331143 -10.14839 -0.3191484 17
-10.93304 -9.891648 -0.4286917 35
-11.52046 -8.666051 -0.4970109 34
-4.573802 -3.470776 -1.034169 62
-6.356094 -4.749789 -0.8883767 34
-38.09749 -28.49706 1.90927 32
-26.9415 -35.19078 2.576438 46
nan nan nan 0
-26.18878 -33.87564 5.252568 33
nan nan nan 0
-7.290796 -9.363724 3.169239 35
-17.17514 -22.50378 0.1628226 36
-9.409322 -10.18336 0 6
nan nan nan 0
-16.62865 -12.44208 -0.242405 23
nan nan nan 0
-9.351987 -10.14957 0.3194966 12
-22.11475 -20.01257 0.50951 7
-32.1734 -24.16314 0.4911234 10
nan nan nan 0
nan nan nan 0
-3.993225 -5.219507 -0.9075869 27
-5.149747 -6.613862 -0.7900838 28
-6.151409 -7.958905 -0.6426583 61
-6.742701 -7.263645 -0.6902403 20
-7.318496 -6.550746 -0.7389559 19
-7.773909 -5.780386 -0.7881132 14
nan nan nan 0
-8.139059 -8.854487 -0.5590011 15
-8.695332 -7.856456 -0.612069 12
-9.262402 -6.958593 -0.6717733 11
-10.57973 -13.77875 -0.3025374 35
nan nan nan 0
-11.05302 -9.930237 -0.4320431 26
-11.45852 -8.557051 -0.4930376 36
-4.46006 -3.360176 -1.005615 48
-6.292785 -4.668423 -0.8771951 39
-38.06836 -28.2686 1.902849 40
-27.06417 -35.09653 2.576438 51
nan nan nan 0
-26.3465 -33.83493 5.26049 43
-15.20584 -11.16461 3.431238 16
-7.281735 -9.284995 3.151122 42
-17.25054 -22.43973 0.1627938 34
nan nan nan 0
-16.38386 -14.66673 -0.1149294 17
-16.55958 -12.30052 -0.2407679 23
-26.98804 -35.14956 1.306339 30
nan nan nan 0
-22.15844 -19.91186 0.5089114 11
-32.35376 -24.12239 0.4925895 11
nan nan nan 0
nan nan nan 0
-4.01444 -5.209462 -0.908275 26
-5.175872 -6.599764 -0.7905552 30
-6.188342 -7.949201 -0.6436184 67
-6.778231 -7.250996 -0.6912866 19
-7.352499 -6.535094 -0.7400859 20
-7.794038 -5.753215 -0.7881132 14
-7.772943 -10.12434 -0.517741 96
-8.190269 -8.848019 -0.5603986 15
-8.726418 -7.82939 -0.6123307 13
-9.322659 -6.95306 -0.6743872 11
-10.58191 -13.6824 -0.3012285 34
nan nan nan 0
-11.06897 -9.874959 -0.4313145 26
-11.50438 -8.528898 -0.4937287 33
-4.507244 -3.371073 -1.013646 95
-6.27702 -4.62288 -0.8727224 38
-38.07833 -28.07034 1.898434 36
-27.21101 -35.03339 2.578761 55
-15.39823 -11.22741 1.546792 25
-7.913742 -10.08417 1.569068 13
-15.13339 -11.03037 3.406133 16
-7.445747 -9.426333 3.208062 14
-17.46954 -22.56125 0.1641185 25
nan nan nan 0
nan nan nan 0
-16.59034 -12.23374 -0.2405925 18
-27.13809 -35.09072 1.307666 44
nan nan nan 0
-22.23154 -19.83772 0.508997 6
-32.53824 -24.08366 0.4941166 10
nan nan nan 0
nan nan nan 0
-4.035633 -5.199332 -0.9089631 28
-5.201961 -6.585564 -0.7910265 30
-6.222206 -7.935407 -0.6442586 67
-6.813756 -7.238189 -0.692333 18
-7.382743 -6.515986 -0.7408392 19
-7.822116 -5.73186 -0.7889274 14
-7.835726 -10.13272 -0.5195704 97
-8.336877 -8.94361 -0.5683178 14
-8.727596 -7.775635 -0.6104989 13
-9.366938 -6.935318 -0.6758393 11
-10.66645 -13.69272 -0.3022757 35
-10.96275 -11.67554 -0.3709085 21
-11.02854 -9.769989 -0.4284002 34
-11.41331 -8.399875 -0.488546 34
-4.839154 -3.592579 -1.085922 38
-6.248974 -4.568715 -0.8665726 40
-38.05109 -27.8458 1.892214 35
-27.36696 -34.98144 2.581956 53
-15.45348 -11.18527 1.548413 29
-7.785877 -9.850067 1.536772 35
nan nan nan 0
-7.487622 -9.411628 3.211944 31
-17.57586 -22.53563 0.1643777 30
nan nan nan 0
-16.71078 -14.7505 -0.1165002 17
-16.82662 -12.31745 -0.2433989 22
-27.3249 -35.07859 1.310763 47
nan nan nan 0
-22.27446 -19.73679 0.5083983 7
-32.70269 -24.02913 0.4953383 11
nan nan nan 0
-0.2143592 -0.2695161 -0.07961464 8
-4.056804 -5.189117 -0.9096511 24
-5.228014 -6.571263 -0.7914979 28
-6.246777 -7.909722 -0.6439385 65
-6.845841 -7.221601 -0.6930305 18
-7.412944 -6.496747 -0.7415923 20
-7.854172 -5.713308 -0.7901487 14
-7.932413 -10.18417 -0.5236359 75
-8.368044 -8.914454 -0.5683178 14
-8.814528 -7.798049 -0.6146858 13
-9.41523 -6.920306 -0.6775819 10
-10.77588 -13.73409 -0.3040209 34
-11.02747 -11.66263 -0.3717209 19
-11.06258 -9.731433 -0.4284002 32
-11.49503 -8.398288 -0.4907919 38
-4.784297 -3.526105 -1.070753 47
-6.36949 -4.622679 -0.8811086 35
-37.98232 -27.59244 1.883987 31
-27.51052 -34.91314 2.583989 59
-14.62209 -10.50632 1.461264 38
