# .PCD v0.7 - Point Cloud Data file format
VERSION 0.7
FIELDS x y z intensity
SIZE 4 4 4 4
TYPE F F F F
COUNT 1 1 1 1
WIDTH 1619
HEIGHT 1
VIEWPOINT 0 0 0 1 0 0 0
POINTS 1619
DATA ascii
41.1921 -30.24981 -1.185607 14
5.871629 -5.20512 -0.2276058 9
4.56261 -4.84564 -0.2287252 14
5.409698 -5.704934 -1.418747 38
6.330634 -6.77352 -1.038769 18
4.590803 -4.899505 0.2680804 36
20.04465 -12.11242 1.360392 9
4.573386 -4.933873 0.5439713 36
94.70013 -57.81142 13.61829 7
4.563766 -4.925214 1.216668 44
nan nan nan 0
18.53349 -11.16017 0.1243776 247
56.02599 -41.3535 0 9
5.771539 -5.134418 -0.04023838 8
4.57022 -4.877592 -0.0777029 35
20.0265 -12.04446 0.6883383 8
nan nan nan 0
5.817965 -5.155898 0.1322947 9
4.56921 -4.857931 0.08099871 39
nan nan nan 0
0.3058045 -0.1878221 -0.08340581 9
8.926408 -5.38482 -1.442919 25
12.3258 -7.580067 -1.366619 10
16.52292 -10.07999 -1.238909 10
14.22166 -10.54869 -1.235387 9
5.688356 -5.097627 -0.5739903 10
4.597083 -4.938828 -0.5479341 10
nan nan nan 0
18.58019 -13.64094 -1.073049 18
5.854956 -5.197741 -0.4082204 12
4.608893 -4.901845 -0.3891812 8
18.46559 -11.18958 -0.3761866 146
41.26308 -30.52421 -1.190714 10
5.752779 -5.135693 -0.2236715 12
4.549078 -4.865191 -0.228898 15
5.389751 -5.723782 -1.418747 37
5.594233 -6.026718 -0.9208032 13
4.577074 -4.91916 0.268281 36
nan nan nan 0
4.559507 -4.953476 0.5443766 35
94.65415 -58.23786 13.64084 8
4.549874 -4.944737 1.217565 44
nan nan nan 0
nan nan nan 0
nan nan nan 0
5.656776 -5.067766 -0.03955771 9
4.566777 -4.908167 -0.07793678 29
20.02708 -12.14019 0.6898129 9
nan nan nan 0
5.706703 -5.092936 0.1301568 9
4.559044 -4.881164 0.08112089 40
nan nan nan 0
nan nan nan 0
8.903325 -5.413375 -1.442231 27
12.29927 -7.623045 -1.366619 10
16.47488 -10.12977 -1.237949 9
14.17277 -10.58931 -1.234341 9
5.574314 -5.030578 -0.5641978 12
4.583194 -4.958507 -0.5483412 10
19.48927 -11.80503 -0.9255102 68
18.57664 -13.73838 -1.075611 15
5.736291 -5.128271 -0.4011551 14
4.601965 -4.928856 -0.3900525 11
20.05645 -12.24895 -0.4095207 9
nan nan nan 0
5.627058 -5.058816 -0.2194458 10
4.538861 -4.888369 -0.2292435 14
5.366382 -5.738966 -1.417855 30
5.536146 -6.005997 -0.9146533 12
4.566649 -4.942451 0.2686823 37
94.59443 -58.04212 6.45518 6
4.548906 -4.976725 0.5451873 36
94.58104 -58.64897 13.65973 9
4.539216 -4.967857 1.219358 44
nan nan nan 0
nan nan nan 0
nan nan nan 0
5.531417 -4.990327 -0.03879849 9
4.559786 -4.935103 -0.07811217 18
32.60603 -19.91721 1.126144 9
nan nan nan 0
5.588518 -5.022576 0.1278479 10
4.548771 -4.904385 0.08124305 38
nan nan nan 0
nan nan nan 0
8.875925 -5.439249 -1.440854 26
12.26836 -7.663295 -1.366147 9
16.42245 -10.17671 -1.236669 9
14.11977 -10.62672 -1.232946 9
5.442367 -4.946024 -0.5525221 12
4.586059 -4.99652 -0.5507837 11
19.52044 -11.91723 -0.928966 66
18.57663 -13.83894 -1.078406 15
5.610764 -5.051354 -0.3935664 15
4.577951 -4.937565 -0.3894717 9
19.97099 -12.29268 -0.4086481 9
35.1841 -26.40966 -1.020463 4
5.501942 -4.981125 -0.2152201 10
4.528539 -4.911536 -0.229589 14
5.342971 -5.754056 -1.416963 27
4.764235 -5.203795 -0.7894197 8
4.552743 -4.962046 0.268883 36
nan nan nan 0
4.534853 -4.996266 0.5455927 36
94.53146 -59.07607 13.68227 10
4.52515 -4.987318 1.220255 44
nan nan nan 0
nan nan nan 0
55.98903 -42.23905 0 6
5.421467 -4.925528 -0.038144 9
4.55604 -4.965736 -0.07834604 18
32.61292 -20.07805 1.128798 7
nan nan nan 0
5.470894 -4.951453 0.1255389 10
4.538393 -4.927594 0.08136523 39
nan nan nan 0
nan nan nan 0
8.852671 -5.467599 -1.440166 25
12.23732 -7.703423 -1.365676 10
16.37413 -10.22605 -1.235709 8
14.07067 -10.66691 -1.231899 11
5.336819 -4.884181 -0.5434829 11
4.568589 -5.012497 -0.5507837 9
19.55533 -12.0324 -0.9326248 59
18.56816 -13.93367 -1.080735 16
5.493241 -4.980332 -0.386501 16
4.594468 -4.990263 -0.392376 10
nan nan nan 0
35.27911 -26.674 -1.025917 5
5.395902 -4.919465 -0.211723 9
4.514737 -4.931002 -0.2297617 14
5.31952 -5.769052 -1.41607 17
4.68927 -5.15785 -0.7799153 14
4.538757 -4.981603 0.2690837 37
94.39872 -58.83309 6.469702 13
4.520719 -5.015769 0.545998 37
94.48845 -59.50882 13.70603 9
4.514292 -5.010398 1.222048 45
nan nan nan 0
nan nan nan 0
55.96864 -42.53103 0 10
5.312037 -4.860023 -0.0374895 9
4.545407 -4.989007 -0.07846298 17
32.67005 -20.2708 1.133222 10
nan nan nan 0
5.353837 -4.879572 0.1232299 11
4.53465 -4.958174 0.08160956 32
nan nan nan 0
0.2783851 -0.1769377 -0.07582346 10
8.82512 -5.493237 -1.43879 26
12.21036 -7.746092 -1.365676 9
16.32144 -10.27251 -1.234429 8
14.0056 -10.69477 -1.229458 18
5.23177 -4.821664 -0.5344437 9
4.487586 -4.958161 -0.5430491 8
19.58964 -12.14796 -0.9362838 65
18.59114 -14.05261 -1.084928 16
5.376285 -4.908554 -0.3794357 16
4.553464 -4.980464 -0.390343 7
nan nan nan 0
40.84879 -31.10947 -1.191178 10
5.29036 -4.857126 -0.2082258 11
4.500856 -4.950431 -0.2299345 14
5.29603 -5.783955 -1.415178 16
4.631318 -5.129899 -0.7732064 13
4.528037 -5.004831 0.269485 36
94.34496 -59.25781 6.480157 15
4.506503 -5.035235 0.5464033 36
94.43518 -59.93667 13.72858 10
4.503329 -5.033462 1.223841 44
nan nan nan 0
nan nan nan 0
10.09179 -7.726451 0 38
5.20681 -4.797204 -0.03686118 9
4.531315 -5.008553 -0.07852145 18
32.70081 -20.4483 1.136761 11
10.21504 -7.798291 0.2974463 38
5.237349 -4.806935 0.120921 12
4.527389 -4.985083 0.08179282 21
nan nan nan 0
nan nan nan 0
8.801695 -5.52138 -1.438102 25
12.17486 -7.783308 -1.364733 10
16.27283 -10.32141 -1.233469 10
13.98004 -10.75272 -1.230504 9
5.108956 -4.741509 -0.5235213 9
4.393705 -4.888484 -0.5336862 6
19.63186 -12.2692 -0.9403493 44
18.56582 -14.13557 -1.086325 21
5.267246 -4.842781 -0.3728937 17
4.51929 -4.977836 -0.3888908 8
nan nan nan 0
10.13255 -7.774481 -0.2955894 38
5.181652 -4.790717 -0.204583 10
4.486894 -4.969824 -0.2301073 15
5.269193 -5.795121 -1.413393 16
4.653147 -5.190461 -0.7799153 14
4.513876 -5.024325 0.2696856 37
nan nan nan 0
4.495514 -5.058392 0.547214 36
94.38008 -60.36488 13.75113 9
4.488995 -5.052831 1.224738 43
nan nan nan 0
nan nan nan 0
9.993481 -7.70668 0 5
5.105751 -4.737112 -0.03625905 9
4.517143 -5.028062 -0.07857991 18
32.72649 -20.6236 1.140152 6
nan nan nan 0
5.147128 -4.757305 0.1192106 11
4.523342 -5.015718 0.08203716 25
nan nan nan 0
nan nan nan 0
8.773993 -5.546782 -1.436726 23
12.14343 -7.823063 -1.364262 10
16.22409 -10.37009 -1.232509 9
13.96608 -10.81978 -1.232597 6
4.997691 -4.670774 -0.5137288 10
4.383245 -4.911232 -0.5345004 8
19.66079 -12.3829 -0.943805 74
nan nan nan 0
5.166059 -4.783094 -0.366875 17
4.458475 -4.94535 -0.3851151 8
nan nan nan 0
9.986684 -7.71812 -0.2921079 8
5.073472 -4.723609 -0.2009401 10
4.472851 -4.98918 -0.23028 14
5.245639 -5.809825 -1.412501 16
4.509573 -5.065547 -0.7586703 6
4.499633 -5.043782 0.2698863 35
nan nan nan 0
4.481124 -5.077792 0.5476193 36
94.31479 -60.78805 13.77245 9
4.477832 -5.075852 1.226531 44
nan nan nan 0
nan nan nan 0
9.658483 -7.502322 0 6
4.99787 -4.669546 -0.03560456 16
4.50289 -5.047533 -0.07863838 17
nan nan nan 0
9.709774 -7.520545 0.2842162 4
5.024391 -4.676442 0.1167307 16
4.515804 -5.042659 0.08222042 25
nan nan nan 0
0.276517 -0.1798432 -0.07582346 9
8.750399 -5.574716 -1.436038 21
12.10769 -7.859987 -1.363319 10
16.17521 -10.41856 -1.231548 9
13.94003 -10.87766 -1.233643 4
4.908762 -4.61983 -0.5061961 14
4.369377 -4.930235 -0.5349074 13
19.65963 -12.47821 -0.9458377 57
nan nan nan 0
5.054402 -4.712543 -0.3600714 16
4.444511 -4.964605 -0.3854056 10
nan nan nan 0
9.659869 -7.519619 -0.2832877 7
4.958536 -4.648967 -0.1970058 16
4.458729 -5.008497 -0.2304528 15
5.222045 -5.824435 -1.411609 16
4.478712 -5.066356 -0.756434 3
4.48531 -5.0632 0.270087 37
nan nan nan 0
4.469934 -5.100905 0.5484301 36
94.281 -61.23313 13.79866 10
4.463325 -5.095155 1.227427 44
nan nan nan 0
nan nan nan 0
9.356546 -7.320364 0 8
4.890524 -4.601285 -0.03495006 31
4.491868 -5.070709 -0.07875531 18
nan nan nan 0
9.387837 -7.323839 0.2755121 6
4.931456 -4.622138 0.1149348 23
4.504813 -5.065868 0.08234259 23
nan nan nan 0
0.284072 -0.1859674 -0.07835092 10
8.722548 -5.59988 -1.434662 22
12.07185 -7.896757 -1.362376 11
16.12618 -10.46681 -1.230588 9
10.14482 -7.973919 -0.8995097 17
4.831104 -4.578613 -0.4997934 25
4.447523 -5.054028 -0.5467128 6
19.67068 -12.58175 -0.9484803 71
nan nan nan 0
4.928744 -4.627597 -0.352221 17
4.480169 -5.039821 -0.3900525 9
nan nan nan 0
9.314895 -7.303516 -0.2738874 7
4.865982 -4.594173 -0.1939458 28
4.444525 -5.027776 -0.2306255 14
5.201682 -5.842628 -1.411609 17
4.44135 -5.059538 -0.7530795 13
4.474202 -5.086334 0.2704883 35
nan nan nan 0
4.458639 -5.124001 0.5492407 35
94.22864 -61.66784 13.82242 9
4.451962 -5.118132 1.229221 44
nan nan nan 0
nan nan nan 0
9.012794 -7.102358 0 9
4.820004 -4.56673 -0.03455736 33
4.47744 -5.090115 -0.07881378 18
32.81536 -21.16286 1.150917 6
9.122429 -7.16821 0.2684328 13
4.87531 -4.601568 0.1139941 47
4.490409 -5.085312 0.08240367 23
nan nan nan 0
nan nan nan 0
8.698789 -5.627605 -1.433974 21
12.03174 -7.930633 -1.360962 10
16.07702 -10.51485 -1.229628 9
10.08173 -7.981424 -0.8963706 43
4.822304 -4.602336 -0.5005466 33
4.442958 -5.084544 -0.5483412 7
20.34061 -13.11028 -0.9830371 91
9.363557 -7.339161 -0.5529453 8
4.843642 -4.579577 -0.3472491 33
4.508754 -5.107856 -0.3941186 10
nan nan nan 0
9.030401 -7.13156 -0.2662278 10
4.806462 -4.569795 -0.1921972 32
4.433535 -5.050777 -0.230971 14
5.177999 -5.857062 -1.410717 16
4.462803 -5.119989 -0.7597885 6
4.459703 -5.105686 0.2706889 36
94.22021 -61.49824 6.544343 8
4.447236 -5.147081 0.5500515 36
94.18267 -62.10838 13.8474 10
4.437282 -5.137366 1.230117 44
nan nan nan 0
nan nan nan 0
8.780355 -6.969062 0 15
4.800416 -4.580074 -0.03453118 33
4.466217 -5.113249 -0.07893071 18
32.91313 -21.38891 1.156963 8
8.834704 -6.99221 0.2606572 7
4.808499 -4.570326 0.1127969 34
4.479217 -5.108479 0.08252583 24
nan nan nan 0
0.2746185 -0.182729 -0.07582346 10
8.674941 -5.655233 -1.433285 23
11.99569 -7.967078 -1.360019 10
16.02772 -10.56267 -1.228668 10
nan nan nan 0
4.820585 -4.632965 -0.5020531 34
4.493702 -5.179122 -0.55689 11
20.27796 -13.17032 -0.9822239 98
9.043828 -7.139739 -0.5354764 9
4.798704 -4.568904 -0.3451556 36
4.481035 -5.112295 -0.3932473 14
nan nan nan 0
8.747226 -6.957709 -0.2585682 9
4.790482 -4.586545 -0.1921972 33
4.419158 -5.069991 -0.2311438 14
5.157523 -5.8751 -1.410717 16
4.776259 -5.519009 -0.8168145 22
4.448395 -5.128775 0.2710902 37
93.89653 -61.75545 6.536792 15
4.432484 -5.166358 0.5504568 36
94.13064 -62.54662 13.87178 9
4.422521 -5.15656 1.231014 44
nan nan nan 0
nan nan nan 0
17.06397 -13.63898 0 32
4.7844 -4.596803 -0.03453118 33
4.454886 -5.136367 -0.07904765 17
32.92189 -21.55841 1.159912 9
8.571778 -6.832983 0.2535779 11
4.799738 -4.593999 0.1129679 32
4.464638 -5.127857 0.08258692 25
nan nan nan 0
nan nan nan 0
8.651008 -5.682763 -1.432597 23
11.95953 -8.003368 -1.359076 10
15.98243 -10.61303 -1.228028 10
10.46137 -8.401352 -0.9354343 13
4.807965 -4.653232 -0.5024298 31
4.478846 -5.198555 -0.557297 17
20.25277 -13.2547 -0.9832403 75
8.764709 -6.969256 -0.5203369 6
4.789933 -4.592541 -0.345679 37
4.466436 -5.131673 -0.3935377 5
nan nan nan 0
8.488788 -6.800719 -0.251605 14
4.778039 -4.606708 -0.192343 34
4.4047 -5.089167 -0.2313165 14
5.133753 -5.889357 -1.409824 16
4.744023 -5.520564 -0.8145782 15
4.43698 -5.151849 0.2714916 37
94.10065 -62.36132 6.566126 6
4.420879 -5.189392 0.5512674 35
94.07257 -62.98248 13.89554 10
4.410867 -5.179462 1.232807 45
nan nan nan 0
nan nan nan 0
17.02794 -13.70787 0 101
4.77551 -4.620431 -0.03458354 33
4.443449 -5.159469 -0.07916459 17
nan nan nan 0
8.337361 -6.693908 0.247311 7
4.783672 -4.610725 0.1129679 34
4.449978 -5.147195 0.08264801 24
nan nan nan 0
0.277392 -0.1872786 -0.07708719 9
8.622855 -5.707463 -1.431221 21
11.92326 -8.039503 -1.358133 10
15.93285 -10.66044 -1.227068 9
10.4475 -8.450362 -0.9368293 20
4.795262 -4.673467 -0.5028064 32
4.467145 -5.221736 -0.5581112 12
20.17301 -13.30332 -0.9816141 71
8.518085 -6.821885 -0.5070606 8
4.773873 -4.609233 -0.345679 38
4.448497 -5.147233 -0.3935377 12
nan nan nan 0
8.247116 -6.654564 -0.245106 12
4.769099 -4.630323 -0.1926344 33
4.390162 -5.108304 -0.2314893 15
5.113163 -5.907241 -1.409824 16
4.669946 -5.472794 -0.8050739 15
4.422213 -5.171105 0.2716922 35
93.82427 -62.6506 6.56206 18
4.405953 -5.208599 0.5516728 36
94.02084 -63.42426 13.92053 10
4.395933 -5.198586 1.233703 44
nan nan nan 0
nan nan nan 0
16.98776 -13.77352 0 116
4.762933 -4.640563 -0.03460972 34
4.431904 -5.182552 -0.07928152 18
nan nan nan 0
8.061262 -6.518717 0.2397675 7
4.763962 -4.623912 0.1128824 33
4.438491 -5.170289 0.08277018 25
nan nan nan 0
nan nan nan 0
8.598759 -5.734782 -1.430533 24
11.88689 -8.075483 -1.35719 10
15.88726 -10.71041 -1.226428 9
10.4218 -8.48993 -0.9371781 12
4.782477 -4.693671 -0.5031831 31
4.448891 -5.237298 -0.5581112 12
nan nan nan 0
8.276486 -6.676014 -0.4940172 9
4.764913 -4.632833 -0.3462023 36
4.443493 -5.177892 -0.3946995 11
nan nan nan 0
8.022092 -6.519416 -0.2390712 8
4.75648 -4.650437 -0.1927801 34
4.375546 -5.127401 -0.231662 14
5.089309 -5.92132 -1.408932 15
4.59626 -5.424575 -0.7955695 16
4.410596 -5.194131 0.2720935 35
93.77896 -63.09475 6.574258 13
4.390948 -5.227766 0.5520782 36
93.96305 -63.86364 13.9449 9
4.38408 -5.221438 1.235497 45
nan nan nan 0
nan nan nan 0
16.95894 -13.84854 0 113
4.750273 -4.660663 -0.0346359 34
4.41702 -5.201805 -0.07933999 17
32.99332 -22.10221 1.170529 16
7.844636 -6.38902 0.2339648 7
4.744219 -4.637018 0.1127969 28
4.423656 -5.189558 0.08283126 23
nan nan nan 0
0.2720405 -0.1865454 -0.07582346 9
8.570464 -5.759243 -1.429157 22
11.85041 -8.111306 -1.356247 11
15.84152 -10.7602 -1.225788 9
10.06816 -8.260545 -0.9078804 15
4.769609 -4.713841 -0.5035597 33
4.437002 -5.260419 -0.5589253 13
19.58141 -13.11041 -0.9572212 86
8.032138 -6.525393 -0.4807409 10
4.752279 -4.652931 -0.346464 37
4.444798 -5.216182 -0.3964421 10
nan nan nan 0
7.782638 -6.370117 -0.2325721 7
4.747339 -4.674027 -0.1930715 35
4.364075 -5.150273 -0.2320075 14
5.065417 -5.935305 -1.40804 14
4.532557 -5.387323 -0.7877424 13
4.398873 -5.21714 0.2724949 36
nan nan nan 0
4.375861 -5.246891 0.5524835 36
93.95248 -64.33704 13.97659 8
4.37212 -5.244271 1.23729 44
nan nan nan 0
nan nan nan 0
16.93753 -13.92989 0 102
4.737532 -4.680731 -0.03466208 33
4.405275 -5.224841 -0.07945693 17
33.13554 -22.36541 1.178344 8
7.621286 -6.251554 0.22793 9
4.72088 -4.646535 0.1126258 40
4.411969 -5.212605 0.08295344 25
nan nan nan 0
nan nan nan 0
8.546206 -5.78635 -1.428469 24
11.80973 -8.14415 -1.354833 10
15.79151 -10.80698 -1.224827 9
nan nan nan 0
4.760191 -4.737498 -0.5043129 32
4.425006 -5.283522 -0.5597395 11
19.94146 -13.45239 -0.9771421 89
7.827604 -6.404772 -0.4697939 10
4.743117 -4.676504 -0.3469874 38
4.442669 -5.250731 -0.3978942 9
28.4893 -19.36795 -0.6006246 7
7.579046 -6.247838 -0.2271176 13
4.734542 -4.69409 -0.1932172 34
4.349285 -5.169302 -0.2321803 14
5.038312 -5.94544 -1.406255 16
4.520088 -5.410743 -0.7888606 17
4.38384 -5.236297 0.2726955 35
94.02869 -64.22083 6.623051 5
4.360694 -5.265975 0.5528888 46
93.8744 -64.76605 13.99852 11
4.356921 -5.263293 1.238186 43
nan nan nan 0
nan nan nan 0
16.90421 -14.00168 0 58
4.71762 -4.693712 -0.0346359 37
4.390216 -5.244022 -0.07951538 17
33.15647 -22.54838 1.181883 6
7.433683 -6.141254 0.2229397 16
4.708181 -4.666506 0.1127114 40
4.396961 -5.231804 0.08301453 24
nan nan nan 0
0.2787687 -0.1938266 -0.07835092 9
8.517771 -5.810569 -1.427093 22
11.76896 -8.176807 -1.353419 11
15.74136 -10.85354 -1.223867 9
7.947401 -6.614371 -0.7202355 18
4.747146 -4.757616 -0.5046896 33
4.412902 -5.306604 -0.5605537 12
19.86959 -13.50507 -0.9759224 76
7.600883 -6.26375 -0.4574492 16
4.726765 -4.693032 -0.3469874 36
4.421106 -5.262382 -0.3976038 10
28.56177 -19.56331 -0.6035914 7
7.368711 -6.117834 -0.221431 8
4.718128 -4.710588 -0.1932172 35
4.337615 -5.192127 -0.2325258 14
5.014363 -5.959224 -1.405363 16
4.498004 -5.422661 -0.7883015 15
4.371916 -5.259256 0.2730968 36
93.60656 -64.41284 6.60911 16
4.34861 -5.288868 0.5536996 46
93.80668 -65.2038 14.02229 10
4.344763 -5.286075 1.23998 45
nan nan nan 0
32.6507 -22.39666 0.2278192 3
7.20212 -6.009369 0 7
4.701208 -4.710152 -0.0346359 41
4.375078 -5.263163 -0.07957385 18
93.86295 -64.30018 3.355723 4
7.243101 -6.026527 0.2178333 9
4.6954 -4.686444 0.1127969 40
4.385071 -5.254803 0.08313669 25
nan nan nan 0
0.2740813 -0.1920913 -0.07708719 9
8.493354 -5.837463 -1.426405 24
11.72811 -8.20928 -1.352005 11
15.68699 -10.89704 -1.222587 9
7.775162 -6.517138 -0.706633 12
4.734018 -4.7777 -0.5050662 33
4.397522 -5.32582 -0.5609608 13
19.75224 -13.52638 -0.9724668 98
7.436746 -6.172249 -0.4488313 10
4.706824 -4.705972 -0.3467257 39
4.405905 -5.281618 -0.3978942 10
28.5756 -19.71966 -0.6053367 8
7.209239 -6.028111 -0.217253 9
4.69461 -4.719939 -0.1929258 35
4.32584 -5.214933 -0.2328713 16
4.990379 -5.972913 -1.40447 15
4.472737 -5.430653 -0.7871833 12
4.356709 -5.27834 0.2732975 36
93.8365 -65.05486 6.641348 5
4.333271 -5.307879 0.5541049 47
nan nan nan 0
4.332498 -5.308836 1.241773 44
nan nan nan 0
32.66282 -22.57302 0.2284528 9
7.001158 -5.883322 0 6
4.684737 -4.726533 -0.0346359 41
4.359859 -5.282261 -0.07963232 17
93.74076 -64.6984 3.359409 7
7.04958 -5.907335 0.2126109 15
4.682538 -4.70635 0.1128824 40
4.369889 -5.27393 0.08319778 23
nan nan nan 0
0.2934076 -0.2066531 -0.08340581 9
8.468852 -5.864258 -1.425717 22
11.68718 -8.241568 -1.350591 11
15.63659 -10.94315 -1.221627 9
7.603701 -6.418785 -0.6930305 17
4.720807 -4.797751 -0.5054429 33
4.385217 -5.348851 -0.5617749 12
19.69257 -13.58673 -0.9718569 94
7.231182 -6.044455 -0.4376512 8
4.676298 -4.708199 -0.345679 36
4.390623 -5.300812 -0.3981847 9
28.70364 -19.95624 -0.6095253 7
6.993121 -5.889066 -0.2113343 7
4.674594 -4.732742 -0.1927801 31
4.313957 -5.237721 -0.2332168 14
4.966361 -5.986508 -1.403578 15
4.438988 -5.426214 -0.7843879 4
4.34551 -5.30049 0.2736988 37
93.53343 -65.28077 6.634378 17
4.322846 -5.329212 0.5549155 39
92.28833 -65.03641 13.85776 8
4.322919 -5.329313 1.243566 44
nan nan nan 0
58.65019 -40.76974 0.4111746 7
6.867308 -5.801627 0 8
4.672348 -4.738781 -0.0346359 41
4.353279 -5.30063 -0.07974926 17
93.75486 -65.04691 3.365603 9
6.879346 -5.79136 0.2078527 13
4.675365 -4.720516 0.1129679 39
4.362012 -5.28693 0.08325886 25
nan nan nan 0
nan nan nan 0
8.445295 -5.889479 -1.425028 24
11.64905 -8.269603 -1.349176 11
15.58581 -10.98073 -1.220347 8
7.554204 -6.415493 -0.6902403 23
4.713522 -4.818868 -0.5061961 33
4.376554 -5.368807 -0.5625891 10
19.72844 -13.69293 -0.9755158 89
7.04706 -5.922017 -0.4274029 9
4.639396 -4.695555 -0.3438472 28
4.380828 -5.315379 -0.3984751 9
nan nan nan 0
6.838519 -5.785491 -0.2070403 6
4.661168 -4.738957 -0.1926344 33
4.309309 -5.254477 -0.2335623 15
4.952773 -5.991373 -1.402686 16
4.406613 -5.407746 -0.7804744 6
4.338482 -5.312696 0.2738995 45
93.17986 -65.32467 6.618985 11
4.314804 -5.342134 0.5553209 37
92.12838 -65.23703 13.85594 14
4.313903 -5.342937 1.244462 44
nan nan nan 0
59.91526 -41.86648 0.4207643 17
nan nan nan 0
4.659925 -4.750998 -0.0346359 41
4.341619 -5.316642 -0.07980772 18
93.71222 -65.40572 3.370616 7
6.736233 -5.705164 0.2040229 8
4.664845 -4.73793 0.1130534 40
4.351715 -5.308345 0.08338103 25
nan nan nan 0
nan nan nan 0
8.429914 -5.902843 -1.42434 21
11.61954 -8.285317 -1.347762 11
15.55056 -11.00471 -1.219386 9
7.744559 -6.607397 -0.7090745 23
4.706053 -4.833123 -0.5065728 33
4.369695 -5.38723 -0.5634033 9
19.66623 -13.72109 -0.9740929 95
6.852181 -5.78899 -0.4164558 14
4.630587 -4.711247 -0.3441089 28
4.37229 -5.335319 -0.399056 9
nan nan nan 0
6.680455 -5.685911 -0.2027463 15
4.646257 -4.753577 -0.1926344 30
4.299088 -5.275742 -0.2339078 14
4.92871 -6.00482 -1.401794 15
4.397077 -5.434691 -0.7821516 7
4.323054 -5.331691 0.2741001 47
nan nan nan 0
4.302359 -5.364943 0.5561316 47
92.11018 -65.70808 13.88762 12
4.301374 -5.365644 1.246256 43
nan nan nan 0
59.65018 -41.99191 0.4199291 6
nan nan nan 0
4.646801 -4.770817 -0.03466208 43
4.329325 -5.339536 -0.07992466 17
92.93957 -65.35013 3.351004 6
6.526085 -5.566491 0.1982202 10
4.651772 -4.75776 0.1131389 40
4.336312 -5.327383 0.08344211 25
nan nan nan 0
nan nan nan 0
8.40521 -5.92938 -1.423652 20
11.57842 -8.317119 -1.346348 12
15.50392 -11.05313 -1.218746 9
7.660909 -6.582392 -0.703494 15
4.692619 -4.853106 -0.5069494 33
4.357109 -5.410218 -0.5642174 8
19.55281 -13.74371 -0.9708405 90
6.710183 -5.70933 -0.4090025 9
4.631546 -4.745253 -0.3454173 28
4.359934 -5.358296 -0.3996368 10
50.35268 -35.65841 -1.07629 11
6.523914 -5.592111 -0.1985683 5
4.636596 -4.776941 -0.1929258 32
4.283785 -5.294604 -0.2340806 15
4.907719 -6.021987 -1.401794 15
4.39673 -5.473263 -0.7855061 44
4.307547 -5.350642 0.2743008 47
nan nan nan 0
4.286706 -5.38383 0.5565369 49
92.10596 -66.19138 13.92174 11
4.285678 -5.384477 1.247152 43
nan nan nan 0
59.17696 -41.96851 0.4176253 13
nan nan nan 0
4.633594 -4.790604 -0.03468826 41
4.313792 -5.358512 -0.07998312 17
92.16436 -65.28706 3.331245 15
6.404218 -5.501317 0.1950867 8
4.638618 -4.777556 0.1132245 38
4.323969 -5.350269 0.08356428 24
nan nan nan 0
0.2789626 -0.2019125 -0.07961464 9
8.380423 -5.955817 -1.422964 21
11.54125 -8.351651 -1.345405 12
15.45308 -11.09845 -1.217786 9
6.279843 -5.434378 -0.5779324 13
4.67565 -4.869457 -0.5069494 32
4.32887 -5.413711 -0.5629962 6
19.60666 -13.88403 -0.9759224 81
6.549858 -5.612504 -0.4003845 10
4.614954 -4.761392 -0.3454173 28
4.347472 -5.381253 -0.4002177 9
47.76151 -34.0747 -1.023409 14
6.352974 -5.484228 -0.1939262 11
4.623361 -4.796697 -0.1930715 33
4.268404 -5.313423 -0.2342533 15
4.883577 -6.035256 -1.400901 16
4.386884 -5.500238 -0.7871833 190
4.291959 -5.369551 0.2745014 48
nan nan nan 0
4.274062 -5.406585 0.5573477 47
92.04318 -66.6347 13.94734 11
4.272949 -5.407127 1.248945 43
nan nan nan 0
58.99755 -42.15157 0.417395 6
6.231701 -5.406219 0 6
4.620306 -4.810355 -0.03471444 41
4.301298 -5.381353 -0.08010006 16
92.03762 -65.68095 3.334931 31
6.241293 -5.399397 0.1906767 6
4.625382 -4.797319 0.11331 40
4.311518 -5.373134 0.08368646 25
nan nan nan 0
0.2782561 -0.202885 -0.07961464 10
8.359583 -5.985034 -1.422964 25
11.50398 -8.386024 -1.344462 11
15.40212 -11.14356 -1.216826 8
6.144246 -5.354703 -0.5671201 14
4.662063 -4.889357 -0.507326 33
4.322328 -5.44441 -0.5646245 6
19.62723 -14.00169 -0.9793781 90
6.382728 -5.508106 -0.3913008 12
4.608691 -4.788267 -0.3462023 27
4.328661 -5.396396 -0.4002177 9
nan nan nan 0
6.216826 -5.404729 -0.1903285 15
4.610043 -4.816417 -0.1932172 33
4.252944 -5.332199 -0.2344261 14
4.859401 -6.048429 -1.400009 16
4.376903 -5.52721 -0.7888606 226
4.279395 -5.392332 0.2749028 47
nan nan nan 0
4.261311 -5.429317 0.5581583 41
92.02254 -67.11056 13.97963 10
4.260116 -5.429755 1.250739 44
nan nan nan 0
nan nan nan 0
6.058382 -5.293097 0 10
4.606936 -4.830073 -0.03474062 39
4.285593 -5.400254 -0.08015852 18
92.00665 -66.14476 3.342157 12
6.105548 -5.319386 0.187079 6
4.615521 -4.82066 0.113481 39
4.298961 -5.395976 0.08380862 25
nan nan nan 0
nan nan nan 0
8.334621 -6.011283 -1.422276 25
11.46661 -8.42024 -1.343519 11
15.35506 -11.19137 -1.216186 9
6.009284 -5.274148 -0.5563079 14
4.648395 -4.909222 -0.5077026 33
4.297133 -5.451632 -0.5638103 4
19.5052 -14.01766 -0.9757192 98
6.235263 -5.418988 -0.3833816 10
4.595397 -4.807935 -0.346464 27
4.309798 -5.411473 -0.4002177 9
nan nan nan 0
6.062502 -5.307888 -0.1861506 9
4.596645 -4.836103 -0.193363 32
4.240504 -5.354852 -0.2347716 14
4.835193 -6.061506 -1.399117 16
4.363719 -5.550272 -0.7899787 174
4.266724 -5.41509 0.2753041 48
nan nan nan 0
4.248454 -5.452025 0.558969 35
91.95171 -67.55183 14.00462 9
4.250195 -5.456242 1.253428 43
nan nan nan 0
57.45097 -41.65561 0.4084964 7
5.949759 -5.234965 0 11
4.596923 -4.853386 -0.03479298 42
4.272899 -5.42304 -0.08027546 17
91.9614 -66.60036 3.34894 16
5.970439 -5.238495 0.1834813 10
4.602109 -4.840365 0.1135665 40
4.286297 -5.418797 0.0839308 24
nan nan nan 0
0.268959 -0.1992 -0.07708719 9
8.305571 -6.034522 -1.4209 21
11.43314 -8.457257 -1.343048 11
15.30383 -11.23605 -1.215226 10
5.87496 -5.192717 -0.5454956 14
4.634644 -4.929051 -0.5080793 33
5.373385 -6.868528 -0.7091391 8
19.35497 -14.01244 -0.9706373 85
6.111053 -5.34864 -0.3768599 8
4.58546 -4.831192 -0.3469874 26
4.281603 -5.414731 -0.3993464 9
48.012 -35.01776 -1.036586 15
5.931434 -5.229867 -0.1826689 9
4.586595 -4.85939 -0.1936544 32
4.224871 -5.373553 -0.2349443 14
4.810954 -6.074489 -1.398224 16
4.350426 -5.573308 -0.7910969 156
4.253946 -5.437826 0.2757054 40
91.77527 -67.24996 6.617823 17
4.235488 -5.47471 0.5597797 37
91.91481 -68.01999 14.03508 10
4.237135 -5.478832 1.255221 41
nan nan nan 0
61.38342 -44.83414 0.4375822 10
5.804185 -5.142989 0 10
4.586802 -4.876689 -0.03484534 41
4.260098 -5.445803 -0.0803924 17
91.91006 -67.0535 3.355576 14
5.828478 -5.150109 0.1796515 9
4.588616 -4.860036 0.113652 39
4.273525 -5.441595 0.08405297 27
nan nan nan 0
nan nan nan 0
8.280458 -6.060555 -1.420212 21
11.39557 -8.491169 -1.342105 12
15.25649 -11.28347 -1.214586 9
5.745006 -5.113729 -0.5350321 14
4.620812 -4.948845 -0.5084559 33
5.303561 -6.828177 -0.7030329 11
19.4432 -14.17997 -0.9775487 90
5.972421 -5.264286 -0.3694066 12
4.575415 -4.854438 -0.3475107 28
4.287311 -5.461071 -0.4016699 9
nan nan nan 0
5.800985 -5.150998 -0.1791873 9
4.573021 -4.879018 -0.1938001 31
4.212232 -5.39615 -0.2352899 15
4.786682 -6.087375 -1.397332 16
4.337026 -5.59632 -0.792215 162
4.244123 -5.464486 0.2763074 38
91.61626 -67.62622 6.623341 12
4.222417 -5.497371 0.5605904 47
91.83996 -68.46201 14.06007 11
4.223969 -5.501396 1.257015 42
nan nan nan 0
11.61169 -8.549043 0.0828224 9
5.692911 -5.080016 0 10
4.579988 -4.903635 -0.03492388 40
4.24719 -5.468543 -0.08050933 16
91.84861 -67.50117 3.361916 14
5.713352 -5.08405 0.1766341 10
4.575042 -4.879671 0.1137376 39
4.260647 -5.464369 0.08417513 24
nan nan nan 0
0.2871479 -0.2152665 -0.08340581 10
8.255264 -6.086485 -1.419524 21
11.35391 -8.521935 -1.340691 11
15.20901 -11.3307 -1.213946 9
5.615676 -5.033898 -0.5245687 14
4.610287 -4.972258 -0.5092092 32
5.240167 -6.795321 -0.6977407 11
19.34929 -14.21523 -0.9753126 81
5.815774 -5.162457 -0.3607886 13
4.568675 -4.881319 -0.3482958 27
4.274353 -5.483883 -0.4022507 9
34.64138 -25.64011 -0.7515878 128
5.678615 -5.077944 -0.1759378 11
4.559367 -4.898611 -0.1939458 34
4.199485 -5.418725 -0.2356354 15
4.762379 -6.100167 -1.39644 16
4.323518 -5.619305 -0.7933332 77
4.231118 -5.487185 0.2767087 44
91.73215 -68.2077 6.6489 15
4.212257 -5.523972 0.5618064 42
91.77901 -68.91627 14.08749 6
4.210698 -5.523936 1.258808 43
nan nan nan 0
11.62998 -8.625245 0.08316797 7
5.574709 -5.009646 0 10
4.57304 -4.930593 -0.03500242 35
4.234174 -5.491258 -0.08062626 16
91.76908 -67.93735 3.367667 11
5.57642 -4.997242 0.1729204 11
4.561387 -4.899271 0.1138231 39
4.247661 -5.487119 0.0842973 25
nan nan nan 0
0.2707656 -0.204858 -0.07835092 9
8.226013 -6.109363 -1.418147 21
11.31615 -8.555514 -1.339748 12
15.16138 -11.37773 -1.213306 9
5.501788 -4.966595 -0.5155003 15
4.596278 -4.99199 -0.5095859 32
5.137718 -6.71064 -0.6871566 11
19.30357 -14.28565 -0.9755158 93
5.70833 -5.10286 -0.3551986 15
4.561804 -4.908212 -0.3490808 26
4.267391 -5.514569 -0.4034125 10
34.66791 -25.84751 -0.7541184 168
5.564257 -5.010789 -0.1729204 12
4.549022 -4.921839 -0.1942372 34
4.186633 -5.441277 -0.2359809 15
4.738045 -6.112863 -1.395548 15
4.309903 -5.642264 -0.7944514 180
4.218005 -5.50986 0.27711 47
91.64932 -68.64417 6.660226 32
4.198959 -5.546595 0.5626171 35
10.34345 -7.829344 1.587958 17
4.19732 -5.54645 1.260601 44
nan nan nan 0
11.61984 -8.680744 0.08331196 4
5.460777 -4.94187 0 10
4.569346 -4.961241 -0.03510714 34
4.221052 -5.513949 -0.08074319 16
91.74373 -68.4156 3.375482 14
5.46986 -4.936326 0.1701351 12
4.544257 -4.915164 0.1138231 39
4.23457 -5.509846 0.08441947 23
nan nan nan 0
0.2817407 -0.2143999 -0.08214208 9
8.20067 -6.135075 -1.417459 18
11.27434 -8.58592 -1.338334 11
15.11361 -11.42457 -1.212666 9
5.388439 -4.898557 -0.5064319 16
4.585551 -5.015364 -0.5103391 33
5.011821 -6.593573 -0.6733157 11
19.24557 -14.34698 -0.9751093 93
5.575384 -5.019193 -0.3479782 14
4.548028 -4.927775 -0.3493425 26
4.25723 -5.541314 -0.4042838 9
34.52551 -25.92935 -0.752984 206
5.454142 -4.946254 -0.1700191 11
4.535193 -4.941371 -0.194383 32
4.170644 -5.459831 -0.2361536 15
4.716679 -6.129364 -1.395548 16
4.29618 -5.665197 -0.7955695 196
4.204786 -5.53251 0.2775113 40
91.63629 -69.13503 6.676781 11
4.185554 -5.56919 0.5634277 36
10.01208 -7.633834 1.541038 10
4.183837 -5.568939 1.262394 42
nan nan nan 0
11.53751 -8.682188 0.08293759 7
5.347387 -4.873359 0 11
4.558747 -4.984541 -0.03515949 34
4.207824 -5.536616 -0.08086013 16
91.6722 -68.86149 3.381676 13
5.363793 -4.874726 0.1673498 11
4.537212 -4.942047 0.1140796 38
4.22137 -5.532548 0.08454165 24
nan nan nan 0
0.2848779 -0.2182616 -0.08340581 9
8.171292 -6.157707 -1.416083 20
11.23244 -8.616138 -1.33692 11
15.06173 -11.46819 -1.211705 10
5.279313 -4.833158 -0.4977124 16
4.50436 -4.961186 -0.5031831 29
4.94079 -6.547348 -0.6668024 16
19.30325 -14.49504 -0.9805977 99
5.4616 -4.951428 -0.3419223 14
4.534173 -4.947302 -0.3496042 27
4.240885 -5.560112 -0.4045742 9
34.38693 -26.01352 -0.7519369 181
5.340854 -4.877644 -0.1670016 12
4.521282 -4.960866 -0.1945287 34
4.157593 -5.482323 -0.2364991 15
4.69227 -6.14188 -1.394655 15
4.282349 -5.688103 -0.7966877 138
4.19146 -5.555134 0.2779126 34
10.4092 -7.916486 0.7586129 10
4.175019 -5.595756 0.5646438 35
9.682211 -7.43611 1.494118 10
4.170248 -5.5914 1.264187 42
nan nan nan 0
59.29226 -44.91449 0.4281941 10
5.234544 -4.804119 0 11
4.548041 -5.007828 -0.03521186 33
4.194488 -5.559256 -0.08097707 16
91.62657 -69.32882 3.388901 8
5.258224 -4.812448 0.1645645 13
4.536769 -4.976331 0.1145072 32
4.208064 -5.555225 0.08466382 23
nan nan nan 0
0.2686055 -0.2076821 -0.07835092 9
8.141855 -6.180208 -1.414707 18
11.19836 -8.652251 -1.336448 11
15.01764 -11.51766 -1.211385 9
5.174378 -4.770437 -0.4893416 16
4.42694 -4.910207 -0.4964036 31
4.899994 -6.540613 -0.6643599 16
19.2645 -14.57137 -0.9812076 97
5.352046 -4.886299 -0.3360994 15
4.496716 -4.940938 -0.3480341 28
4.227471 -5.582844 -0.4051551 9
nan nan nan 0
5.228114 -4.808304 -0.1639843 13
4.510643 -4.984031 -0.1948201 33
4.141433 -5.500798 -0.2366719 15
4.667832 -6.1543 -1.393763 15
4.268411 -5.71098 -0.7978058 175
4.178028 -5.577733 0.278314 36
10.04458 -7.694897 0.7339261 6
4.158424 -5.614303 0.5650492 35
9.389184 -7.263493 1.452682 9
4.156552 -5.613834 1.26598 42
nan nan nan 0
10.35959 -7.910343 0.07484542 16
5.12225 -4.73415 0 12
4.533881 -5.027388 -0.03523804 33
4.181045 -5.581872 -0.081094 16
10.3713 -7.910744 0.3836882 7
5.156833 -4.75288 0.1618953 13
4.532788 -5.006964 0.1148493 34
4.191649 -5.573878 0.0847249 23
nan nan nan 0
0.2678789 -0.2086185 -0.07835092 10
8.11236 -6.202579 -1.413331 20
11.1563 -8.682121 -1.335034 10
14.96155 -11.55781 -1.210105 9
5.066291 -4.70365 -0.4806221 16
4.393151 -4.907053 -0.4945205 32
4.862278 -6.537673 -0.6623245 16
nan nan nan 0
5.239338 -4.817086 -0.3300436 15
4.456014 -4.930666 -0.3462023 34
4.210954 -5.601559 -0.4054455 10
nan nan nan 0
5.115923 -4.738238 -0.1609669 12
4.496558 -5.003465 -0.1949658 33
4.128183 -5.52323 -0.2370174 15
4.646321 -6.170556 -1.393763 15
4.251408 -5.729838 -0.7983649 185
4.164488 -5.600306 0.2787153 35
9.725121 -7.504386 0.7124339 7
4.144699 -5.636819 0.5658599 35
9.101399 -7.091971 1.411856 12
4.142751 -5.63624 1.267774 43
nan nan nan 0
10.02268 -7.708828 0.07259919 4
5.006847 -4.660052 0 17
4.519638 -5.046908 -0.03526422 32
4.167496 -5.604461 -0.08121093 16
9.978887 -7.666927 0.370122 5
5.026606 -4.665468 0.1582976 17
4.528647 -5.037631 0.1151913 32
4.178142 -5.596493 0.08484707 23
nan nan nan 0
nan nan nan 0
8.086734 -6.227839 -1.412643 21
11.12984 -8.724082 -1.335505 11
14.9093 -11.60078 -1.209145 9
4.958734 -4.63617 -0.4719025 16
4.375996 -4.922358 -0.4945205 34
4.82464 -6.53455 -0.660289 16
10.16398 -7.803349 -0.5197737 8
5.138177 -4.757324 -0.3246865 16
4.435441 -4.942473 -0.3459406 36
4.19734 -5.624229 -0.4060264 10
nan nan nan 0
5.004286 -4.667447 -0.1579494 18
4.482392 -5.02286 -0.1951115 33
4.114828 -5.545637 -0.2373629 14
4.62181 -6.182795 -1.392871 16
4.237267 -5.752648 -0.7994831 193
4.150843 -5.622853 0.2791166 36
9.418949 -7.320927 0.6918132 8
4.127932 -5.65528 0.5662652 43
8.80712 -6.912408 1.369811 14
4.128843 -5.658619 1.269567 43
nan nan nan 0
9.659625 -7.483637 0.07015137 5
4.902974 -4.595462 0 30
4.505315 -5.066391 -0.0352904 33
4.150874 -5.623 -0.0812694 16
9.655522 -7.472439 0.3590625 6
4.904358 -4.58403 0.154932 28
4.514364 -5.057139 0.1152769 32
4.164529 -5.619081 0.08496924 23
nan nan nan 0
nan nan nan 0
8.061033 -6.252996 -1.411955 18
11.07978 -8.747463 -1.333148 11
14.89228 -11.67121 -1.211065 4
4.862608 -4.57825 -0.4642293 28
4.43795 -5.027332 -0.5035597 10
4.775312 -6.515159 -0.6566253 14
nan nan nan 0
5.004611 -4.66627 -0.3172331 17
4.418162 -4.957926 -0.3459406 35
4.183619 -5.646873 -0.4066072 10
9.479652 -7.386671 -0.2090798 6
4.900496 -4.602779 -0.1551642 31
4.468145 -5.042217 -0.1952572 32
4.101365 -5.568018 -0.2377084 15
4.597271 -6.194937 -1.391978 16
4.223021 -5.775431 -0.8006012 116
4.13414 -5.64134 0.2793173 42
9.086658 -7.113897 0.6691593 15
4.114008 -5.677731 0.5670758 46
8.5921 -6.792395 1.339953 5
4.114831 -5.680969 1.27136 42
nan nan nan 0
9.34559 -7.292899 0.06804914 10
4.832347 -4.561084 0 32
4.490911 -5.085835 -0.03531658 33
4.137125 -5.645525 -0.08138634 16
9.30604 -7.254293 0.3469709 8
4.866482 -4.580571 0.1542357 48
4.499999 -5.076608 0.1153624 33
4.150809 -5.641643 0.08509141 24
nan nan nan 0
nan nan nan 0
8.039156 -6.281096 -1.411955 19
11.04529 -8.782989 -1.332677 11
10.36596 -8.184514 -0.8446092 105
4.806772 -4.557456 -0.4603927 38
4.46637 -5.095296 -0.5088326 11
4.705674 -6.467281 -0.650112 14
9.478423 -7.383205 -0.4872497 7
4.904525 -4.605103 -0.311876 21
4.41406 -4.988279 -0.3469874 34
4.169791 -5.669488 -0.4071881 11
9.213833 -7.231549 -0.2037568 8
4.82628 -4.564915 -0.1533073 33
4.457119 -5.065289 -0.1955487 33
4.087797 -5.590373 -0.2380539 14
4.575619 -6.210948 -1.391978 16
4.208666 -5.798184 -0.8017194 152
4.117359 -5.659778 0.2795179 48
8.838271 -6.969506 0.6526046 15
4.099977 -5.700152 0.5678865 48
8.331422 -6.633893 1.302783 7
4.100712 -5.70329 1.273153 42
nan nan nan 0
9.064466 -7.124765 0.06617729 7
4.794646 -4.557262 0 33
4.476427 -5.105241 -0.03534276 33
4.12033 -5.663976 -0.0814448 16
9.025054 -7.086238 0.337386 11
4.7924 -4.542528 0.1523789 36
4.485553 -5.096038 0.1154479 32
4.136982 -5.664177 0.08521358 23
nan nan nan 0
0.2687661 -0.2152987 -0.07961464 9
8.013288 -6.306058 -1.411267 21
10.71919 -8.585112 -1.29685 6
10.33733 -8.220649 -0.8446092 18
4.80166 -4.584538 -0.461439 37
4.458374 -5.122141 -0.5099625 19
nan nan nan 0
9.157696 -7.1851 -0.4720041 11
4.833968 -4.570738 -0.3083823 29
4.403211 -5.01116 -0.3475107 31
4.155856 -5.692076 -0.407769 8
8.902134 -7.037482 -0.1973867 7
4.795834 -4.567947 -0.1528431 34
4.442698 -5.084581 -0.1956944 33
4.074122 -5.6127 -0.2383994 14
4.551009 -6.222908 -1.391086 16
4.194204 -5.820906 -0.8028376 96
4.100499 -5.678168 0.2797186 48
8.575365 -6.811059 0.6348881 15
4.08584 -5.722546 0.5686973 46
8.064212 -6.467452 1.264394 16
4.086488 -5.725582 1.274946 42
nan nan nan 0
8.788556 -6.957861 0.06433423 16
4.789548 -4.58434 0 34
4.465143 -5.128379 -0.03539512 34
4.106383 -5.686436 -0.08156174 16
8.768887 -6.934902 0.328686 9
4.783748 -4.566129 0.152611 36
4.471026 -5.11543 0.1155334 33
4.123049 -5.686683 0.08533575 24
nan nan nan 0
nan nan nan 0
7.991227 -6.333992 -1.411267 19
10.64653 -8.588115 -1.291664 8
10.46051 -8.378275 -0.8570911 16
4.807206 -4.622007 -0.4635317 36
4.476318 -5.179176 -0.5141054 30
4.553074 -6.350051 -0.6350499 13
8.877683 -7.015806 -0.4587913 16
4.803512 -4.573812 -0.3074506 35
4.385692 -5.0265 -0.3475107 31
4.141815 -5.714635 -0.4083498 10
8.591906 -6.84133 -0.1910166 13
4.787077 -4.591579 -0.1530752 38
4.43147 -5.10761 -0.1959858 33
4.060342 -5.635001 -0.2387449 14
4.526372 -6.234773 -1.390194 16
4.179635 -5.843598 -0.8039557 161
4.089376 -5.704635 0.2803206 48
8.317576 -6.653983 0.6174622 15
4.071597 -5.74491 0.5695079 46
7.817578 -6.314809 1.229052 14
4.072157 -5.747843 1.27674 42
nan nan nan 0
17.08249 -13.61464 0.1255871 15
4.777118 -4.604499 0 33
4.450484 -5.147718 -0.0354213 33
4.092328 -5.708866 -0.08167867 17
8.509977 -6.778756 0.3198384 14
4.778595 -4.593188 0.1529591 35
4.459695 -5.138558 0.1157044 31
4.109008 -5.709161 0.08545792 24
nan nan nan 0
nan nan nan 0
7.965196 -6.35876 -1.410579 18
10.64354 -8.647187 -1.294964 7
10.43509 -8.41787 -0.8574111 11
4.791043 -4.638759 -0.4635317 36
4.464704 -5.202339 -0.5148587 32
4.527994 -6.361844 -0.6346428 11
8.626339 -6.866411 -0.4470013 11
4.783911 -4.587096 -0.3072177 36
4.384462 -5.060651 -0.3488191 33
4.127665 -5.737167 -0.4089307 9
8.357289 -6.70249 -0.1863044 11
4.778213 -4.615204 -0.1533073 37
4.416875 -5.126835 -0.1961315 32
4.046455 -5.657272 -0.2390904 14
4.504581 -6.250535 -1.390194 17
4.164958 -5.866259 -0.8050739 95
4.075225 -5.727021 0.2807219 47
8.092098 -6.520227 0.6023596 12
4.060111 -5.771322 0.570724 40
7.629882 -6.207475 1.20285 15
4.057722 -5.770074 1.278533 42
nan nan nan 0
17.01536 -13.65854 0.1254431 99
4.757427 -4.617665 0 32
4.438999 -5.17081 -0.03547365 32
4.078166 -5.731268 -0.08179561 17
8.283468 -6.645892 0.3121706 6
4.762533 -4.609841 0.1529591 34
4.444993 -5.157882 0.11579 33
4.094862 -5.731609 0.08558009 24
nan nan nan 0
0.2551121 -0.2091005 -0.07582346 9
7.93909 -6.383424 -1.409891 18
10.62871 -8.69689 -1.29685 6
10.35915 -8.416506 -0.8535706 11
4.781966 -4.662417 -0.4642293 36
4.456215 -5.229279 -0.5159886 32
4.482779 -6.345033 -0.6313862 10
8.391747 -6.727841 -0.4360245 10
4.78584 -4.621108 -0.3083823 44
4.36677 -5.075925 -0.3488191 35
4.11341 -5.759668 -0.4095116 9
16.95546 -13.68839 -0.3796771 61
4.769242 -4.638824 -0.1535394 35
4.405448 -5.149818 -0.1964229 33
4.032462 -5.679517 -0.2394359 13
4.479876 -6.262218 -1.389301 15
4.153033 -5.892952 -0.8067511 181
4.063847 -5.75346 0.2813239 47
7.859902 -6.378695 0.5866761 11
4.04849 -5.797725 0.57194 36
7.450712 -6.105195 1.177867 6
4.045992 -5.79631 1.281222 41
nan nan nan 0
16.99092 -13.73671 0.1256159 111
4.741279 -4.634243 0 32
4.427408 -5.193886 -0.03552601 34
4.063898 -5.75364 -0.08191254 16
8.015214 -6.477002 0.3028806 5
4.749993 -4.629925 0.1530752 36
4.43346 -5.180964 0.115961 32
4.083497 -5.75811 0.08576335 25
nan nan nan 0
0.2657339 -0.2190303 -0.07961464 9
7.912909 -6.407983 -1.409202 20
nan nan nan 0
10.17133 -8.32312 -0.8404486 13
4.769221 -4.682574 -0.4645781 36
4.441154 -5.248609 -0.5163653 32
4.417728 -6.29941 -0.6252799 9
8.13101 -6.565764 -0.4236247 11
4.76968 -4.637785 -0.3083823 45
4.394415 -5.1443 -0.3524826 33
4.099047 -5.78214 -0.4100924 9
16.95413 -13.78533 -0.3807242 79
4.760164 -4.662436 -0.1537715 35
4.39068 -5.168975 -0.1965687 32
4.018363 -5.701731 -0.2397815 14
4.457989 -6.277817 -1.389301 16
4.138127 -5.91556 -0.8078693 163
4.052333 -5.779889 0.2819258 46
7.648129 -6.251407 0.5724449 8
4.033899 -5.820017 0.5727507 34
7.214911 -5.954391 1.143744 12
4.031331 -5.81849 1.283016 43
nan nan nan 0
16.96613 -13.81487 0.1257887 105
4.721509 -4.647259 0 42
4.415709 -5.216944 -0.03557837 34
4.052391 -5.780079 -0.08208794 16
7.767633 -6.322084 0.294328 6
4.73737 -4.649978 0.1531912 35
4.418584 -5.20022 0.1160465 33
4.069122 -5.780509 0.08588552 23
nan nan nan 0
0.2536461 -0.2108764 -0.07582346 10
7.882813 -6.429309 -1.407826 21
nan nan nan 0
10.02281 -8.260246 -0.830527 9
4.756395 -4.7027 -0.4649269 37
4.426012 -5.267898 -0.5167419 33
4.364427 -6.26978 -0.620802 8
7.910286 -6.433452 -0.4132577 12
4.760601 -4.661393 -0.3088481 45
4.418406 -5.209121 -0.3558845 32
4.084577 -5.804582 -0.4106733 10
16.91364 -13.85076 -0.3808987 8
4.74742 -4.682533 -0.1538876 34
4.379053 -5.191912 -0.1968601 32
4.004158 -5.723917 -0.240127 14
4.433217 -6.289317 -1.388409 15
4.125944 -5.94222 -0.8095465 148
4.037834 -5.802206 0.2823271 47
7.429631 -6.11638 0.5576327 12
4.022022 -5.846387 0.5739667 35
7.052804 -5.862249 1.121198 15
4.016564 -5.840637 1.284809 44
nan nan nan 0
16.94874 -13.89936 0.1260191 99
4.705259 -4.663712 0 39
4.403903 -5.239982 -0.03563073 33
4.037894 -5.802402 -0.08220488 16
7.583105 -6.216179 0.2881348 9
4.724667 -4.669999 0.1533073 34
4.406851 -5.223256 0.1162176 33
4.054641 -5.802879 0.08600768 21
nan nan nan 0
nan nan nan 0
7.856494 -6.453644 -1.407138 18
7.824559 -6.542132 -0.9621485 8
nan nan nan 0
4.743486 -4.722792 -0.4652757 35
4.407596 -5.283316 -0.5167419 34
4.308558 -6.235752 -0.615917 8
7.675119 -6.287025 -0.4020776 12
4.747859 -4.681488 -0.309081 45
4.393765 -5.216873 -0.3553611 33
4.070001 -5.826993 -0.4112542 9
nan nan nan 0
4.734593 -4.702598 -0.1540036 34
4.364111 -5.210999 -0.1970058 31
3.989848 -5.746073 -0.2404725 14
4.411236 -6.304753 -1.388409 16
4.116443 -5.972959 -0.8117828 11
4.026064 -5.828603 0.2829291 48
7.277526 -6.034029 0.547758 11
4.007204 -5.868627 0.5747774 35
6.89143 -5.769048 1.098652 4
4.001692 -5.862751 1.286602 44
nan nan nan 0
16.91554 -13.97117 0.1261342 38
4.692491 -4.683639 0 39
4.388788 -5.259162 -0.03565691 33
4.023293 -5.824693 -0.08232182 16
7.372421 -6.086807 0.2809093 18
4.71188 -4.689988 0.1534233 34
4.395011 -5.246272 0.1163886 33
4.040052 -5.825218 0.08612985 22
nan nan nan 0
0.270931 -0.2279069 -0.08214208 9
7.830102 -6.477875 -1.40645 18
7.641686 -6.434825 -0.9423493 8
7.310959 -6.113341 -0.6087331 11
4.730495 -4.742852 -0.4656244 37
4.392307 -5.302509 -0.5171185 33
4.252978 -6.20141 -0.611032 7
7.47963 -6.17081 -0.3929302 10
4.745669 -4.712105 -0.3100127 41
4.385135 -5.243672 -0.3561462 33
4.055318 -5.849373 -0.411835 9
7.269746 -6.0426 -0.1643144 6
4.71815 -4.719096 -0.1540036 35
4.349089 -5.230044 -0.1971515 31
3.975431 -5.768198 -0.240818 14
4.386398 -6.316071 -1.387517 15
4.095569 -5.987291 -0.8117828 11
4.011338 -5.850866 0.2833304 37
7.076256 -5.90913 0.5341076 13
3.995072 -5.894962 0.5759934 35
6.689038 -5.639631 1.069403 12
3.986714 -5.884834 1.288395 43
nan nan nan 0
7.201086 -5.994206 0.05373665 5
4.67964 -4.703534 0 43
4.376781 -5.282152 -0.03570927 33
4.008584 -5.846952 -0.08243874 16
7.185804 -5.9752 0.2745685 9
4.699012 -4.709945 0.1535394 31
4.379867 -5.265426 0.1164741 33
4.025358 -5.847525 0.08625203 22
nan nan nan 0
0.251424 -0.213521 -0.07582346 11
7.803636 -6.501999 -1.405762 19
7.512833 -6.371369 -0.9291497 7
7.033738 -5.923619 -0.5872899 10
4.717422 -4.762878 -0.4659732 36
4.376937 -5.321661 -0.5174952 31
4.197692 -6.166759 -0.606147 8
7.261981 -6.034164 -0.3825632 10
4.718593 -4.71805 -0.3093139 35
4.373182 -5.266631 -0.3566695 30
4.043355 -5.875836 -0.4127063 9
7.114375 -5.955702 -0.1612602 6
4.701648 -4.735537 -0.1540036 34
4.337168 -5.252903 -0.1974429 32
3.95809 -5.786166 -0.2409907 13
4.364324 -6.331344 -1.387517 16
4.11646 -6.063245 -0.820169 8
3.999313 -5.877231 0.2839324 34
6.917992 -5.818216 0.523652 5
3.980026 -5.917146 0.5768041 34
6.517915 -5.534552 1.04503 9
3.971631 -5.906883 1.290188 44
nan nan nan 0
7.019111 -5.884492 0.05252714 5
4.670224 -4.726952 0 42
4.361493 -5.301259 -0.03573545 33
3.993768 -5.869181 -0.08255568 16
6.984725 -5.849541 0.267638 12
4.682543 -4.726319 0.1535394 31
4.367826 -5.288393 0.1166451 33
4.010556 -5.869802 0.08637419 23
nan nan nan 0
0.2618708 -0.2236346 -0.07961464 9
7.777096 -6.526018 -1.405074 18
7.429957 -6.345862 -0.9216072 17
6.818851 -5.783644 -0.5709674 9
4.707764 -4.786426 -0.4666708 36
4.361487 -5.340769 -0.5178718 31
4.142701 -6.131797 -0.601262 9
7.076046 -5.921708 -0.3738224 10
4.684492 -4.716778 -0.3081493 34
4.361122 -5.289571 -0.3571929 31
4.028444 -5.898162 -0.4132872 8
6.894693 -5.813053 -0.1567226 4
4.685089 -4.75192 -0.1540036 34
4.321973 -5.271877 -0.1975887 30
3.943475 -5.80822 -0.2413362 13
4.339422 -6.342477 -1.386625 17
4.095271 -6.077577 -0.820169 7
3.984359 -5.899441 0.2843338 35
6.722342 -5.694033 0.5102921 5
3.964875 -5.939297 0.5776148 34
6.381572 -5.457356 1.02614 21
3.959169 -5.932992 1.292878 43
nan nan nan 0
6.822701 -5.760688 0.05120244 8
4.657198 -4.746793 0 44
4.349286 -5.324198 -0.03578781 34
3.978847 -5.891376 -0.08267261 16
6.83048 -5.76119 0.2624769 8
4.669523 -4.746197 0.1536555 31
4.355678 -5.311341 0.1168162 33
3.995648 -5.892045 0.08649637 23
nan nan nan 0
0.2499271 -0.215271 -0.07582346 9
7.754269 -6.553126 -1.405074 18
7.437965 -6.39771 -0.9253784 16
6.646783 -5.677867 -0.5581654 9
4.694514 -4.806397 -0.4670196 35
4.349095 -5.363708 -0.5186251 30
4.08246 -6.088244 -0.5955629 6
6.906274 -5.820897 -0.3658947 16
4.636425 -4.701107 -0.3060531 33
4.352117 -5.316355 -0.3579779 29
4.013427 -5.920456 -0.4138681 11
6.740913 -5.723913 -0.1536684 4
4.671971 -4.771816 -0.1541197 34
4.309853 -5.294685 -0.1978801 31
3.928756 -5.830242 -0.2416817 14
4.314495 -6.353514 -1.385732 16
4.140247 -6.191009 -0.8335869 10
3.972077 -5.925769 0.2849357 35
6.550442 -5.587979 0.4986748 17
3.949617 -5.961414 0.5784255 37
6.230799 -5.366333 1.004813 13
3.94386 -5.954982 1.294671 42
nan nan nan 0
nan nan nan 0
4.64409 -4.766602 0 46
4.336971 -5.347115 -0.03584017 33
3.963819 -5.91354 -0.08278955 16
6.680749 -5.675069 0.2574633 6
4.652927 -4.762468 0.1536555 30
4.343422 -5.334267 0.1169872 33
3.983422 -5.918406 0.08667962 23
nan nan nan 0
nan nan nan 0
7.723801 -6.573738 -1.403698 18
7.249966 -6.28032 -0.9046364 37
6.490678 -5.583968 -0.5466436 9
4.681181 -4.826334 -0.4673683 35
4.333472 -5.382741 -0.5190017 30
4.039121 -6.069252 -0.5923061 6
6.725862 -5.709283 -0.3573571 17
4.630474 -4.727964 -0.3067518 34
4.339829 -5.339265 -0.3585013 31
3.998302 -5.942716 -0.4144489 8
6.591642 -5.63702 -0.1507015 6
4.655286 -4.788095 -0.1541197 35
4.294486 -5.313585 -0.1980258 31
3.91393 -5.852232 -0.2420272 14
4.29229 -6.368535 -1.385732 16
4.206436 -6.337962 -0.8514774 13
3.956896 -5.947921 0.285337 36
6.421037 -5.51655 0.4902521 11
3.934253 -5.983497 0.5792362 36
6.091993 -5.284071 0.9853136 7
3.931144 -5.981051 1.297361 41
nan nan nan 0
6.49734 -5.56444 0.0490426 4
4.634379 -4.789968 0 44
4.32455 -5.370011 -0.03589253 34
3.948684 -5.935669 -0.08290648 16
6.508907 -5.568495 0.2515649 8
4.639756 -4.782268 0.1537715 31
4.327918 -5.353284 0.1170727 32
3.968287 -5.940593 0.08680179 22
nan nan nan 0
nan nan nan 0
7.704569 -6.603879 -1.404386 17
7.261774 -6.335021 -0.9088791 46
6.316444 -5.472726 -0.5335217 8
4.667767 -4.846237 -0.4677171 35
4.320879 -5.405626 -0.5197549 28
3.993222 -6.04587 -0.5886424 7
6.557713 -5.606215 -0.3494294 8
4.613942 -4.744099 -0.3067518 34
4.327435 -5.362154 -0.3590246 27
3.985841 -5.969096 -0.4153202 9
6.378631 -5.493735 -0.1462512 24
4.642017 -4.807911 -0.1542357 35
4.282165 -5.336341 -0.1983172 31
3.898998 -5.874189 -0.2423727 14
4.267301 -6.379389 -1.38484 15
4.159716 -6.315244 -0.8464457 11
3.941609 -5.970039 0.2857383 36
6.280881 -5.434495 0.4809583 11
3.921503 -6.00972 0.5804522 35
5.95758 -5.20417 0.9664239 9
3.915611 -6.002981 1.299154 42
nan nan nan 0
6.352862 -5.479405 0.04809228 7
4.621095 -4.809721 0 46
4.312022 -5.392886 -0.03594489 33
3.933445 -5.957766 -0.08302342 15
6.34168 -5.464053 0.2458141 6
4.623034 -4.798434 0.1537715 30
4.315462 -5.376158 0.1172438 33
3.955805 -5.966917 0.08698504 22
nan nan nan 0
nan nan nan 0
7.662717 -6.614563 -1.400945 18
7.037586 -6.183031 -0.883423 38
6.195733 -5.40623 -0.5248803 9
4.650822 -4.862501 -0.4677171 35
4.311279 -5.432395 -0.5208849 29
8.305311 -12.68162 -1.235091 7
6.447188 -5.5509 -0.3445508 8
4.597354 -4.760175 -0.3067518 33
4.314934 -5.385023 -0.359548 28
3.970489 -5.991299 -0.4159011 5
6.276283 -5.443955 -0.1443314 10
4.628666 -4.827692 -0.1543518 34
4.269738 -5.359076 -0.1986087 31
3.883961 -5.896114 -0.2427182 14
4.245007 -6.394245 -1.38484 15
4.107775 -6.283956 -0.8402959 11
3.92895 -5.996305 0.2863403 36
6.118786 -5.331872 0.4699218 9
3.905912 -6.031743 0.5812629 33
5.820071 -5.120122 0.9469247 9
3.902642 -6.029006 1.301844 42
nan nan nan 0
6.209059 -5.39343 0.04714195 5
4.611184 -4.833055 0 44
4.299386 -5.415739 -0.03599725 33
3.920835 -5.984012 -0.08319882 16
6.201703 -5.381422 0.2410954 4
4.606257 -4.814542 0.1537715 33
4.302899 -5.399009 0.1174148 33
3.940442 -5.989046 0.08710721 23
