# .PCD v0.7 - Point Cloud Data file format
VERSION 0.7
FIELDS x y z intensity
SIZE 4 4 4 4
TYPE F F F F
COUNT 1 1 1 1
WIDTH 1637
HEIGHT 1
VIEWPOINT 0 0 0 1 0 0 0
POINTS 1637
DATA ascii
4.367316 -15.3419 -0.6474303 21
2.607619 -13.9174 -0.6584567 14
1.212482 -13.07587 -0.6861244 14
nan nan nan 0
nan nan nan 0
3.632705 -19.78376 -0.4660727 26
1.53734 -17.10369 -0.4995088 10
-0.01382165 -15.77019 -0.5438271 10
0.01878488 -5.530018 -0.9957999 21
-0.03046123 -7.64155 -0.855391 16
-0.1049143 -30.12515 1.208368 28
10.16246 -36.49197 2.201778 31
-0.2807744 -31.5642 2.564204 26
7.594066 -27.77934 3.531164 34
nan nan nan 0
nan nan nan 0
12.0979 -43.17594 0.2580281 18
nan nan nan 0
2.595691 -29.47044 -0.1546966 25
-0.07916517 -23.08289 -0.2694753 32
16.25526 -57.88949 1.772899 88
nan nan nan 0
4.386013 -48.74084 0.8364414 12
-0.04764706 -30.35231 0.3703584 33
nan nan nan 0
0.1138312 -0.4161476 -0.1023617 63
1.880051 -6.740468 -0.9667624 24
2.354368 -8.727376 -0.8523099 44
3.168734 -11.57928 -0.7674774 14
1.892427 -10.59102 -0.7495333 35
0.80675 -9.543709 -0.7205009 26
-0.05771937 -9.069316 -0.7376349 35
4.311031 -15.34744 -0.6470237 22
2.554506 -13.90185 -0.6572921 16
1.166831 -13.08002 -0.6861244 13
-0.01715999 -11.73482 -0.6804863 16
nan nan nan 0
3.56894 -19.82584 -0.466769 31
1.474191 -17.06912 -0.4983431 10
-0.06884627 -15.76505 -0.5436543 9
-0.0005185963 -5.53005 -0.9957999 22
-0.05713503 -7.641397 -0.855391 16
-0.2098913 -30.09962 1.207365 23
10.03237 -36.51759 2.201197 39
-0.3950228 -31.88693 2.590552 29
7.472489 -27.71465 3.519587 38
-0.1232845 -10.12267 1.838003 44
nan nan nan 0
10.49036 -37.95074 0.2265521 35
nan nan nan 0
nan nan nan 0
-0.1600968 -23.13247 -0.27006 30
16.04908 -57.93144 1.772456 55
nan nan nan 0
4.209392 -48.68114 0.8351586 14
-0.1532558 -30.28697 0.3695643 30
nan nan nan 0
0.1137007 -0.4211957 -0.1036254 59
1.855194 -6.742216 -0.9660743 23
2.336714 -8.783638 -0.857024 39
3.12569 -11.58064 -0.7668373 14
nan nan nan 0
0.7625884 -9.412287 -0.7103317 35
-0.08942904 -9.074042 -0.738042 33
4.25476 -15.35276 -0.6466172 21
2.505078 -13.90577 -0.6570592 15
1.121166 -13.08402 -0.6861244 14
-0.05863517 -11.82952 -0.6860045 16
nan nan nan 0
3.506665 -19.87756 -0.4676975 31
1.410891 -17.02934 -0.4970317 10
-0.1237942 -15.75472 -0.5433088 9
-0.01979974 -5.525094 -0.9949076 21
-0.08380814 -7.641151 -0.855391 17
nan nan nan 0
10.17 -37.53036 2.260155 30
nan nan nan 0
7.342523 -27.61587 3.503744 40
-0.1602153 -10.22055 1.855935 44
nan nan nan 0
nan nan nan 0
nan nan nan 0
2.415718 -29.80679 -0.1563721 18
-0.2414287 -23.18676 -0.2707031 28
15.84018 -57.963 1.771719 102
nan nan nan 0
4.03324 -48.6208 0.8338758 14
-0.2589761 -30.28625 0.3695643 30
nan nan nan 0
0.1122298 -0.42159 -0.1036254 58
1.830347 -6.743872 -0.9653862 25
2.298445 -8.762856 -0.8541955 43
3.083962 -11.58666 -0.7665172 14
1.811692 -10.56464 -0.746743 39
0.7354923 -9.489456 -0.7159813 28
-0.1211724 -9.078657 -0.7384491 37
4.201143 -15.36752 -0.6466172 18
2.453046 -13.89476 -0.6561276 15
1.075896 -13.09282 -0.686386 13
nan nan nan 0
nan nan nan 0
3.443219 -19.92416 -0.4685099 29
1.348281 -16.9943 -0.4958659 11
-0.1787876 -15.75419 -0.5433088 9
-0.0390463 -5.520072 -0.9940153 21
-0.1104048 -7.635845 -0.8548319 17
-0.4313198 -30.8967 1.23947 34
9.926754 -37.14611 2.234888 38
-0.6033049 -31.15096 2.530966 22
7.380829 -28.15496 3.568944 29
-0.1949206 -10.17075 1.846969 49
nan nan nan 0
11.47232 -42.65811 0.254198 29
nan nan nan 0
2.305865 -29.74026 -0.1559794 17
-0.3227882 -23.21577 -0.2710539 35
15.63255 -57.99864 1.771129 137
nan nan nan 0
3.856375 -48.54488 0.8323365 15
-0.3704349 -30.75509 0.3753063 30
nan nan nan 0
0.1094671 -0.4173168 -0.1023617 59
1.805511 -6.745437 -0.9646981 25
2.264097 -8.756371 -0.8527813 44
3.040961 -11.5877 -0.7658772 14
1.769016 -10.53647 -0.7443016 39
0.7045648 -9.521799 -0.7182411 29
-0.153036 -9.088145 -0.7392632 34
4.135755 -15.33868 -0.6447877 23
2.401974 -13.88847 -0.6554288 14
1.030187 -13.0965 -0.686386 13
-0.1451773 -12.14826 -0.7045923 22
nan nan nan 0
3.383664 -19.99519 -0.4699025 28
1.286687 -16.969 -0.4949916 11
-0.2337031 -15.74848 -0.5431361 10
-0.05825804 -5.514983 -0.9931231 19
-0.1370582 -7.635413 -0.8548319 16
-0.5439222 -31.16474 1.250306 23
9.756309 -37.02608 2.225594 37
nan nan nan 0
7.355817 -28.46403 3.604895 31
-0.2183196 -9.648735 1.75193 115
nan nan nan 0
11.28488 -42.55292 0.253334 32
nan nan nan 0
nan nan nan 0
-0.4046176 -23.25949 -0.2715801 32
15.42615 -58.03836 1.770687 146
nan nan nan 0
3.682736 -48.50322 0.8313959 15
-0.476924 -30.69862 0.3746343 29
nan nan nan 0
0.1067357 -0.4130295 -0.1010979 56
1.779419 -6.742124 -0.963322 25
2.231054 -8.754575 -0.8518385 38
2.99799 -11.58858 -0.7652371 14
1.740321 -10.5918 -0.7477893 34
0.6685269 -9.484413 -0.715228 28
-0.1841325 -9.057661 -0.7368208 35
4.074475 -15.32406 -0.6435681 20
2.346802 -13.85738 -0.6535655 16
0.9844654 -13.10002 -0.686386 14
nan nan nan 0
nan nan nan 0
3.331827 -20.11538 -0.4724557 24
1.224927 -16.93849 -0.4939716 11
-0.2885808 -15.74257 -0.5429633 9
-0.07750858 -5.514746 -0.9931231 22
-0.1635998 -7.62992 -0.8542728 16
-0.6570296 -31.36744 1.258533 31
9.600635 -36.95846 2.219495 44
-0.8445578 -32.04271 2.603928 6
7.164479 -28.12886 3.559194 38
-0.2642131 -10.10521 1.835313 46
nan nan nan 0
nan nan nan 0
nan nan nan 0
2.064802 -29.28181 -0.1534923 16
-0.4857002 -23.25294 -0.2715217 26
nan nan nan 0
nan nan nan 0
3.51124 -48.48586 0.8308828 15
-0.5804321 -30.50682 0.3723131 29
nan nan nan 0
0.1040355 -0.4087282 -0.09983423 57
1.754623 -6.743502 -0.9626338 27
2.200481 -8.762309 -0.8518385 38
2.958755 -11.60382 -0.7655571 13
1.700169 -10.57811 -0.7463942 33
0.6317623 -9.431967 -0.711085 27
-0.2152614 -9.037036 -0.7351924 34
4.015885 -15.31886 -0.642755 17
2.302504 -13.89012 -0.65473 14
0.9387318 -13.10337 -0.686386 15
-0.2293071 -12.11202 -0.7025592 17
5.74994 -22.25531 -0.4005327 14
3.259191 -20.11208 -0.4721076 18
1.163395 -16.90776 -0.4929516 11
-0.3435309 -15.74147 -0.5429633 9
-0.09666713 -5.509523 -0.9922307 23
-0.1901047 -7.624336 -0.8537138 16
-0.7671331 -31.38993 1.259536 31
9.466611 -36.9724 2.218333 37
-1.40066 -46.83402 3.807799 7
7.055367 -28.11038 3.55371 28
-0.3011189 -10.15831 1.845176 41
nan nan nan 0
10.54806 -40.92645 0.2431972 17
5.387917 -33.76272 0 14
nan nan nan 0
-0.5671112 -23.2611 -0.2716386 33
nan nan nan 0
nan nan nan 0
3.339567 -48.46291 0.8302842 12
-0.6865769 -30.48961 0.3721298 26
nan nan nan 0
0.1013667 -0.4044133 -0.0985705 60
1.728604 -6.739993 -0.9612576 27
2.168683 -8.765105 -0.8513671 35
2.918232 -11.61407 -0.7655571 14
1.664785 -10.59383 -0.7470918 34
0.5972608 -9.409235 -0.7092019 28
-0.2468053 -9.036229 -0.7351924 34
3.948619 -15.27958 -0.640519 23
2.255605 -13.90793 -0.6551958 14
0.8929867 -13.10657 -0.686386 15
-0.2588035 -11.55223 -0.6700307 19
nan nan nan 0
3.180356 -20.06903 -0.4708309 18
1.102418 -16.8818 -0.4920774 11
-0.3983486 -15.73518 -0.5427906 9
-0.1157902 -5.504233 -0.9913384 21
-0.2165727 -7.618659 -0.8531547 16
-0.8797878 -31.49693 1.263951 25
9.303282 -36.86972 2.210201 39
-1.563131 -46.79896 3.805367 8
6.942894 -28.07702 3.546398 41
-0.3365761 -10.1572 1.845176 39
nan nan nan 0
10.40514 -40.96302 0.2431972 16
5.273114 -33.80108 0 12
nan nan nan 0
-0.6492875 -23.29396 -0.2720478 29
nan nan nan 0
nan nan nan 0
3.167119 -48.42438 0.829429 15
nan nan nan 0
nan nan nan 0
0.09995437 -0.4047647 -0.0985705 52
1.702632 -6.736385 -0.9598815 25
2.145162 -8.801635 -0.8541955 36
2.880076 -11.63387 -0.7661972 13
1.634616 -10.64395 -0.7502308 31
0.563223 -9.391355 -0.7076953 27
-0.27772 -9.015388 -0.7335641 37
3.886615 -15.25939 -0.639096 22
2.20861 -13.92559 -0.6556617 14
0.8469094 -13.10463 -0.6861244 15
-0.3009682 -11.62112 -0.6740967 16
5.610262 -22.35794 -0.4016671 21
3.110282 -20.08001 -0.4708309 16
1.040406 -16.83566 -0.4906202 11
-0.4531265 -15.7287 -0.5426178 8
-0.1350029 -5.503795 -0.9913384 24
-0.2430033 -7.612891 -0.8525956 16
-0.9908319 -31.52862 1.265355 29
2.390202 -9.630703 0.5750588 14
-1.724084 -46.72848 3.800097 10
6.843669 -28.09627 3.545788 39
-0.372395 -10.1658 1.846969 41
nan nan nan 0
10.26694 -41.01849 0.2433124 14
5.127961 -33.64134 0 15
nan nan nan 0
-0.731858 -23.33153 -0.2725156 32
nan nan nan 0
7.501073 -48.74791 1.144176 15
2.993128 -48.3553 0.8280607 15
-0.9108368 -30.86888 0.3768334 16
nan nan nan 0
0.09733207 -0.4004269 -0.09730678 60
1.677907 -6.737483 -0.9591934 23
2.101616 -8.755835 -0.8490101 38
nan nan nan 0
1.588563 -10.5904 -0.7460454 35
0.5248367 -9.293705 -0.7001627 26
-0.3098835 -9.034286 -0.7351924 37
3.840634 -15.30193 -0.6403157 20
2.164582 -13.96282 -0.6570592 13
0.8029843 -13.13741 -0.6876944 13
nan nan nan 0
nan nan nan 0
3.03194 -20.03638 -0.4695543 13
0.9816322 -16.83919 -0.4906202 12
-0.5078641 -15.72202 -0.5424451 9
-0.1542138 -5.50329 -0.9913384 20
-0.2695758 -7.611997 -0.8525956 16
-1.095975 -31.38517 1.259737 14
2.348253 -9.605051 0.5730258 16
-1.885976 -46.6923 3.797665 10
6.744395 -28.11516 3.545179 30
-0.4112776 -10.24799 1.862211 43
nan nan nan 0
2.360005 -9.588248 0.05664522 18
5.007554 -33.63926 0 16
nan nan nan 0
-0.8143479 -23.35881 -0.2728664 33
2.353191 -9.539356 0.2887246 30
7.30857 -48.6255 1.140694 31
2.820532 -48.30058 0.826949 15
nan nan nan 0
nan nan nan 0
0.09593372 -0.4007642 -0.09730678 60
1.653194 -6.73849 -0.9585053 24
2.065301 -8.738898 -0.8466529 41
2.30849 -9.616163 -0.6317766 6
nan nan nan 0
0.4913417 -9.275566 -0.6986561 33
-0.3417998 -9.043109 -0.7360066 37
nan nan nan 0
2.107594 -13.91598 -0.6544971 15
0.7576945 -13.1501 -0.6882178 14
-0.3809263 -11.58381 -0.6720636 18
2.331804 -9.588638 -0.1715571 14
2.957594 -20.01717 -0.468858 9
0.9225737 -16.83752 -0.4904745 11
-0.5625606 -15.71516 -0.5422723 9
-0.173423 -5.502718 -0.9913384 18
-0.2961449 -7.611009 -0.8525956 16
nan nan nan 0
2.306512 -9.579224 0.5709928 15
-2.046979 -46.64062 3.794017 11
nan nan nan 0
-0.4437902 -10.17278 1.848762 39
nan nan nan 0
2.326521 -9.596428 0.05664522 17
4.878593 -33.57736 0 15
nan nan nan 0
-0.8995435 -23.45075 -0.2739773 23
2.328158 -9.581504 0.2897568 23
8.319836 -56.69731 1.329514 10
2.648081 -48.24025 0.8257518 15
nan nan nan 0
nan nan nan 0
0.09453421 -0.4010966 -0.09730678 52
1.629663 -6.74422 -0.9585053 26
2.035915 -8.750902 -0.8471243 37
2.264555 -9.580466 -0.6288962 5
1.516709 -10.61605 -0.7470918 34
nan nan nan 0
-0.3744075 -9.066756 -0.738042 36
2.33534 -9.596363 -0.4002481 17
2.056081 -13.90348 -0.6535655 15
0.714479 -13.20252 -0.6908346 11
-0.4187862 -11.51258 -0.6679976 19
2.295985 -9.586998 -0.1713826 10
nan nan nan 0
0.8627722 -16.82068 -0.4898916 11
-0.6170174 -15.70311 -0.5419268 10
-0.19263 -5.502079 -0.9913384 20
-0.3227105 -7.609929 -0.8525956 16
-1.962105 -46.75074 1.877766 7
2.248821 -9.485235 0.5648936 16
-2.207644 -46.58839 3.790369 10
nan nan nan 0
-0.4830457 -10.24978 1.863107 39
nan nan nan 0
2.283699 -9.56559 0.05641484 12
4.755741 -33.55458 0 15
1.45482 -29.39355 -0.153885 16
-0.985391 -23.54238 -0.2750882 19
2.284205 -9.545833 0.2884297 17
8.127542 -56.7656 1.330443 10
2.476085 -48.17929 0.8245546 20
nan nan nan 0
nan nan nan 0
0.09197386 -0.3967276 -0.09604306 56
1.606111 -6.749866 -0.9585053 25
1.994218 -8.70944 -0.8424102 42
2.217498 -9.53 -0.6250556 8
1.479643 -10.62128 -0.7470918 35
0.4309048 -9.3734 -0.7058122 27
-0.4049238 -9.040503 -0.7360066 34
2.299494 -9.594741 -0.3998416 15
2.006822 -13.90563 -0.6533325 14
0.666627 -13.17003 -0.6890029 11
-0.4740593 -11.88511 -0.6897802 26
2.246405 -9.526842 -0.1701609 9
nan nan nan 0
0.8042899 -16.82858 -0.4900374 10
-0.6713971 -15.69088 -0.5415813 8
-0.2116407 -5.496458 -0.9904461 21
-0.3490407 -7.603793 -0.8520365 15
-2.122326 -46.67872 1.875158 9
2.211149 -9.473586 0.5637319 26
-2.367462 -46.52565 3.785911 10
6.552647 -28.63413 3.601848 31
-0.5193241 -10.25786 1.8649 40
nan nan nan 0
2.239974 -9.529703 0.05615566 11
nan nan nan 0
nan nan nan 0
-1.062782 -23.43391 -0.2738604 15
2.243977 -9.524564 0.2875449 19
nan nan nan 0
2.305503 -48.13771 0.8236994 18
nan nan nan 0
nan nan nan 0
0.09173174 -0.4017468 -0.09730678 53
1.581406 -6.750611 -0.9578173 26
1.957223 -8.687216 -0.8395818 36
2.174169 -9.493914 -0.6221752 7
nan nan nan 0
0.399446 -9.404735 -0.7080719 23
-0.4352613 -9.014147 -0.7339711 34
2.254487 -9.554091 -0.3978088 14
1.958967 -13.9175 -0.6535655 14
0.6201823 -13.1623 -0.6884795 11
-0.515106 -11.87341 -0.6891993 17
2.207471 -9.510279 -0.1697246 9
2.710457 -19.77467 -0.4624751 8
0.7428948 -16.77137 -0.4882888 10
-0.7256989 -15.67846 -0.5412358 9
-0.2308256 -5.495686 -0.9904461 22
-0.3755808 -7.602528 -0.8520365 16
-2.283048 -46.62612 1.873352 10
2.171345 -9.452062 0.5619893 18
-2.527683 -46.4773 3.782668 10
6.459201 -28.68588 3.605504 32
nan nan nan 0
nan nan nan 0
2.195396 -9.488758 0.05586768 11
nan nan nan 0
nan nan nan 0
-1.140899 -23.35515 -0.2729833 10
2.198265 -9.47879 0.2859229 20
6.71994 -49.39145 1.156362 16
2.135241 -48.09552 0.8228442 16
-2.00784 -42.68924 0.5216659 7
nan nan nan 0
0.08807509 -0.3926554 -0.09477933 53
1.556716 -6.751265 -0.9571292 23
1.918248 -8.655122 -0.8358105 39
2.13222 -9.462507 -0.6196148 7
nan nan nan 0
0.3656493 -9.381163 -0.7061888 30
-0.4662023 -9.002619 -0.733157 39
2.21999 -9.557038 -0.3976055 10
1.909694 -13.9193 -0.6533325 15
0.5764028 -13.21427 -0.6910963 9
-0.5577288 -11.89647 -0.6906514 17
2.165331 -9.478941 -0.1690265 8
nan nan nan 0
0.684957 -16.78884 -0.488726 10
-0.7799221 -15.66585 -0.5408903 11
-0.2497794 -5.489933 -0.9895539 20
-0.4021162 -7.601171 -0.8520365 17
-2.443429 -46.57297 1.871546 10
2.129511 -9.420639 0.5596659 25
-2.685285 -46.38859 3.776182 42
nan nan nan 0
nan nan nan 0
nan nan nan 0
2.151133 -9.447618 0.0555797 11
nan nan nan 0
1.166587 -29.91178 -0.1565291 16
nan nan nan 0
2.15513 -9.442559 0.2845957 20
6.54158 -49.37001 1.155317 14
1.96469 -48.03774 0.8217325 19
-2.151782 -42.5821 0.5204442 9
nan nan nan 0
0.09114569 -0.4117944 -0.09983423 50
1.532041 -6.751829 -0.956441 25
1.883772 -8.642314 -0.8339249 43
2.089434 -9.426056 -0.6167344 9
nan nan nan 0
0.3318463 -9.352486 -0.7039291 28
-0.4973463 -8.995962 -0.7327499 40
2.157595 -9.43812 -0.3923204 10
1.860433 -13.92094 -0.6530996 15
0.4027839 -10.02813 -0.5238829 12
-0.5979848 -11.86952 -0.6891993 16
2.122339 -9.442551 -0.1682412 8
nan nan nan 0
0.6259773 -16.78114 -0.4884345 10
-0.8343337 -15.65804 -0.5407175 9
-0.2689413 -5.489027 -0.9895539 22
-0.4286468 -7.599721 -0.8520365 17
-2.603745 -46.52425 1.869941 10
2.08901 -9.39391 0.5576327 26
-2.84689 -46.37396 3.775777 8
nan nan nan 0
nan nan nan 0
nan nan nan 0
2.108279 -9.411164 0.05532052 12
nan nan nan 0
0.3577965 -10.04342 -0.052412 15
nan nan nan 0
2.112275 -9.406143 0.2832686 21
6.355777 -49.28844 1.15288 13
1.185806 -31.68812 0.54175 12
-2.295001 -42.47449 0.5192226 9
nan nan nan 0
0.08204973 -0.3791237 -0.09098815 52
1.50738 -6.752303 -0.955753 25
1.856731 -8.663436 -0.8353391 45
2.046929 -9.389421 -0.6138539 8
1.300825 -10.39839 -0.7300014 31
0.2984062 -9.328671 -0.7020458 29
-0.5275627 -8.974272 -0.7311215 33
2.123538 -9.44072 -0.3921171 10
1.811183 -13.92239 -0.6528667 16
nan nan nan 0
nan nan nan 0
2.079627 -9.405974 -0.1674558 8
2.488176 -19.68295 -0.4596898 8
nan nan nan 0
-0.8884153 -15.64506 -0.540372 9
-0.2878373 -5.483142 -0.9886615 21
-0.4551722 -7.598178 -0.8520365 20
-2.76405 -46.47997 1.868536 41
2.047652 -9.362141 0.5553093 14
-3.007131 -46.33887 3.77375 8
nan nan nan 0
-2.848747 -43.78473 7.990381 8
nan nan nan 0
2.066785 -9.37941 0.05509014 12
4.096176 -33.042 0 16
0.3220976 -10.02462 -0.05230728 30
nan nan nan 0
2.069701 -9.369542 0.2819415 23
6.179335 -49.27561 1.152068 12
0.3408553 -10.01267 0.1706918 17
-2.43145 -42.26157 0.516718 10
nan nan nan 0
0.08072584 -0.3794078 -0.09098815 51
1.482735 -6.752688 -0.955065 22
1.826479 -8.669865 -0.8353391 42
2.004704 -9.352603 -0.6109735 8
1.279587 -10.52665 -0.738721 33
0.2652775 -9.30972 -0.7005394 27
-0.5576341 -8.952481 -0.7294933 38
nan nan nan 0
1.761946 -13.92367 -0.6526337 15
0.330789 -9.970809 -0.5207428 17
-0.6626776 -11.55111 -0.670902 15
2.036132 -9.364332 -0.1665832 7
2.420674 -19.70143 -0.4599218 7
0.3049643 -10.03605 -0.2915744 30
-0.9427189 -15.63687 -0.5401992 9
-0.3069753 -5.482103 -0.9886615 22
-0.481692 -7.596543 -0.8520365 18
-2.924076 -46.43513 1.867132 9
2.006541 -9.330196 0.5529858 15
-3.167503 -46.3082 3.772129 8
nan nan nan 0
-2.997859 -43.72054 7.980518 8
nan nan nan 0
2.025538 -9.34748 0.05485976 10
3.969449 -32.96177 0 16
0.2871032 -10.02568 -0.05230728 31
-1.445155 -22.99265 -0.2689491 7
2.027408 -9.33276 0.2806143 20
5.998219 -49.22245 1.150327 12
0.3055988 -10.00381 0.1705208 21
-2.576819 -42.21789 0.5162904 10
nan nan nan 0
0.9441739 -4.226377 -1.120924 10
1.458106 -6.752982 -0.9543768 24
1.798228 -8.685935 -0.836282 38
1.963794 -9.320488 -0.6084131 7
1.243419 -10.53601 -0.7390698 33
0.2312962 -9.250778 -0.6960197 30
-0.5902017 -8.970369 -0.7311215 33
nan nan nan 0
1.713333 -13.92974 -0.6526337 15
0.2967186 -9.996857 -0.5220511 15
-0.723775 -11.88752 -0.6906514 18
1.991905 -9.317613 -0.1656233 8
2.331736 -19.54101 -0.455976 9
0.2688626 -9.997082 -0.2904087 27
-0.9972961 -15.63348 -0.5401992 10
-0.3258127 -5.476089 -0.9877692 22
-0.5085413 -7.599773 -0.8525956 19
-3.083823 -46.38975 1.865727 9
1.963608 -9.288313 0.5500815 16
-3.326981 -46.26704 3.769697 9
nan nan nan 0
-3.14762 -43.67056 7.973346 10
nan nan nan 0
1.980361 -9.295818 0.05451419 14
nan nan nan 0
0.25223 -10.03162 -0.05233346 32
-1.525073 -22.98248 -0.2688906 7
1.990631 -9.320232 0.2800245 25
5.816965 -49.16366 1.14847 11
0.269871 -9.97483 0.1700077 20
-2.72159 -42.16872 0.5158017 9
nan nan nan 0
0.9241923 -4.206029 -1.114605 11
1.434524 -6.758031 -0.9543768 27
1.766903 -8.687283 -0.8358105 37
1.921103 -9.27843 -0.6052126 10
nan nan nan 0
0.1993221 -9.266482 -0.6971496 30
-0.6222058 -8.978199 -0.7319357 35
1.986829 -9.286591 -0.3847992 11
1.664105 -13.93068 -0.6524009 14
0.2594843 -9.907987 -0.517341 15
-0.7591291 -11.79028 -0.6851332 17
1.945967 -9.260916 -0.1644889 9
2.249126 -19.42489 -0.4530747 9
0.2337326 -9.987965 -0.2901173 34
-1.051861 -15.62991 -0.5401992 9
-0.3446117 -5.470008 -0.9868769 20
-0.5350664 -7.597951 -0.8525956 20
-3.243289 -46.34381 1.864322 11
1.923028 -9.256018 0.547758 27
-3.48546 -46.21539 3.766454 10
nan nan nan 0
-3.296696 -43.61515 7.965277 10
nan nan nan 0
1.942763 -9.278208 0.05437019 15
3.866569 -34.11149 0 18
0.2174263 -10.04244 -0.05238582 30
-1.596897 -22.85732 -0.2674874 8
1.947788 -9.278218 0.2785499 26
5.636764 -49.10918 1.146729 11
0.2348169 -9.965714 0.1698367 18
-2.862989 -42.07417 0.5147633 10
nan nan nan 0
0.9146454 -4.232866 -1.120924 9
1.40991 -6.75815 -0.9536887 27
1.73559 -8.688516 -0.8353391 36
1.879727 -9.241078 -0.6023321 38
nan nan nan 0
0.1672411 -9.282078 -0.6982795 24
-0.6546367 -8.990881 -0.733157 36
nan nan nan 0
1.615468 -13.9364 -0.6524009 16
0.2254594 -9.933791 -0.5186493 12
-0.8047051 -11.8523 -0.6889088 16
1.912614 -9.262756 -0.1644017 31
2.175726 -19.38295 -0.4519141 10
0.1996552 -10.0287 -0.291283 30
-1.105704 -15.61617 -0.5398538 9
-0.3637035 -5.468771 -0.9868769 20
-0.5615849 -7.596037 -0.8525956 21
-3.402839 -46.30232 1.863118 10
1.896714 -9.292016 0.5495006 16
-3.644011 -46.16816 3.763617 11
13.72352 -68.70657 8.597881 9
-3.444648 -43.54944 7.955414 11
nan nan nan 0
1.905311 -9.260449 0.05422621 25
3.752934 -34.17448 0 14
0.1822804 -10.03814 -0.05235964 19
-1.673004 -22.80174 -0.2669027 8
1.909313 -9.255597 0.2776652 39
5.457013 -49.05403 1.144988 12
nan nan nan 0
-3.004834 -41.99411 0.5139081 9
nan nan nan 0
0.8988528 -4.231302 -1.11966 10
1.386311 -6.76303 -0.9536887 28
1.703329 -8.684753 -0.8343962 33
nan nan nan 0
1.100478 -10.24594 -0.7177941 35
0.1345541 -9.262664 -0.696773 31
-0.6860168 -8.988542 -0.733157 31
1.919921 -9.290452 -0.3843927 95
1.566811 -13.94195 -0.6524009 15
nan nan nan 0
-0.8410639 -11.77971 -0.6848428 12
1.887246 -9.303668 -0.1650125 7
2.102106 -19.33577 -0.4506375 9
0.1652151 -10.06431 -0.292303 13
-1.159464 -15.60225 -0.5395082 8
-0.3824425 -5.462561 -0.9859847 20
-0.5884839 -7.598983 -0.8531547 20
-3.562139 -46.26027 1.861915 10
1.866235 -9.308366 0.5500815 17
-3.801865 -46.11543 3.760374 10
13.46354 -68.65179 8.585086 8
-3.592993 -43.49304 7.947345 11
nan nan nan 0
1.880922 -9.306247 0.05445659 12
nan nan nan 0
nan nan nan 0
-1.746435 -22.71601 -0.2659673 9
1.885954 -9.306284 0.2789923 29
5.278252 -49.0032 1.143364 12
0.5027288 -30.53633 0.521739 21
-3.145779 -41.90858 0.5129918 9
nan nan nan 0
0.07508704 -0.3854931 -0.09225187 44
1.361714 -6.762974 -0.9530006 25
1.671115 -8.680871 -0.8334535 36
1.825763 -9.307831 -0.6058527 8
nan nan nan 0
0.1024364 -9.283019 -0.6982795 29
-0.7169888 -8.981126 -0.7327499 35
1.889473 -9.306888 -0.3847992 12
1.518135 -13.94734 -0.6524009 16
0.203879 -13.01053 -0.679844 7
-0.8731745 -11.65725 -0.6778724 14
1.858677 -9.329808 -0.1653615 8
2.024655 -19.24853 -0.4484325 10
0.2148355 -16.71646 -0.4862488 11
-1.21275 -15.58316 -0.53899 10
-0.4015081 -5.461193 -0.9859847 21
-0.6150057 -7.596883 -0.8531547 20
-3.721186 -46.21767 1.860711 10
nan nan nan 0
-3.960678 -46.07706 3.758347 10
nan nan nan 0
-3.740562 -43.43122 7.938379 12
nan nan nan 0
1.853307 -9.337274 0.05460058 14
3.530626 -34.359 0 9
nan nan nan 0
-1.820092 -22.64 -0.2651487 9
1.856392 -9.327513 0.2794347 31
5.099913 -48.95173 1.141739 13
0.3954238 -30.48292 0.5207983 18
-3.286557 -41.82756 0.5121366 9
nan nan nan 0
0.08254778 -0.4283918 -0.1036254 38
1.337134 -6.762829 -0.9523126 27
1.638023 -8.67198 -0.8320392 35
2.247391 -11.66578 -0.7594762 18
1.026427 -10.22856 -0.7160501 32
0.0701416 -9.298277 -0.6994094 24
-0.7479174 -8.973601 -0.7323428 36
1.863833 -9.347719 -0.3862222 15
1.468917 -13.94759 -0.652168 15
0.1570194 -12.89134 -0.6735637 12
-0.9013005 -11.49489 -0.6685784 15
nan nan nan 0
1.949356 -19.17592 -0.4465757 8
0.1561592 -16.68213 -0.4852288 12
-1.265918 -15.5639 -0.5384718 9
-0.4201862 -5.454854 -0.9850924 23
-0.6401944 -7.594802 -0.8531547 22
-3.871921 -46.17521 1.859507 11
nan nan nan 0
-4.110346 -46.02893 3.75551 11
nan nan nan 0
-3.880175 -43.36958 7.929413 10
nan nan nan 0
nan nan nan 0
3.239246 -32.52904 0 12
nan nan nan 0
-1.885782 -22.56941 -0.2643887 9
nan nan nan 0
4.939569 -48.90285 1.14023 12
0.2965789 -30.16907 0.5154107 17
-3.405355 -41.75285 0.5113426 8
nan nan nan 0
0.069508 -0.3717847 -0.08846071 47
1.312572 -6.762594 -0.9516245 25
1.605923 -8.667856 -0.8310964 35
2.205904 -11.65846 -0.758516 16
0.9804423 -10.10779 -0.7073306 30
0.03934705 -9.30843 -0.7001627 25
-0.7776707 -8.971072 -0.7323428 35
nan nan nan 0
1.422657 -13.95238 -0.652168 14
0.1127007 -12.71204 -0.6641433 15
-0.9234629 -11.29782 -0.6572515 17
nan nan nan 0
1.885574 -19.11197 -0.4449509 10
0.1070386 -16.74249 -0.4869774 12
-1.313539 -15.5449 -0.5379534 9
-0.4363692 -5.453583 -0.9850924 19
-0.6627258 -7.592869 -0.8531547 21
-4.005878 -46.12868 1.858102 11
nan nan nan 0
-4.238867 -46.01727 3.75551 6
nan nan nan 0
-3.997197 -43.3145 7.921344 12
nan nan nan 0
nan nan nan 0
3.155141 -32.60764 0 11
nan nan nan 0
-1.939695 -22.50462 -0.263687 8
nan nan nan 0
4.812706 -48.84016 1.138489 14
0.2260493 -30.60463 0.5228507 26
-3.503593 -41.69957 0.5107928 9
nan nan nan 0
0.07504003 -0.4051965 -0.09730678 42
1.292748 -6.761369 -0.9509364 27
1.579023 -8.657619 -0.8296822 40
2.169472 -11.65514 -0.757876 15
0.9512752 -10.10056 -0.706633 27
0.01339552 -9.343404 -0.7027991 27
-0.8022724 -8.963902 -0.7319357 40
2.912079 -15.05283 -0.6222242 20
1.38563 -13.95109 -0.651935 15
0.07899333 -12.64239 -0.6604797 18
-0.9472755 -11.25077 -0.6546376 20
4.089094 -21.52632 -0.3817714 31
1.829794 -19.05713 -0.4435582 9
0.06605195 -16.72271 -0.4863946 11
-1.347939 -15.53193 -0.537608 10
-0.4483336 -5.447676 -0.9842001 20
-0.6812767 -7.591227 -0.8531547 21
-4.116354 -46.09387 1.857099 10
nan nan nan 0
-3.790689 -40.01281 3.265854 12
nan nan nan 0
-4.106391 -43.25981 7.913274 21
8.642169 -47.96443 13.04836 26
nan nan nan 0
nan nan nan 0
nan nan nan 0
-2.00067 -22.43403 -0.262927 10
nan nan nan 0
4.652599 -48.78537 1.136865 12
0.1300896 -30.65018 0.5236204 32
-3.637497 -41.63791 0.510182 9
nan nan nan 0
0.07224618 -0.3958737 -0.09477933 35
1.275301 -6.759642 -0.9502483 27
1.554328 -8.641856 -0.8277965 37
2.140987 -11.66041 -0.757876 14
0.92164 -10.06825 -0.7041915 30
-0.01104458 -9.328449 -0.7016692 25
-0.8257371 -8.961771 -0.7319357 37
2.868158 -15.05109 -0.6218177 22
1.346186 -13.94993 -0.6517021 15
0.04387099 -12.69748 -0.6633583 17
-0.9732426 -11.16338 -0.6497003 24
4.041759 -21.62681 -0.3833421 33
1.763902 -18.99809 -0.4420496 9
0.01060232 -16.73283 -0.4866859 12
-1.398987 -15.5224 -0.5374352 9
-0.4673468 -5.446078 -0.9842001 21
-0.7082359 -7.59375 -0.8537138 18
-3.721021 -40.09486 1.615706 8
nan nan nan 0
-4.509641 -45.88636 3.746997 11
nan nan nan 0
-4.25351 -43.20605 7.906102 10
9.015854 -51.05715 13.88176 7
nan nan nan 0
nan nan nan 0
nan nan nan 0
-2.073415 -22.36717 -0.2622254 9
nan nan nan 0
4.475418 -48.72665 1.135124 13
nan nan nan 0
-3.77149 -41.50048 0.5086548 10
nan nan nan 0
0.07178446 -0.4008727 -0.09604306 36
1.251698 -6.764052 -0.9502483 22
1.521552 -8.632524 -0.8263823 36
2.09584 -11.64326 -0.7562757 15
0.8816697 -10.01675 -0.7003549 29
-0.04343633 -9.293454 -0.6990328 29
-0.8570144 -8.958834 -0.7319357 35
2.807324 -15.01681 -0.6199882 21
1.29702 -13.94957 -0.6514692 16
-0.0004578675 -12.73251 -0.66519 16
-1.009485 -11.13009 -0.6479577 31
3.981584 -21.72438 -0.3848255 26
1.691342 -18.93443 -0.4404248 10
-0.04783588 -16.74276 -0.4869774 11
-1.453161 -15.51742 -0.5374352 10
-0.4863543 -5.444413 -0.9842001 25
-0.7347386 -7.591231 -0.8537138 20
-3.859037 -40.06174 1.614903 11
nan nan nan 0
-4.66726 -45.84555 3.744971 12
8.498696 -48.22906 6.008158 16
-4.400304 -43.15179 7.89893 10
8.273335 -47.82848 12.9953 6
nan nan nan 0
nan nan nan 0
nan nan nan 0
-2.145718 -22.30008 -0.2615238 9
nan nan nan 0
4.300022 -48.68222 1.133731 14
-0.08380671 -30.62035 0.5231072 25
-3.787412 -40.12325 0.4919176 12
nan nan nan 0
0.07038472 -0.4011209 -0.09604306 35
1.227191 -6.763508 -0.9495602 26
1.48716 -8.613259 -0.8240253 40
2.052578 -11.63576 -0.7553155 15
0.8416492 -9.960126 -0.6961696 24
-0.07587627 -9.293245 -0.6990328 28
-0.8882813 -8.955788 -0.7319357 37
2.750375 -15.00195 -0.6189718 28
1.247873 -13.94904 -0.6512362 16
-0.04477452 -12.69748 -0.6633583 15
nan nan nan 0
3.883595 -21.61514 -0.382644 24
1.619676 -18.87547 -0.4389161 10
-0.1061173 -16.7175 -0.4862488 11
-1.506833 -15.50728 -0.5372624 9
-0.5053559 -5.442682 -0.9842001 21
-0.7617321 -7.593564 -0.8542728 20
-4.587879 -45.93887 1.852684 11
nan nan nan 0
-4.824648 -45.8042 3.742944 11
8.306643 -48.12151 5.991097 30
-4.546772 -43.09703 7.891757 10
8.089382 -47.75708 12.96813 8
nan nan nan 0
2.794698 -33.51361 0 18
nan nan nan 0
-2.21708 -22.22778 -0.2607637 10
nan nan nan 0
4.124146 -48.6272 1.132106 14
-0.1908796 -30.64986 0.5236204 24
-3.929397 -40.12969 0.4921619 14
nan nan nan 0
0.06898411 -0.4013641 -0.09604306 34
1.202704 -6.762876 -0.9488721 27
1.458751 -8.628213 -0.8249681 39
2.010245 -11.63302 -0.7546754 15
0.8016315 -9.898374 -0.6916354 22
-0.1080786 -9.272983 -0.6975263 28
-0.9195375 -8.952633 -0.7319357 33
2.691793 -14.97704 -0.6175489 33
1.198746 -13.94833 -0.6510034 16
-0.08923965 -12.71722 -0.6644049 14
-1.077891 -11.02838 -0.6424394 17
3.809857 -21.63841 -0.3828185 25
1.547622 -18.80628 -0.4371753 9
-0.1643225 -16.70204 -0.4858117 12
-1.560452 -15.49695 -0.5370897 9
-0.5243513 -5.440885 -0.9842001 21
-0.7887508 -7.595801 -0.8548319 24
-4.744606 -45.88779 1.851279 11
nan nan nan 0
-4.981266 -45.75735 3.740512 11
8.154341 -48.24318 6.002674 17
-4.69291 -43.04178 7.884583 11
7.904449 -47.67544 12.93836 9
6.886801 -39.24931 0.2292879 18
2.691242 -33.69262 0 14
nan nan nan 0
-2.289508 -22.17017 -0.260179 9
nan nan nan 0
3.949518 -48.58152 1.130714 14
-0.2980619 -30.66901 0.5239624 28
-4.172522 -41.13043 0.5046232 9
nan nan nan 0
0.06758267 -0.4016025 -0.09604306 34
1.178235 -6.762154 -0.948184 28
1.429439 -8.638163 -0.8254395 39
1.968792 -11.63505 -0.7543554 14
0.7616689 -9.831491 -0.6867524 23
-0.1405233 -9.277533 -0.6979028 24
-0.9507824 -8.949368 -0.7319357 34
2.636023 -14.96667 -0.6167358 31
1.149639 -13.94746 -0.6507704 16
nan nan nan 0
-1.117391 -11.03449 -0.6430203 22
3.673887 -21.30181 -0.3766229 28
1.479215 -18.77669 -0.4363629 10
-0.2223539 -16.68137 -0.4852288 12
-1.614018 -15.48644 -0.536917 9
-0.5433403 -5.439022 -0.9842001 21
-0.8163282 -7.60288 -0.8559501 24
-4.903693 -45.86102 1.850878 10
nan nan nan 0
-5.133157 -45.67036 3.734837 47
7.995617 -48.3301 6.009986 15
-4.838719 -42.98604 7.877411 12
1.538049 -9.507673 2.570073 34
6.696354 -38.96267 0.2274736 21
2.580474 -33.79154 0 16
nan nan nan 0
-2.361561 -22.11233 -0.2595944 9
nan nan nan 0
3.774483 -48.52524 1.129089 15
-0.4051811 -30.67278 0.5240479 24
-4.291506 -40.88192 0.5017523 9
nan nan nan 0
0.06618041 -0.4018359 -0.09604306 31
1.153787 -6.761345 -0.9474959 29
1.400076 -8.648014 -0.8259109 38
1.928166 -11.64185 -0.7543554 14
0.7251334 -9.804245 -0.6846597 22
-0.1720613 -9.232123 -0.6945132 29
-0.9820157 -8.945995 -0.7319357 36
2.582912 -14.97086 -0.6165326 25
1.100553 -13.94641 -0.6505376 15
nan nan nan 0
-1.172626 -11.18937 -0.6523142 22
3.582833 -21.21592 -0.3748777 30
1.410282 -18.73688 -0.4353184 9
-0.2804121 -16.6705 -0.4849374 12
-1.667528 -15.47574 -0.5367442 9
-0.5618119 -5.432199 -0.9833078 20
-0.8412085 -7.58517 -0.8542728 23
-5.058257 -45.79396 1.848872 12
nan nan nan 0
nan nan nan 0
7.815757 -48.28913 6.001455 12
-4.984195 -42.9298 7.870239 10
1.512423 -9.560683 2.583014 43
6.586882 -39.14359 0.2283951 26
2.463958 -33.82029 0 17
-0.4742783 -25.49017 -0.1332815 16
-2.435436 -22.07414 -0.2592435 9
18.05144 -106.8737 3.196762 8
3.599519 -48.46335 1.127348 16
-0.5135868 -30.75115 0.5254162 23
nan nan nan 0
nan nan nan 0
0.06477734 -0.4020645 -0.09604306 35
1.130178 -6.76533 -0.9474959 25
1.371443 -8.662679 -0.8268537 35
1.886716 -11.64359 -0.7540354 14
0.6884459 -9.771888 -0.6822183 21
-0.2043977 -9.23645 -0.6948898 24
-1.014365 -8.952415 -0.7327499 33
2.531473 -14.98471 -0.6167358 26
1.051488 -13.94518 -0.6503046 17
nan nan nan 0
-1.233275 -11.3837 -0.6639315 17
3.500589 -21.17898 -0.374005 31
1.342004 -18.7018 -0.43439 10
-0.3382952 -16.65443 -0.4845002 12
-1.72043 -15.4599 -0.5363987 9
-0.5807704 -5.430204 -0.9833078 23
-0.8665435 -7.572316 -0.8531547 26
-5.218077 -45.77603 1.848872 97
nan nan nan 0
-5.453644 -45.64825 3.736053 8
7.631622 -48.21809 5.989269 13
-5.129338 -42.87306 7.863066 11
1.485706 -9.608858 2.594661 40
6.449391 -39.16141 0.2283663 22
2.36112 -34.04816 0 17
-0.5642501 -25.53335 -0.1335171 17
-2.507939 -22.02576 -0.2587758 8
nan nan nan 0
3.426445 -48.42077 1.126072 16
-0.6262892 -31.01408 0.5299486 24
-4.584054 -40.91555 0.5025463 9
nan nan nan 0
0.06255255 -0.3975207 -0.09477933 33
1.105753 -6.764348 -0.9468078 25
1.340432 -8.662496 -0.8263823 37
1.845277 -11.64517 -0.7537153 15
0.6533294 -9.759302 -0.6811719 22
-0.2366377 -9.235681 -0.6948898 26
-1.04619 -8.95377 -0.733157 34
2.479151 -14.99345 -0.6167358 31
1.002445 -13.94379 -0.6500717 14
nan nan nan 0
-1.29418 -11.56782 -0.674968 16
3.465004 -21.42794 -0.3781936 26
1.273306 -18.6565 -0.4332294 10
-0.3960694 -16.63816 -0.4840631 12
-1.773813 -15.44883 -0.5362259 10
-0.5991769 -5.423255 -0.9824155 22
-0.8917992 -7.559377 -0.8520365 19
-5.403518 -45.97585 1.857701 28
18.00058 -112.7942 6.643672 11
-5.606863 -45.57948 3.732 9
7.449597 -48.15616 5.978301 14
-5.274747 -42.82072 7.85679 11
1.440574 -9.537584 2.573955 42
6.287979 -39.03066 0.2274736 23
2.241926 -34.0512 0 16
-0.6532463 -25.52622 -0.1334909 19
-2.580135 -21.97715 -0.2583081 9
18.26032 -112.9027 3.373271 20
3.254047 -48.38256 1.124911 15
-0.7335956 -30.97172 0.5292645 22
nan nan nan 0
nan nan nan 0
0.06116457 -0.3977366 -0.09477933 30
1.082134 -6.768167 -0.9468078 20
1.309439 -8.662202 -0.8259109 36
1.803851 -11.64661 -0.7533953 15
0.6192591 -9.761523 -0.6811719 22
nan nan nan 0
-1.079235 -8.964904 -0.7343782 33
2.427598 -15.00695 -0.6169391 20
0.9534245 -13.94222 -0.6498387 15
nan nan nan 0
-1.341447 -11.62273 -0.6784532 15
nan nan nan 0
1.20494 -18.61095 -0.4320689 9
-0.4538712 -16.62668 -0.4837717 12
-1.827139 -15.43758 -0.5360532 9
-0.618104 -5.421131 -0.9824155 22
-0.9175779 -7.551286 -0.8514774 18
nan nan nan 0
7.594191 -48.69771 2.865419 17
-5.764051 -45.54479 3.730784 9
7.262903 -48.0592 5.963067 14
-5.419234 -42.763 7.849617 11
1.398786 -9.485225 2.558426 45
nan nan nan 0
nan nan nan 0
-0.7356427 -25.29389 -0.1322866 18
-2.652022 -21.9283 -0.2578403 9
17.88251 -113.0694 3.376367 12
3.081959 -48.34374 1.123751 16
nan nan nan 0
nan nan nan 0
nan nan nan 0
0.05977584 -0.3979477 -0.09477933 31
1.057734 -6.76701 -0.9461198 25
1.277005 -8.651946 -0.8244967 36
1.762437 -11.64791 -0.7530752 15
0.5812905 -9.698901 -0.6766378 22
nan nan nan 0
-1.111753 -8.970973 -0.7351924 30
2.369723 -14.98079 -0.6155161 22
0.9047511 -13.94546 -0.6498387 16
nan nan nan 0
nan nan nan 0
nan nan nan 0
1.136602 -18.56016 -0.4307923 9
-0.5119064 -16.625 -0.4837717 11
-1.881016 -15.43111 -0.5360532 9
-0.6370234 -5.41894 -0.9824155 22
-0.943311 -7.543107 -0.8509184 17
nan nan nan 0
7.429426 -48.75847 2.867452 25
-5.917849 -45.48486 3.727541 9
7.079876 -47.98116 5.950271 13
-5.563383 -42.70481 7.842444 11
1.369811 -9.518728 2.566191 34
nan nan nan 0
nan nan nan 0
-0.8216462 -25.2212 -0.1319201 18
-2.720505 -21.85442 -0.2570803 9
7.55764 -48.91262 1.459106 17
2.90988 -48.29932 1.122474 18
-0.9857282 -32.13512 0.5492754 23
-4.813628 -39.24757 0.4826326 7
nan nan nan 0
0.05838637 -0.3981539 -0.09477933 37
1.033354 -6.765766 -0.9454317 27
1.243947 -8.636646 -0.822611 35
1.721036 -11.64905 -0.7527551 14
0.5451763 -9.661032 -0.6738475 23
nan nan nan 0
-1.139262 -8.93738 -0.7327499 35
2.31359 -14.96428 -0.6144998 29
0.8563735 -13.95352 -0.6500717 15
-0.3844669 -12.22216 -0.6387603 17
-1.365901 -11.15234 -0.6514429 19
3.271823 -21.67066 -0.3818586 29
1.06719 -18.48417 -0.4289355 9
-0.5697636 -16.61811 -0.4836259 12
-1.934869 -15.42445 -0.5360532 10
-0.6553391 -5.411799 -0.9815232 21
-0.9689984 -7.534841 -0.8503593 19
-5.850979 -45.65411 1.847066 58
8.423761 -56.6045 3.327499 16
-6.07328 -45.43923 3.725514 10
6.898899 -47.91225 5.938693 13
-5.707846 -42.651 7.836169 11
1.339946 -9.547364 2.572661 47
5.902729 -39.25258 0.2283951 22
1.871955 -33.83318 0 19
-0.9109439 -25.25316 -0.1321034 18
-2.788504 -21.78032 -0.2563202 9
7.385364 -48.92881 1.458811 32
2.738149 -48.25429 1.121197 18
nan nan nan 0
-4.961252 -39.31486 0.4836711 9
nan nan nan 0
0.0569962 -0.3983553 -0.09477933 31
1.008997 -6.764434 -0.9447436 27
1.212401 -8.631077 -0.8216683 36
1.679649 -11.65005 -0.7524351 15
0.5082753 -9.603106 -0.6696621 25
-0.3683418 -9.301223 -0.7001627 28
-1.1672 -8.908645 -0.7307144 30
2.255358 -14.93275 -0.6128736 26
0.807083 -13.94645 -0.6496059 16
nan nan nan 0
-1.404195 -11.14255 -0.6511524 20
3.149419 -21.36543 -0.3762739 23
1.002391 -18.48279 -0.4288194 9
-0.6277682 -16.61602 -0.4836259 11
-1.989339 -15.42256 -0.5362259 9
-0.6742257 -5.409479 -0.9815232 23
-0.9946393 -7.526488 -0.8498002 18
-6.029896 -45.782 1.853086 13
8.228276 -56.64838 3.328371 13
-6.227787 -45.38813 3.723082 11
6.706748 -47.75912 5.916756 12
-5.850659 -42.58696 7.828099 12
1.302668 -9.523275 2.564897 45
5.771491 -39.31253 0.2286255 30
1.754621 -33.85449 0 18
nan nan nan 0
-2.85602 -21.70602 -0.2555601 9
8.350673 -56.65757 1.688552 21
2.566236 -48.19866 1.119689 20
nan nan nan 0
-5.07463 -39.11385 0.4814109 9
nan nan nan 0
0.05560534 -0.3985518 -0.09477933 32
0.9846607 -6.763015 -0.9440555 27
1.178196 -8.605668 -0.8188397 33
1.638972 -11.65584 -0.7524351 15
0.4757397 -9.624749 -0.6710572 21
-0.3995124 -9.269992 -0.6979028 27
-1.192948 -8.865008 -0.7274578 34
2.203949 -14.94548 -0.6130769 21
0.7586677 -13.95417 -0.6498387 15
-0.4740196 -12.32894 -0.6445172 15
-1.448231 -11.17718 -0.6534759 23
3.028474 -21.05467 -0.3706018 25
0.9325384 -18.38134 -0.4263822 10
-0.6853517 -16.60374 -0.4833345 11
-2.043162 -15.41552 -0.5362259 9
-0.6924739 -5.402213 -0.9806309 21
-1.020234 -7.518046 -0.8492411 17
nan nan nan 0
7.015131 -49.51561 2.907532 17
-6.384793 -45.35624 3.722271 10
6.513729 -47.59048 5.892992 12
-5.993783 -42.52731 7.820926 11
1.275181 -9.570847 2.576544 56
5.620746 -39.23839 0.2280784 29
1.634744 -33.82545 0 17
nan nan nan 0
-2.924393 -21.64142 -0.254917 8
nan nan nan 0
2.392508 -48.09749 1.117135 21
nan nan nan 0
nan nan nan 0
nan nan nan 0
0.05421379 -0.3987435 -0.09477933 30
0.9603471 -6.761509 -0.9433674 26
1.150794 -8.629463 -0.8207254 33
1.598276 -11.66149 -0.7524351 15
0.4414509 -9.611403 -0.6700109 23
-0.4332671 -9.298424 -0.7001627 25
-1.22457 -8.865726 -0.7278649 35
2.15034 -14.94319 -0.6126703 26
0.7066464 -13.89189 -0.6468108 15
nan nan nan 0
-1.493849 -11.22153 -0.6563803 17
nan nan nan 0
0.8676608 -18.3695 -0.4260341 9
-0.7428572 -16.59126 -0.4830431 11
-2.096284 -15.40334 -0.5360532 9
-0.7106798 -5.394886 -0.9797386 21
-1.045781 -7.509519 -0.848682 21
nan nan nan 0
6.811489 -49.31729 2.894463 13
-6.540227 -45.31395 3.72065 11
6.342973 -47.5785 5.888727 11
-6.140082 -42.49153 7.818236 11
1.259229 -9.709337 2.612778 44
5.45951 -39.08446 0.2270705 28
1.498053 -33.41637 0 16
nan nan nan 0
-2.993725 -21.58651 -0.2543908 9
6.947615 -49.538 1.474737 33
2.224139 -48.09556 1.116903 18
nan nan nan 0
-5.251899 -38.37905 0.472798 9
nan nan nan 0
0.0521174 -0.3941442 -0.0935156 27
0.936056 -6.759914 -0.9426793 25
1.118733 -8.618621 -0.8193111 33
1.55756 -11.667 -0.7524351 15
0.4074735 -9.602919 -0.6693133 22
-0.4612128 -9.207225 -0.6933833 29
-1.256212 -8.866332 -0.728272 32
2.097469 -14.94566 -0.6124671 23
0.6574392 -13.8793 -0.6461121 15
nan nan nan 0
nan nan nan 0
nan nan nan 0
nan nan nan 0
-0.8005255 -16.58358 -0.4828974 11
-2.150732 -15.40088 -0.5362259 8
-0.7301714 -5.397247 -0.9806309 19
-1.071282 -7.500905 -0.848123 18
-6.47163 -45.45421 1.842451 5
6.617314 -49.17752 2.884878 10
-6.696173 -45.27605 3.719434 9
6.157679 -47.45271 5.870446 12
-5.800888 -39.18055 7.212143 38
1.212583 -9.613056 2.585602 44
5.336548 -39.20236 0.2276464 29
nan nan nan 0
nan nan nan 0
-3.056362 -21.48683 -0.2533384 9
nan nan nan 0
nan nan nan 0
nan nan nan 0
-5.362176 -38.19215 0.470721 13
nan nan nan 0
0.05074126 -0.3943237 -0.0935156 31
0.9117875 -6.758233 -0.9419912 26
1.088015 -8.617534 -0.8188397 36
1.51747 -11.67731 -0.7527551 15
0.3735607 -9.594316 -0.6686158 24
-0.4930813 -9.200579 -0.6930066 27
-1.287873 -8.866823 -0.7286791 36
2.043928 -14.94299 -0.6120605 27
0.6089875 -13.88151 -0.6461121 16
-0.6106879 -12.47791 -0.6526293 15
-1.549199 -11.04772 -0.6467959 19
2.819728 -21.17442 -0.3721725 29
nan nan nan 0
-0.8578901 -16.5707 -0.4826059 12
-2.203768 -15.38833 -0.5360532 9
-0.7476442 -5.384921 -0.9788463 23
-1.096736 -7.492204 -0.8475639 18
-6.618702 -45.35225 1.83924 6
6.435229 -49.12113 2.880231 9
-5.964574 -39.38406 3.23667 35
5.983293 -47.40498 5.861915 12
-5.94869 -39.23301 7.225593 25
1.173117 -9.569295 2.572661 41
5.204937 -39.2604 0.2278768 25
1.207174 -31.9071 0 14
-1.360906 -25.40816 -0.1330197 21
-3.119785 -21.39688 -0.2524029 9
nan nan nan 0
1.253854 -31.96173 0.7417009 25
nan nan nan 0
-5.528262 -38.40083 0.4735309 39
nan nan nan 0
0.0493645 -0.3944984 -0.0935156 33
0.8875423 -6.756465 -0.9413031 24
nan nan nan 0
1.476699 -11.68254 -0.7527551 16
0.3397129 -9.58559 -0.6679182 23
-0.5234828 -9.168936 -0.6907468 32
-1.319553 -8.867204 -0.7290862 38
1.989109 -14.93023 -0.6112474 23
nan nan nan 0
-0.6531915 -12.45575 -0.6515827 15
-1.586328 -11.03236 -0.6462151 20
2.721975 -21.0007 -0.3689438 26
0.3695597 -10.08045 -0.2332685 18
-0.9157274 -16.5676 -0.4826059 11
-2.25747 -15.38055 -0.5360532 10
nan nan nan 0
-1.122141 -7.483417 -0.8470048 18
-5.838782 -39.05878 1.584604 39
6.259935 -49.11359 2.878489 10
-7.00216 -45.16418 3.714164 9
5.804476 -47.31721 5.848509 12
-6.077296 -39.15854 7.21573 41
1.12881 -9.482218 2.548073 50
5.070422 -39.29817 0.227992 31
0.3427791 -10.01907 0 27
-1.450729 -25.42322 -0.1331244 21
-3.181877 -21.3018 -0.2514089 8
6.376413 -49.20657 1.462793 7
0.3574821 -10.04086 0.2323401 22
nan nan nan 0
nan nan nan 0
nan nan nan 0
0.04798714 -0.3946683 -0.0935156 35
0.8633207 -6.754611 -0.9406151 22
1.024867 -8.600208 -0.8164827 39
1.432857 -11.66286 -0.7511549 16
0.3060907 -9.581733 -0.6675694 21
-0.5557878 -9.172031 -0.6911235 27
-1.351251 -8.867469 -0.7294933 32
1.935048 -14.92222 -0.6106375 27
nan nan nan 0
nan nan nan 0
-1.612418 -10.94281 -0.6412777 18
2.644893 -20.98032 -0.3684203 28
0.3337037 -10.06169 -0.2328043 30
-0.9726723 -16.54934 -0.4821688 12
-2.311144 -15.37257 -0.5360532 9
nan nan nan 0
-1.147499 -7.474543 -0.8464457 18
-6.035611 -39.43323 1.600657 21
6.0774 -49.04598 2.873261 12
-6.854276 -43.215 3.555675 15
5.626346 -47.22877 5.835104 14
-6.209316 -39.10794 7.210351 49
1.067865 -9.246229 2.483369 82
nan nan nan 0
0.3079584 -10.0252 0 29
-1.54249 -25.46791 -0.1333862 26
-3.245616 -21.22137 -0.2505904 9
6.190849 -49.11945 1.459548 8
0.3217853 -10.02207 0.2318758 31
nan nan nan 0
nan nan nan 0
nan nan nan 0
0.0472465 -0.3996289 -0.09477933 33
0.8391227 -6.752668 -0.939927 25
1.000588 -8.653178 -0.8211968 36
1.38739 -11.62816 -0.7485945 17
0.2722141 -9.567785 -0.666523 24
-0.5887608 -9.18496 -0.6922534 31
-1.382967 -8.867622 -0.7299004 31
1.879812 -14.9041 -0.6096212 25
0.3339026 -10.01851 -0.4656013 17
nan nan nan 0
-1.651353 -10.94205 -0.6415681 20
2.58931 -21.13332 -0.3709509 29
0.2976848 -10.03282 -0.2321079 25
-1.029189 -16.52589 -0.4815859 12
-2.364028 -15.35948 -0.5358804 9
-0.8047253 -5.381661 -0.9797386 20
-1.172808 -7.465585 -0.8458866 21
nan nan nan 0
5.89601 -48.98264 2.868324 10
-6.997896 -43.14654 3.552027 32
5.453466 -47.1791 5.826573 13
-6.352891 -39.12972 7.21842 35
1.030723 -9.206707 2.471722 46
nan nan nan 0
0.272688 -10.01622 0 27
-1.635221 -25.52225 -0.1337003 22
-3.308831 -21.14076 -0.2497718 9
6.010838 -49.07131 1.457484 8
0.2860801 -9.998148 0.2312956 30
nan nan nan 0
nan nan nan 0
nan nan nan 0
0.04585125 -0.3997914 -0.09477933 34
0.8149489 -6.750639 -0.9392389 26
0.9609002 -8.57253 -0.8131828 40
1.330661 -11.49415 -0.7396331 27
0.2384386 -9.55372 -0.6654767 22
-0.621156 -9.187824 -0.69263 30
-1.4147 -8.867661 -0.7303075 31
1.825337 -14.89073 -0.6088081 26
0.2984796 -10.00464 -0.4649025 16
-0.7625253 -12.11435 -0.6340501 14
-1.695654 -10.97568 -0.6438916 29
2.500728 -21.01813 -0.3687693 30
0.2620033 -10.00881 -0.2315277 25
-1.085555 -16.50225 -0.4810031 13
-2.417628 -15.35113 -0.5358804 9
-0.8212581 -5.364232 -0.9770617 18
-1.198861 -7.461445 -0.8458866 18
-6.918256 -43.17864 1.754763 38
5.715717 -48.9236 2.863677 10
-7.159882 -43.19068 3.557702 7
5.279343 -47.11401 5.816214 13
-6.485411 -39.08305 7.213937 48
0.9980558 -9.205448 2.470428 71
4.476763 -37.81488 0.2190935 17
0.2377232 -10.01711 0 24
nan nan nan 0
-3.372315 -21.06491 -0.2490118 10
5.829465 -49.00762 1.454977 8
0.2518108 -10.02407 0.2318758 25
-3.012773 -45.86938 0.7856443 9
nan nan nan 0
nan nan nan 0
0.04385163 -0.3951492 -0.0935156 30
0.7913797 -6.753443 -0.9392389 27
0.920707 -8.481812 -0.804226 39
1.276002 -11.36981 -0.7313119 44
0.2048726 -9.544519 -0.6647791 25
-0.6535785 -9.190573 -0.6930066 28
-1.444841 -8.857752 -0.7299004 32
1.775125 -14.9119 -0.6094179 26
0.2626277 -9.970668 -0.4632722 14
-0.8031488 -12.08671 -0.6327417 15
nan nan nan 0
2.425047 -21.00686 -0.3684203 34
0.2275216 -10.02965 -0.2319919 22
-1.142114 -16.4834 -0.4805659 11
-2.470403 -15.33766 -0.5357077 10
-0.8422765 -5.375912 -0.9797386 20
-1.224899 -7.457215 -0.8458866 18
-7.078634 -43.21339 1.757171 30
5.536469 -48.86886 2.85932 11
-4.540661 -26.82324 2.209529 7
5.106277 -47.05322 5.806465 13
-6.625088 -39.07957 7.217524 55
0.9674362 -9.223283 2.47431 36
4.3653 -38.00909 0.2201302 18
0.203164 -10.03787 0 18
nan nan nan 0
-3.436928 -20.99874 -0.2483687 9
5.648611 -48.94327 1.452471 10
nan nan nan 0
-3.166654 -45.76881 0.784105 9
-6.113676 -37.78029 0.467117 15
nan nan nan 0
0.04247203 -0.3952998 -0.0935156 34
0.7672378 -6.751244 -0.9385508 26
0.8884799 -8.460224 -0.801869 36
1.227643 -11.29483 -0.726191 55
0.17074 -9.500294 -0.6616401 23
-0.6856556 -9.188234 -0.6930066 27
-1.475751 -8.852654 -0.7299004 27
1.724212 -14.92793 -0.6098245 31
0.2286274 -10.00648 -0.4649025 15
nan nan nan 0
nan nan nan 0
2.348361 -20.9854 -0.3678967 29
nan nan nan 0
-1.199281 -16.47433 -0.4804202 12
-2.523113 -15.32402 -0.5355349 9
-0.8602535 -5.368082 -0.9788463 18
-1.250922 -7.452894 -0.8458866 19
nan nan nan 0
5.35822 -48.81842 2.855254 11
-4.646164 -26.87598 2.215204 6
4.933181 -46.98685 5.796105 14
-6.769019 -39.09983 7.225593 24
nan nan nan 0
nan nan nan 0
nan nan nan 0
nan nan nan 0
-3.50112 -20.93237 -0.2477255 9
5.467164 -48.86832 1.449669 10
0.5637959 -30.86647 0.7158209 29
-3.313342 -45.57798 0.7810264 9
-6.23735 -37.7094 0.4665062 17
nan nan nan 0
0.03938107 -0.3810339 -0.08972443 38
0.7436668 -6.753881 -0.9385508 24
0.8604596 -8.478129 -0.8032832 37
1.189257 -11.30897 -0.7268312 63
0.1382348 -9.545718 -0.6647791 21
-0.7177244 -9.185785 -0.6930066 29
-1.505804 -8.842536 -0.7294933 35
1.674324 -14.95371 -0.6106375 26
0.194185 -10.03218 -0.4660672 15
-0.9080369 -12.35967 -0.6473958 14
nan nan nan 0
2.279953 -21.03819 -0.3686821 34
0.2840405 -17.99784 -0.4169819 8
-1.256018 -16.46008 -0.4801288 13
-2.575757 -15.31019 -0.5353622 9
-0.8789864 -5.365047 -0.9788463 19
-1.276086 -7.443585 -0.8453276 18
-4.590206 -26.85823 1.092789 8
5.180917 -48.7723 2.851479 12
-7.92306 -44.87513 3.70322 10
4.761112 -46.92479 5.786356 12
-6.925166 -39.18737 7.246214 24
0.9120089 -9.321136 2.498898 42
nan nan nan 0
0.4128071 -30.85217 0 34
-1.931397 -24.72928 -0.1296686 15
-3.562361 -20.85103 -0.246907 9
5.29116 -48.83742 1.448194 10
0.4533788 -30.68831 0.7116429 30
-3.461017 -45.41659 0.7784609 8
nan nan nan 0
nan nan nan 0
0.04026482 -0.4003926 -0.09477933 36
0.7195581 -6.751513 -0.9378628 27
0.8333018 -8.505851 -0.8056403 36
1.149267 -11.30809 -0.7265111 64
0.1049132 -9.546142 -0.6647791 19
-0.7497844 -9.183225 -0.6930066 26
-1.535804 -8.832317 -0.7290862 27
1.619954 -14.9396 -0.6098245 21
0.2212355 -13.8981 -0.646345 14
-0.9561658 -12.42114 -0.6507975 13
-1.8379 -10.88696 -0.640116 18
2.209638 -21.07585 -0.3692056 28
0.2205951 -17.94875 -0.4158213 8
-1.313069 -16.45061 -0.4799831 13
-2.627488 -15.29125 -0.5350167 9
-0.8968915 -5.357094 -0.977954 22
-1.302062 -7.439086 -0.8453276 18
-4.695968 -26.91094 1.095598 7
5.004002 -48.72554 2.847703 10
-8.077002 -44.83249 3.702004 13
4.589052 -46.85716 5.775998 13
-7.089869 -39.31786 7.274905 23
0.878554 -9.314646 2.49631 48
nan nan nan 0
nan nan nan 0
nan nan nan 0
-3.624797 -20.77937 -0.2462054 9
5.114394 -48.79594 1.446425 10
0.3478417 -30.82966 0.7148924 32
-3.609195 -45.27467 0.7762374 10
-4.644461 -26.91986 0.3332798 6
nan nan nan 0
0.03940367 -0.4053385 -0.09604306 34
0.6959865 -6.753983 -0.9378628 30
0.8073742 -8.548351 -0.8094116 37
1.110767 -11.32196 -0.7271512 64
0.07170521 -9.561413 -0.6658255 22
-0.7818352 -9.180552 -0.6930066 28
-1.566625 -8.826902 -0.7290862 31
1.566749 -14.93523 -0.6094179 25
0.1730346 -13.92376 -0.6475096 13
-0.9926955 -12.33312 -0.646349 13
-1.87419 -10.87064 -0.6395351 17
2.143129 -21.15307 -0.3704273 32
0.1581634 -17.9744 -0.4164017 9
-1.369653 -16.43597 -0.4796916 11
-2.677388 -15.2623 -0.5343257 9
-0.9155858 -5.353931 -0.977954 23
-1.327144 -7.429605 -0.8447685 18
-8.007537 -44.93999 1.831816 11
4.827477 -48.67813 2.843927 16
-8.233448 -44.80402 3.702004 11
4.417989 -46.79384 5.766248 14
nan nan nan 0
0.8658076 -9.534087 2.554544 46
nan nan nan 0
0.2024148 -31.62928 0 32
-2.10484 -24.72516 -0.129721 17
-3.693798 -20.7469 -0.2459715 9
4.937983 -48.75383 1.444655 11
0.2392425 -30.70573 0.7119911 30
-3.756011 -45.12727 0.7739285 10
-6.638838 -37.6814 0.4669949 8
nan nan nan 0
0.03902843 -0.4150929 -0.0985705 36
0.671912 -6.751443 -0.9371747 27
0.77753 -8.551117 -0.8094116 34
1.075017 -11.36551 -0.7297116 60
0.0383919 -9.576568 -0.6668718 22
-0.814318 -9.182734 -0.6933833 29
-1.596536 -8.816476 -0.7286791 31
1.513089 -14.9257 -0.6088081 23
0.123796 -13.85436 -0.6442488 16
nan nan nan 0
-1.922536 -10.92302 -0.6430203 17
2.078058 -21.24998 -0.371998 32
