# .PCD v0.7 - Point Cloud Data file format
VERSION 0.7
FIELDS x y z intensity
SIZE 4 4 4 4
TYPE F F F F
COUNT 1 1 1 1
WIDTH 1638
HEIGHT 1
VIEWPOINT 0 0 0 1 0 0 0
POINTS 1638
DATA ascii
-7.371365 -11.34835 2.459337 37
-3.033373 -9.673961 2.705953 40
-8.968388 -29.61071 0.1779702 10
-9.728426 -23.79828 0 9
-11.26046 -21.66274 -0.1276266 9
nan nan nan 0
-12.95285 -42.85541 1.319757 65
-16.99004 -41.7318 1.045182 114
-18.57886 -35.90727 0.6908916 9
-19.52159 -30.53496 0.4423165 9
nan nan nan 0
-0.1234868 -0.3982164 -0.0985705 46
-1.903809 -6.258988 -0.9034584 25
-2.470251 -7.879732 -0.7782985 34
-3.030561 -9.790314 -0.6548201 57
nan nan nan 0
-4.382576 -8.358923 -0.7099552 28
-4.991998 -7.726759 -0.7482191 15
-3.848312 -12.73484 -0.5396947 95
-4.318079 -10.63963 -0.5336131 14
-5.326627 -10.27555 -0.6044803 11
-6.088241 -9.526221 -0.6555089 20
nan nan nan 0
nan nan nan 0
-6.940186 -13.29628 -0.436123 40
-7.817278 -12.15406 -0.4982202 30
-2.971731 -4.663718 -0.9957999 34
-4.21069 -6.501529 -0.8671317 18
nan nan nan 0
-13.18563 -42.76225 2.601415 84
nan nan nan 0
-12.26633 -39.12417 5.029548 121
-7.435193 -11.35958 2.467407 8
-3.090462 -9.736979 2.726659 69
-9.055575 -29.52663 0.1776535 10
-9.807623 -23.75493 0 10
nan nan nan 0
nan nan nan 0
-13.11698 -42.85772 1.321232 49
-17.14701 -41.69998 1.045878 105
-18.71333 -35.85993 0.6912336 9
-19.67952 -30.54647 0.4434771 9
nan nan nan 0
-0.1262606 -0.4024182 -0.09983423 46
-1.925646 -6.252305 -0.9034584 27
-2.499244 -7.875807 -0.7787699 37
-3.079613 -9.827298 -0.6580207 56
nan nan nan 0
-4.409395 -8.339167 -0.7095785 28
-5.027103 -7.721811 -0.7494403 14
-3.819751 -12.48244 -0.5295309 100
-4.358979 -10.63373 -0.534079 14
-5.318494 -10.17283 -0.5995083 12
-6.137685 -9.530083 -0.6572515 18
-5.140795 -16.58865 -0.3024502 17
nan nan nan 0
nan nan nan 0
-7.88685 -12.16862 -0.4999478 29
-2.990654 -4.657454 -0.9966922 24
-4.236077 -6.49095 -0.8676907 18
nan nan nan 0
-13.33928 -42.73026 2.602286 63
nan nan nan 0
-12.40133 -39.07639 5.028938 119
-7.515449 -11.39514 2.480856 37
-3.146554 -9.795115 2.74607 49
-9.155624 -29.48529 0.1775959 11
-9.930883 -23.81747 0 9
-10.38535 -19.64323 -0.1161337 16
-11.46565 -17.59152 -0.2450945 16
nan nan nan 0
-17.22538 -41.47829 1.041816 97
-18.79182 -35.70591 0.6895233 9
-19.81054 -30.51533 0.4440269 10
nan nan nan 0
-0.1262639 -0.3973446 -0.0985705 40
-1.947459 -6.245544 -0.9034584 25
-2.528239 -7.871774 -0.7792413 39
-3.079254 -9.707077 -0.6506596 73
-3.791428 -9.032653 -0.6822183 26
-4.410315 -8.270936 -0.7050589 29
-5.059499 -7.712546 -0.7502545 15
nan nan nan 0
-4.382703 -10.58615 -0.5324485 14
-5.3167 -10.08354 -0.5953215 12
-6.187229 -9.533714 -0.6589941 19
-5.221093 -16.64216 -0.3037591 16
nan nan nan 0
-7.023466 -13.22985 -0.4355402 47
-7.918343 -12.12429 -0.4992568 30
-2.990834 -4.622218 -0.9913384 24
-4.261442 -6.480274 -0.8682498 18
nan nan nan 0
-13.48234 -42.66439 2.601125 48
nan nan nan 0
-12.53614 -39.02813 5.028329 118
nan nan nan 0
-3.204579 -9.857574 2.766775 48
-9.252497 -29.43408 0.1774807 10
-10.00814 -23.76883 0 9
-10.48914 -19.67303 -0.1165264 9
nan nan nan 0
nan nan nan 0
-17.44931 -41.60691 1.046575 106
-18.89525 -35.60036 0.6887536 9
-19.958 -30.50875 0.4449432 10
nan nan nan 0
-0.1276501 -0.3969015 -0.0985705 41
-1.969248 -6.238709 -0.9034584 28
-2.557237 -7.867636 -0.7797127 44
-3.058297 -9.525209 -0.6391377 101
-3.840446 -9.060699 -0.6853573 26
-4.467506 -8.308181 -0.7095785 25
-5.094642 -7.707305 -0.7514758 14
-3.923225 -12.50791 -0.531767 95
-4.438887 -10.61687 -0.5347777 13
-5.335451 -10.03406 -0.5934898 13
-6.223205 -9.516235 -0.6592846 18
-5.306363 -16.70961 -0.3053298 10
nan nan nan 0
nan nan nan 0
-7.89465 -11.99642 -0.4951107 30
-3.001568 -4.603513 -0.9895539 18
-4.286784 -6.469499 -0.8688089 18
-25.77324 -38.93431 1.873753 3
nan nan nan 0
-19.46695 -29.06767 2.84227 19
-12.67076 -38.97941 5.027719 116
nan nan nan 0
-3.255544 -9.896801 2.781011 73
-9.355185 -29.4016 0.1774807 9
-4.586683 -10.78513 0 27
nan nan nan 0
nan nan nan 0
-13.57111 -42.73707 1.321822 15
-17.60224 -41.56416 1.047039 74
-19.08075 -35.64878 0.690977 8
-20.11942 -30.52237 0.4461649 11
nan nan nan 0
-0.1290347 -0.3964535 -0.0985705 47
-1.991013 -6.231797 -0.9034584 26
-2.586237 -7.863391 -0.7801841 38
-3.16388 -9.737553 -0.65418 68
-3.826931 -8.941763 -0.6773353 32
-4.501234 -8.3013 -0.7103317 30
-5.127044 -7.697766 -0.7522899 15
-3.959313 -12.47033 -0.5307505 98
-4.470095 -10.58751 -0.534079 14
-5.450693 -10.16497 -0.6023868 11
-6.215158 -9.431954 -0.6549281 19
-5.434958 -16.90994 -0.3093439 17
-4.612417 -10.81421 -0.2720305 22
nan nan nan 0
-8.058055 -12.15198 -0.5027118 34
-3.012209 -4.584789 -0.9877692 28
-4.30934 -6.454496 -0.8688089 20
-25.84799 -38.75268 1.869339 37
nan nan nan 0
-19.71049 -29.2102 2.862943 20
-12.8052 -38.93023 5.02711 117
nan nan nan 0
-3.247431 -9.757046 2.744776 45
-9.434783 -29.29737 0.1770487 9
-4.630219 -10.78284 0 32
nan nan nan 0
-11.75191 -17.62438 -0.2472578 17
-13.71562 -42.67516 1.32138 15
-4.610064 -10.77717 0.2712181 32
-19.16945 -35.51597 0.6896943 9
-20.25074 -30.48944 0.4467146 10
nan nan nan 0
-0.1304178 -0.3960006 -0.0985705 42
-2.012754 -6.224809 -0.9034584 26
-2.615238 -7.859039 -0.7806555 40
-3.169844 -9.641113 -0.6484192 91
nan nan nan 0
-4.539754 -8.303033 -0.7118383 33
-5.156662 -7.683959 -0.752697 14
-4.039452 -12.5706 -0.5356292 101
-4.507025 -10.57184 -0.534079 13
-5.429128 -10.04048 -0.5961065 11
-6.24528 -9.406043 -0.6546376 25
-5.507855 -16.93366 -0.3101293 16
-4.640255 -10.77509 -0.2714502 27
-7.171181 -13.17313 -0.436123 48
-8.072648 -12.08224 -0.5009843 38
-3.06627 -4.631642 -1.000261 18
-4.334621 -6.443534 -0.869368 18
-19.69238 -29.30417 1.416452 18
nan nan nan 0
nan nan nan 0
-12.93474 -38.86646 5.024673 116
-6.915661 -10.17476 2.235191 100
-3.26608 -9.699871 2.731835 47
-9.526153 -29.23098 0.1768471 9
-4.659877 -10.74826 0 30
nan nan nan 0
-11.81614 -17.5874 -0.2473162 34
-13.88304 -42.68406 1.323149 11
-4.639731 -10.74265 0.2707539 35
-19.28374 -35.43128 0.6893523 9
-19.68397 -29.41314 0.4319321 11
nan nan nan 0
-0.1317993 -0.395543 -0.0985705 37
-2.03447 -6.217745 -0.9034584 27
-2.642656 -7.849863 -0.7806555 38
-3.261662 -9.805202 -0.660261 64
nan nan nan 0
-4.56871 -8.287136 -0.7118383 31
-5.186247 -7.670039 -0.7531041 15
-4.070963 -12.51841 -0.534003 93
-4.518238 -10.4964 -0.531051 13
-5.43306 -9.964485 -0.5927047 12
-6.280853 -9.388334 -0.6549281 20
-5.510719 -16.74336 -0.3069878 20
-4.679832 -10.76341 -0.2715663 22
-7.21712 -13.14802 -0.436123 41
-8.190161 -12.16588 -0.5056486 32
-3.074216 -4.60864 -0.9975845 19
-4.359877 -6.432475 -0.869927 20
-19.83658 -29.2973 1.419461 8
nan nan nan 0
nan nan nan 0
-13.07508 -38.83519 5.026501 121
-6.945573 -10.14244 2.233398 56
-3.348119 -9.830159 2.771952 49
-9.612481 -29.15006 0.1765592 10
-4.707387 -10.75483 0 15
nan nan nan 0
-11.96718 -17.67851 -0.2491872 14
-14.02727 -42.6211 1.322707 11
-4.679199 -10.73097 0.27087 30
nan nan nan 0
-19.79211 -29.35254 0.4320542 13
nan nan nan 0
-0.131698 -0.3904752 -0.09730678 41
-2.056162 -6.210606 -0.9034584 28
-2.670041 -7.84059 -0.7806555 36
-3.232307 -9.604559 -0.647459 91
-3.95854 -8.987934 -0.6839622 26
-4.600033 -8.275496 -0.7122149 32
-5.215797 -7.656006 -0.7535112 14
nan nan nan 0
-4.580719 -10.54012 -0.534079 13
-5.513528 -10.02859 -0.5976766 11
-6.263331 -9.291873 -0.6497003 26
-5.608581 -16.84261 -0.3091694 30
-4.711349 -10.73328 -0.2712181 12
-7.250867 -13.10088 -0.4353945 42
-8.204512 -12.09588 -0.5039211 34
-3.090285 -4.597881 -0.9975845 19
-4.385109 -6.421319 -0.8704861 18
nan nan nan 0
nan nan nan 0
-26.65753 -38.62349 3.813879 16
-13.20576 -38.77522 5.024673 118
-7.006093 -10.15456 2.241467 98
-3.354138 -9.736205 2.748658 46
-9.698359 -29.0689 0.1762712 10
nan nan nan 0
nan nan nan 0
-12.07109 -17.69857 -0.2500642 15
nan nan nan 0
-18.21507 -41.39212 1.049012 106
-19.60325 -35.42701 0.6919177 10
-20.66726 -30.42043 0.4488526 10
nan nan nan 0
-0.1315628 -0.385413 -0.09604306 40
-2.077828 -6.20339 -0.9034584 24
-2.695775 -7.826515 -0.7801841 37
-3.294713 -9.678256 -0.6532199 61
-3.993941 -8.983177 -0.6846597 27
-4.63133 -8.263737 -0.7125916 32
-5.24249 -7.637753 -0.7535112 14
-4.170866 -12.52761 -0.5356292 102
-4.637543 -10.5698 -0.5364081 13
-5.560608 -10.03111 -0.598985 12
-6.30976 -9.290594 -0.6511524 23
-5.662554 -16.80872 -0.3089076 20
nan nan nan 0
-7.31117 -13.10167 -0.4362688 36
-8.424407 -12.32701 -0.5148045 28
nan nan nan 0
-4.410316 -6.410064 -0.8710452 18
nan nan nan 0
nan nan nan 0
-26.60438 -38.26018 3.787127 74
-13.3378 -38.71949 5.023454 88
-6.937547 -9.980646 2.208293 125
-3.354783 -9.628646 2.721482 74
-9.788584 -29.00171 0.1760696 10
nan nan nan 0
-11.02107 -19.66713 -0.1178354 14
-12.18662 -17.73461 -0.2511751 16
nan nan nan 0
-18.36959 -41.35113 1.049592 111
-19.8632 -35.60284 0.6967067 11
-20.78745 -30.36873 0.449158 11
nan nan nan 0
-0.1329074 -0.3849514 -0.09604306 43
-2.099469 -6.1961 -0.9034584 28
-2.723078 -7.817058 -0.7801841 32
-3.313878 -9.624228 -0.6503395 84
-4.03344 -8.987386 -0.6860549 22
-4.667509 -8.26054 -0.7137215 29
-5.271956 -7.623504 -0.7539183 15
-4.222534 -12.53665 -0.5366455 85
-4.68452 -10.57638 -0.5375727 12
-5.576096 -9.976775 -0.5968916 14
-6.364717 -9.301457 -0.6534759 17
-5.700249 -16.72733 -0.3077732 19
-6.769344 -15.13565 -0.3840226 33
-7.364213 -13.08914 -0.4367059 39
-8.405007 -12.20701 -0.511004 47
nan nan nan 0
-4.432665 -6.39463 -0.8710452 18
-26.61141 -38.42709 1.87576 52
nan nan nan 0
nan nan nan 0
nan nan nan 0
-6.870697 -9.811365 2.176016 125
-3.418823 -9.70344 2.74607 45
-9.876841 -28.9295 0.1758392 10
nan nan nan 0
-11.09457 -19.63724 -0.1178877 18
-12.26838 -17.72073 -0.2515844 19
nan nan nan 0
-18.51996 -41.30044 1.04994 114
-20.02168 -35.5943 0.6979039 10
-20.98701 -30.43179 0.4511738 11
nan nan nan 0
-0.1327209 -0.3798956 -0.09477933 41
-2.121085 -6.188734 -0.9034584 29
-2.750349 -7.807505 -0.7801841 32
-3.344176 -9.603176 -0.6496994 94
-4.095646 -9.041407 -0.6912866 26
-4.691378 -8.235535 -0.7129682 26
-5.301385 -7.60914 -0.7543253 15
nan nan nan 0
-4.745864 -10.61469 -0.5403677 12
-5.659926 -10.04425 -0.6021252 12
-6.385805 -9.26275 -0.6523142 18
-5.802549 -16.83495 -0.3101293 24
-6.809798 -15.08459 -0.3833262 36
-7.412323 -13.0677 -0.4368517 39
-8.29938 -11.96414 -0.5020208 37
-3.138264 -4.565268 -0.9975845 28
-4.457807 -6.383189 -0.8716043 18
-26.85689 -38.49375 1.883586 12
-14.61927 -42.12983 2.592412 8
nan nan nan 0
-13.60944 -38.63012 5.024064 109
-6.825452 -9.674818 2.150912 47
-3.431632 -9.632294 2.729247 49
-9.964716 -28.85704 0.1756088 10
nan nan nan 0
nan nan nan 0
-12.31585 -17.6573 -0.251292 14
nan nan nan 0
-18.67432 -41.25832 1.050521 108
-20.1162 -35.472 0.6968777 10
-21.12735 -30.40761 0.4519068 9
nan nan nan 0
-0.1386824 -0.3931825 -0.0985705 44
-2.142675 -6.181292 -0.9034584 25
-2.775918 -7.793166 -0.7797127 32
-3.43891 -9.765615 -0.6615412 61
-4.116816 -9.004374 -0.6895427 21
-4.715128 -8.210462 -0.7122149 27
-5.33078 -7.594667 -0.7547324 15
nan nan nan 0
-4.764403 -10.55708 -0.5382714 13
-5.734426 -10.09389 -0.606312 11
-6.432347 -9.260896 -0.6537664 24
-5.821821 -16.70129 -0.308035 29
nan nan nan 0
-7.462856 -13.05042 -0.4371431 41
-8.341094 -11.9351 -0.5020208 29
-3.17101 -4.578537 -1.002938 32
-4.482923 -6.371651 -0.8721634 20
nan nan nan 0
-14.73981 -42.00318 2.587765 101
-26.07932 -36.6799 3.657416 4
-13.74087 -38.57303 5.022845 122
-6.961839 -9.795226 2.183189 122
-3.584545 -9.952017 2.823716 45
-10.05056 -28.7796 0.1753497 10
-10.8915 -23.75181 0 9
nan nan nan 0
nan nan nan 0
-14.66537 -42.07247 1.313417 65
-18.82861 -41.21561 1.051101 105
-20.2126 -35.35383 0.695937 9
-21.26778 -30.38282 0.4526399 9
nan nan nan 0
-0.1416155 -0.3972748 -0.09983423 36
-2.164239 -6.173775 -0.9034584 25
-2.80142 -7.778744 -0.7792413 21
-3.441221 -9.664222 -0.6554602 66
-4.190002 -9.080534 -0.6965184 19
-4.738761 -8.185324 -0.7114617 28
-5.363017 -7.584147 -0.7555466 14
nan nan nan 0
nan nan nan 0
-5.787 -10.10413 -0.6081438 11
-6.476089 -9.254739 -0.6549281 22
-5.924918 -16.80818 -0.310391 25
nan nan nan 0
-7.570782 -13.13254 -0.4407859 38
-8.44027 -11.98761 -0.5054759 29
-3.184154 -4.563407 -1.002046 28
-4.508013 -6.360016 -0.8727224 19
-26.24712 -37.06593 1.822585 4
nan nan nan 0
-25.76313 -35.96882 3.595399 7
-13.87879 -38.53417 5.024064 116
-6.958735 -9.718889 2.171533 20
-3.584607 -9.844126 2.79654 45
-10.13265 -28.69247 0.1750329 11
nan nan nan 0
-11.45242 -19.78393 -0.1194847 15
-12.48217 -17.63208 -0.252169 18
nan nan nan 0
-18.98073 -41.16779 1.051565 96
-20.27597 -35.17911 0.6938846 9
-21.41117 -30.36151 0.453434 10
nan nan nan 0
-0.1461561 -0.4059246 -0.1023617 41
-2.185776 -6.166183 -0.9034584 28
-2.828556 -7.768918 -0.7792413 22
-3.469871 -9.638063 -0.6545001 77
-4.204835 -9.029676 -0.6937281 19
-4.752221 -8.1429 -0.7092019 36
-5.392352 -7.569438 -0.7559537 14
nan nan nan 0
-4.871356 -10.59618 -0.5419981 14
-5.824732 -10.08819 -0.6084055 11
-6.522745 -9.252467 -0.6563803 20
-5.970137 -16.74972 -0.3096929 29
-6.916896 -14.90363 -0.380541 29
-7.659277 -13.17948 -0.4432631 36
nan nan nan 0
-3.222728 -4.584442 -1.009184 28
-4.533077 -6.348283 -0.8732815 18
-25.94396 -36.36814 1.792687 14
nan nan nan 0
-25.53854 -35.39376 3.546758 27
-14.00643 -38.46683 5.021626 118
-7.015655 -9.726444 2.178706 103
nan nan nan 0
-10.20417 -28.57687 0.1745433 11
-11.12475 -23.82017 0 9
nan nan nan 0
-12.63657 -17.71864 -0.25404 16
nan nan nan 0
-19.13275 -41.11942 1.052029 98
-20.37855 -35.07354 0.6932005 9
-21.54888 -30.33141 0.4541059 9
nan nan nan 0
-0.1491655 -0.4099797 -0.1036254 37
-2.208954 -6.163178 -0.9041464 27
-2.853941 -7.754326 -0.7787699 21
-3.503493 -9.625893 -0.6545001 69
-4.176953 -8.888535 -0.6839622 27
-4.798319 -8.15634 -0.7118383 31
-5.424558 -7.558662 -0.7567679 14
nan nan nan 0
-4.927227 -10.61989 -0.5440944 13
-5.832275 -10.02034 -0.605527 12
-6.572356 -9.254053 -0.6581228 18
-6.096306 -16.91692 -0.3131834 31
-6.977355 -14.8975 -0.3810052 34
-7.755772 -13.23891 -0.4461773 40
-8.657463 -12.11537 -0.5134225 33
-3.252947 -4.593225 -1.013646 27
-4.558113 -6.336452 -0.8738406 19
-25.79373 -35.89198 1.773625 9
nan nan nan 0
-25.73812 -35.40919 3.557296 40
-14.14233 -38.42236 5.022235 123
-7.049563 -9.701897 2.178706 80
-3.419461 -9.189565 2.61666 40
-10.30896 -28.55519 0.1746297 10
-11.22914 -23.82642 0 9
-11.98832 -20.38008 -0.1235949 18
-12.81215 -17.83275 -0.2563202 16
nan nan nan 0
-19.28467 -41.07048 1.052493 101
-20.47812 -34.96337 0.6924309 9
-21.70119 -30.32105 0.4550833 9
nan nan nan 0
-0.1505957 -0.4094565 -0.1036254 38
-2.230453 -6.15543 -0.9041464 26
-2.880991 -7.744317 -0.7787699 19
-3.535352 -9.608921 -0.65418 59
-4.244271 -8.950522 -0.6898915 23
-4.829305 -8.143828 -0.7122149 35
-5.456753 -7.547754 -0.7575819 14
-4.455401 -12.36556 -0.5331898 100
-4.979087 -10.63429 -0.5457248 13
-5.857107 -9.982692 -0.6044803 12
-6.581368 -9.198589 -0.6557994 19
-6.222004 -17.07875 -0.3165866 29
-7.018638 -14.85046 -0.3804249 35
nan nan nan 0
-8.714305 -12.10534 -0.5142863 29
-3.274683 -4.589848 -1.01543 24
-4.580204 -6.320503 -0.8738406 20
-25.62583 -35.39708 1.753559 49
nan nan nan 0
-25.9028 -35.37542 3.562972 31
-14.27463 -38.36811 5.021626 121
-6.635671 -9.066175 2.040632 49
-3.451517 -9.177573 2.61666 50
-10.37773 -28.43448 0.1741113 9
-11.3058 -23.77353 0 10
-12.02878 -20.2865 -0.1232808 17
-12.91537 -17.84461 -0.2571387 17
nan nan nan 0
-19.43433 -41.01646 1.052842 103
-20.61783 -34.92181 0.6930295 8
-21.85954 -30.31811 0.4561828 8
nan nan nan 0
-0.152024 -0.4089283 -0.1036254 43
-2.251926 -6.147607 -0.9041464 27
-2.908007 -7.734213 -0.7787699 20
-3.568872 -9.596521 -0.65418 63
-4.269033 -8.922153 -0.6888452 30
-4.862821 -8.13548 -0.7129682 30
-5.488939 -7.536714 -0.7583961 14
-4.49683 -12.34524 -0.5329866 92
nan nan nan 0
-5.907172 -9.987969 -0.6060504 13
-6.584231 -9.135081 -0.652895 22
-6.253962 -16.98186 -0.3151904 30
nan nan nan 0
-7.830109 -13.15438 -0.4451573 46
-8.718352 -12.02228 -0.5120405 27
nan nan nan 0
-4.605171 -6.308488 -0.8743997 18
-25.86112 -35.46078 1.761184 61
-15.53652 -41.9174 2.598801 5
-25.6977 -34.83966 3.517978 34
-14.41197 -38.32735 5.022845 118
nan nan nan 0
-3.490386 -9.183531 2.621837 38
-10.48038 -28.40747 0.1741689 9
-11.44062 -23.84211 0 9
-12.26627 -20.52334 -0.1249825 17
-12.84794 -17.62169 -0.2545662 16
-15.53899 -42.19471 1.325508 7
-19.59032 -40.97543 1.053538 95
-20.71915 -34.81526 0.6923453 9
-21.99756 -30.28611 0.4568548 9
nan nan nan 0
-0.1534505 -0.4083952 -0.1036254 42
-2.273372 -6.139709 -0.9041464 26
-2.934986 -7.724015 -0.7787699 22
-3.600595 -9.579335 -0.65386 68
-4.310989 -8.929658 -0.690589 30
-4.891189 -8.118456 -0.7129682 37
-5.521114 -7.525541 -0.7592103 14
-4.479547 -12.16535 -0.5258719 95
nan nan nan 0
-5.885736 -9.872942 -0.6002934 12
-6.645425 -9.15242 -0.6557994 19
-6.35851 -17.08176 -0.3174593 32
-7.08097 -14.71551 -0.3782199 32
-7.893981 -13.15696 -0.4461773 41
-8.892978 -12.1733 -0.5198144 38
-3.003304 -4.148746 -0.9217395 97
-4.630109 -6.296375 -0.8749588 18
-25.81908 -35.14485 1.749947 37
-15.66174 -41.80682 2.595316 6
-25.79835 -34.72174 3.515141 37
-14.53333 -38.24432 5.018579 98
-6.728151 -9.059104 2.049597 102
-3.532797 -9.198347 2.629601 37
-10.57948 -28.37071 0.1741689 9
-11.5412 -23.83804 0 9
-12.33268 -20.47184 -0.1249301 23
-13.00707 -17.70969 -0.2564956 16
-15.68269 -42.13084 1.325213 7
-19.74409 -40.92931 1.054118 88
-20.76854 -34.62268 0.6899509 9
-22.1563 -30.28176 0.4579543 8
nan nan nan 0
-0.1548752 -0.407857 -0.1036254 44
-2.29479 -6.131736 -0.9041464 27
-2.963711 -7.718369 -0.7792413 27
-3.623394 -9.538715 -0.6519397 77
-4.307199 -8.842803 -0.6850085 29
-4.916909 -8.097072 -0.7125916 34
-5.553278 -7.514235 -0.7600245 13
-4.568981 -12.27608 -0.5313604 93
nan nan nan 0
-5.969039 -9.933649 -0.6052653 12
-6.665537 -9.113056 -0.6546376 17
-6.395231 -16.99862 -0.3163249 26
-7.195591 -14.82112 -0.3815854 30
-7.919166 -13.09512 -0.4450116 42
-8.846519 -12.02147 -0.5146317 39
-3.02067 -4.14221 -0.9226318 104
-4.655021 -6.284165 -0.8755178 18
-25.76028 -34.80956 1.737707 77
-15.82701 -41.80325 2.598511 6
-26.21209 -35.02244 3.554864 26
nan nan nan 0
-6.753836 -9.027689 2.047804 35
-3.578842 -9.221987 2.639954 41
-10.67844 -28.33361 0.1741689 9
-11.65287 -23.85601 0 9
-12.31582 -20.28336 -0.12404 17
-13.07179 -17.6682 -0.256554 15
-15.85253 -42.13666 1.32713 8
-19.88247 -40.85115 1.053886 67
-20.95135 -34.65265 0.6920033 9
-22.25 -30.18814 0.4577099 10
nan nan nan 0
-0.1562979 -0.4073139 -0.1036254 47
-2.316179 -6.123689 -0.9041464 26
-2.992433 -7.712619 -0.7797127 27
-3.67274 -9.567943 -0.6548201 70
-4.379822 -8.912776 -0.6916354 22
-4.942539 -8.075607 -0.7122149 36
-5.585431 -7.502795 -0.7608387 14
nan nan nan 0
nan nan nan 0
-6.05025 -9.989622 -0.6099755 11
-6.694345 -9.085716 -0.6543472 17
-6.436775 -16.92946 -0.3154522 34
-7.194523 -14.68817 -0.3788002 30
-7.985641 -13.10153 -0.4461773 38
-8.867587 -11.96243 -0.5134225 47
nan nan nan 0
-4.679902 -6.271858 -0.8760769 20
-25.96227 -34.82757 1.743124 31
-11.39556 -29.77987 1.852967 26
-26.50521 -35.15753 3.577969 38
-14.80895 -38.16507 5.021626 63
-6.832704 -9.066889 2.06215 38
-3.626858 -9.249914 2.651601 100
-10.77728 -28.29616 0.1741689 9
-11.76259 -23.86901 0 9
-12.42831 -20.30848 -0.1244589 18
-13.30971 -17.85894 -0.2600036 15
-11.44871 -30.10727 0.9491931 10
nan nan nan 0
-21.06178 -34.56223 0.6916612 10
-22.39995 -30.1705 0.4586262 8
nan nan nan 0
-0.1577188 -0.4067659 -0.1036254 47
-2.339305 -6.120194 -0.9048345 28
-3.022965 -7.711398 -0.7806555 28
-3.70972 -9.564369 -0.6554602 58
-4.42198 -8.919779 -0.6933793 25
-4.96808 -8.054062 -0.7118383 31
-5.61757 -7.491223 -0.7616528 14
nan nan nan 0
nan nan nan 0
-6.064266 -9.934349 -0.6078821 11
-6.776624 -9.130409 -0.6592846 17
nan nan nan 0
nan nan nan 0
-8.026093 -13.06506 -0.4458859 42
-8.852456 -11.85534 -0.5101402 39
-3.336705 -4.508287 -1.010077 36
-4.704754 -6.259453 -0.876636 20
-26.44972 -35.22408 1.767605 35
-11.58402 -29.95874 1.866618 18
-26.64887 -35.09258 3.580806 38
-14.93121 -38.08542 5.01797 126
-6.977402 -9.191811 2.09622 101
-3.664453 -9.250671 2.655483 78
-10.87419 -28.2537 0.1741401 10
-11.86587 -23.8681 0 9
-12.4965 -20.26072 -0.1244327 16
-13.28789 -17.70044 -0.2583665 21
-11.54298 -30.03913 0.9483084 20
nan nan nan 0
-21.19538 -34.5098 0.6920888 10
-17.41381 -23.28641 0.3547817 10
nan nan nan 0
-0.1591377 -0.4062128 -0.1036254 48
-2.360655 -6.11199 -0.9048345 28
-3.053524 -7.710057 -0.7815983 25
-3.755811 -9.58389 -0.6577006 60
-4.46201 -8.922135 -0.6947744 25
-4.982998 -8.015503 -0.7099552 29
-5.649697 -7.479517 -0.762467 15
nan nan nan 0
nan nan nan 0
-6.143397 -9.98541 -0.6123307 11
-6.83238 -9.13867 -0.661608 20
nan nan nan 0
-7.136357 -14.31546 -0.3704443 31
-8.142698 -13.15169 -0.4498202 41
-8.896791 -11.82836 -0.510313 35
-3.35831 -4.504495 -1.011861 34
-4.729577 -6.246952 -0.8771951 21
nan nan nan 0
nan nan nan 0
-26.80149 -35.03893 3.58486 46
-15.07137 -38.05153 5.020408 119
-6.937692 -9.073652 2.074702 32
-3.684177 -9.206429 2.646425 41
-10.97094 -28.21091 0.1741113 9
-11.97376 -23.8757 0 9
nan nan nan 0
nan nan nan 0
nan nan nan 0
nan nan nan 0
-21.31308 -34.43135 0.6920033 10
-22.74242 -30.18907 0.4613139 7
nan nan nan 0
-0.1588344 -0.4011334 -0.1023617 46
-2.383771 -6.108328 -0.9055226 26
-3.084111 -7.708597 -0.7825412 29
-3.820427 -9.649606 -0.6631414 52
-4.531305 -8.982217 -0.7007037 23
-5.037426 -8.040305 -0.7137215 26
-5.68181 -7.467679 -0.7632812 14
nan nan nan 0
nan nan nan 0
-6.120313 -9.870555 -0.6065737 12
-6.915318 -9.182525 -0.6665454 17
-6.602759 -16.8332 -0.3149287 27
nan nan nan 0
-8.217666 -13.16983 -0.4514231 35
-9.116151 -12.03217 -0.5205054 45
-3.350348 -4.461295 -1.004723 34
-4.754371 -6.234353 -0.8777542 20
-26.76161 -35.12599 1.772019 41
nan nan nan 0
-26.94493 -34.97279 3.587697 45
-15.20963 -38.0125 5.022235 116
-6.97533 -9.057173 2.076495 44
-3.765098 -9.314434 2.681365 76
-11.06752 -28.16779 0.1740825 10
-12.07734 -23.87392 0 10
nan nan nan 0
nan nan nan 0
nan nan nan 0
nan nan nan 0
-21.43578 -34.36098 0.6920888 10
-17.6213 -23.22401 0.355698 12
nan nan nan 0
-0.1602336 -0.4005765 -0.1023617 48
-2.405079 -6.09997 -0.9055226 24
-3.112862 -7.7024 -0.7830125 26
-3.898502 -9.747424 -0.6708226 52
-4.524189 -8.890767 -0.6947744 26
-5.081438 -8.047964 -0.7159813 32
-5.713911 -7.455708 -0.7640954 14
nan nan nan 0
nan nan nan 0
-6.128263 -9.806791 -0.6039569 12
-6.90205 -9.0987 -0.6621889 18
nan nan nan 0
nan nan nan 0
-8.29818 -13.19606 -0.4533173 32
-8.979151 -11.76597 -0.510313 42
-3.354014 -4.43389 -1.001154 37
-4.779133 -6.221657 -0.8783132 18
-26.91144 -35.06803 1.773825 43
nan nan nan 0
-27.10351 -34.92576 3.592561 53
-15.34223 -37.95918 5.022235 118
-7.085342 -9.133781 2.099806 27
-3.841347 -9.408568 2.712424 38
-11.16209 -28.11969 0.174025 11
-12.18787 -23.88506 0 9
-12.87616 -20.39508 -0.126082 18
nan nan nan 0
nan nan nan 0
nan nan nan 0
-21.57954 -34.32404 0.6928584 10
-23.07409 -30.18843 0.4637573 6
nan nan nan 0
-0.1598791 -0.3955054 -0.1010979 50
-2.426357 -6.091538 -0.9055226 25
-3.143487 -7.700707 -0.7839553 29
-3.917569 -9.696737 -0.6682622 52
-4.559749 -8.883795 -0.6954719 26
-5.122887 -8.051206 -0.7178645 31
-5.742948 -7.43966 -0.7645024 13
-4.86735 -12.28455 -0.5360357 98
nan nan nan 0
-6.138505 -9.747318 -0.6016018 12
-6.945899 -9.09041 -0.6633507 17
-6.616148 -16.52676 -0.310042 21
nan nan nan 0
-8.314759 -13.12058 -0.4517145 41
-9.175554 -11.93654 -0.5191234 36
-3.384398 -4.441708 -1.005615 38
-4.803864 -6.208865 -0.8788723 20
-27.06424 -35.0134 1.775832 47
-16.73628 -41.55523 2.604319 6
-27.25595 -34.8702 3.596615 50
-15.47651 -37.91 5.022845 116
nan nan nan 0
-3.809805 -9.238797 2.66713 59
-11.2732 -28.11304 0.1742265 10
-12.29405 -23.88683 0 9
-12.7218 -19.99568 -0.1238829 16
nan nan nan 0
-16.7315 -41.79542 1.32713 7
nan nan nan 0
-21.75542 -34.33719 0.6946542 10
-16.5567 -21.50804 0.3311418 8
nan nan nan 0
-0.1612588 -0.3949449 -0.1010979 55
-2.44945 -6.087627 -0.9062107 24
-3.172242 -7.694291 -0.7844268 27
-3.915618 -9.595206 -0.6621813 58
-4.570101 -8.827957 -0.692333 23
-5.137499 -8.012292 -0.7159813 30
-5.775004 -7.427432 -0.7653165 14
-4.402071 -10.99642 -0.4803384 31
nan nan nan 0
-6.177844 -9.734262 -0.6021252 12
-6.980634 -9.070065 -0.6636411 18
-6.713124 -16.6009 -0.3118745 24
nan nan nan 0
-8.341673 -13.06199 -0.4506945 41
-9.14371 -11.80964 -0.5149773 39
nan nan nan 0
-4.831623 -6.199893 -0.8799905 18
-27.21392 -34.95419 1.777638 47
-16.88688 -41.51043 2.605191 6
-27.41142 -34.81791 3.601074 43
-15.60875 -37.85574 5.022845 116
-7.413757 -9.420263 2.177809 37
-3.769708 -9.051525 2.61666 46
-11.34312 -28.004 0.1737946 9
-12.40499 -23.89703 0 10
nan nan nan 0
nan nan nan 0
-16.90913 -41.81553 1.329637 6
-20.99633 -40.5885 1.060037 67
-21.87245 -34.25682 0.6945688 10
-16.64087 -21.46197 0.3313251 8
nan nan nan 0
-0.1626364 -0.3943796 -0.1010979 62
-2.470685 -6.07904 -0.9062107 27
-3.200992 -7.687767 -0.7848982 28
-3.939592 -9.55841 -0.6605811 62
nan nan nan 0
-5.168143 -7.998498 -0.7163579 34
-5.803971 -7.41115 -0.7657236 14
nan nan nan 0
-5.456898 -10.57736 -0.5531782 14
-6.222549 -9.729462 -0.6031719 12
-7.009192 -9.041698 -0.6633507 17
-6.814476 -16.68383 -0.3138815 26
nan nan nan 0
-8.411564 -13.07061 -0.4520059 41
-9.1941 -11.78947 -0.5154955 46
-3.388211 -4.382967 -0.9975845 41
-4.856305 -6.186895 -0.8805496 21
-27.3666 -34.89829 1.779644 49
nan nan nan 0
-27.56067 -34.75716 3.604722 44
-15.74842 -37.81935 5.025282 112
-7.52303 -9.49066 2.200224 100
-3.756401 -8.931442 2.585602 37
-11.4162 -27.90407 0.1734202 9
-12.5092 -23.89345 0 9
nan nan nan 0
nan nan nan 0
-17.03988 -41.71924 1.328457 8
-21.15638 -40.55042 1.060965 69
-22.03789 -34.25174 0.6960226 11
-23.49053 -30.07516 0.4657732 9
nan nan nan 0
-0.1676099 -0.4027911 -0.1036254 51
-2.49189 -6.070379 -0.9062107 30
-3.229734 -7.681137 -0.7853696 30
-4.003575 -9.618321 -0.6657018 51
-4.636267 -8.804664 -0.6930305 24
-5.193309 -7.976231 -0.7159813 29
-5.835983 -7.398667 -0.7665378 14
nan nan nan 0
-5.484568 -10.54053 -0.5522465 15
-6.267296 -9.724469 -0.6042186 12
-7.059153 -9.040773 -0.6650932 21
-6.927919 -16.79398 -0.3164121 25
nan nan nan 0
-8.481616 -13.07891 -0.4533173 40
-9.309313 -11.85159 -0.5196416 36
-2.810357 -3.610845 -0.822695 13
-4.880956 -6.173801 -0.8811086 18
-27.51922 -34.84175 1.781651 48
-17.04812 -41.08262 2.585732 96
-27.70982 -34.69578 3.60837 43
-4.520381 -10.73987 1.425871 27
-7.476272 -9.364433 2.176913 49
-3.746073 -8.820456 2.557132 42
-11.50972 -27.85481 0.1733626 9
-12.61354 -23.88943 0 10
-13.17331 -20.23427 -0.1262129 14
nan nan nan 0
-17.17397 -41.63178 1.327573 37
-21.31176 -40.50286 1.061662 65
-22.22531 -34.27947 0.6981605 11
-23.62319 -30.02834 0.4663229 10
nan nan nan 0
-0.1708294 -0.406688 -0.1048891 51
-2.513065 -6.061643 -0.9062107 25
-3.258469 -7.674399 -0.785841 29
-4.033263 -9.595085 -0.6650617 58
-4.681004 -8.81486 -0.6951233 25
-5.218384 -7.953886 -0.7156047 33
-5.864876 -7.382152 -0.7669449 14
-4.368549 -10.58942 -0.464483 16
-5.55149 -10.57882 -0.5552744 14
nan nan nan 0
-7.096843 -9.023922 -0.6656741 24
-7.005711 -16.81584 -0.3172847 29
-7.549456 -14.26054 -0.3736938 32
-8.579175 -13.12871 -0.4560859 34
-9.39095 -11.86995 -0.5218874 42
-2.850302 -3.635828 -0.8307255 36
-4.905575 -6.160611 -0.8816677 20
-27.66867 -34.78067 1.783457 44
-17.33221 -41.35894 2.606933 16
-27.85888 -34.63379 3.612018 42
-15.99656 -37.67194 5.020408 104
-7.604526 -9.457068 2.204707 45
-3.780641 -8.816204 2.55972 35
-11.57416 -27.73602 0.172873 10
-12.718 -23.88498 0 9
-13.29597 -20.26759 -0.1267103 15
nan nan nan 0
-4.505062 -10.80276 0.3441692 18
-21.4741 -40.46796 1.062706 61
-22.41319 -34.30631 0.7002984 10
-23.78687 -30.02014 0.4674836 9
nan nan nan 0
-0.1740782 -0.4105673 -0.1061528 55
-2.534208 -6.052834 -0.9062107 27
-3.285238 -7.662978 -0.785841 31
-4.072573 -9.59473 -0.6660219 66
-4.662312 -8.70612 -0.6877988 28
-5.257119 -7.952256 -0.7171112 39
-5.89684 -7.369412 -0.767759 13
nan nan nan 0
-5.555685 -10.49757 -0.5520136 15
nan nan nan 0
-7.137603 -9.010828 -0.6665454 20
-7.072115 -16.80972 -0.3176338 32
-7.5427 -14.12826 -0.3709085 32
-8.641444 -13.12373 -0.4569602 37
-9.435442 -11.84101 -0.5220602 41
-2.902667 -3.676007 -0.8423253 102
-4.930161 -6.147324 -0.8822268 21
-27.81803 -34.71896 1.785263 47
-4.578948 -10.81001 0.6807767 36
-28.00784 -34.57118 3.615666 44
-4.601114 -10.72173 1.427699 37
-7.70254 -9.51071 2.223535 59
-3.819058 -8.820686 2.564897 38
-11.66314 -27.67702 0.1727578 10
-12.82731 -23.8889 0 10
-13.32252 -20.15432 -0.1262914 16
-13.45899 -16.80226 -0.251292 15
nan nan nan 0
-21.62938 -40.4192 1.063403 64
-22.5493 -34.25291 0.7008115 10
-23.9695 -30.03461 0.4690107 8
nan nan nan 0
-0.1773561 -0.4144288 -0.1074166 55
-2.557246 -6.048514 -0.9068988 25
-3.313941 -7.656033 -0.7863125 29
-4.121746 -9.617155 -0.6685823 60
-4.695043 -8.694181 -0.6881475 25
-5.315259 -7.979496 -0.7212542 34
-5.925658 -7.352662 -0.7681661 13
-4.533323 -10.77514 -0.4740369 81
-5.622857 -10.53539 -0.5550415 13
-6.410025 -9.720825 -0.6081438 12
-7.172128 -8.989759 -0.6668358 18
-4.591384 -10.80256 -0.2041931 21
-7.563543 -14.04903 -0.3695158 26
-8.712072 -13.13096 -0.4582717 41
-9.439167 -11.76125 -0.5199871 46
nan nan nan 0
-4.954714 -6.13394 -0.8827859 19
-27.96416 -34.65274 1.786868 42
-4.60881 -10.7756 0.679615 36
-28.16301 -34.51567 3.620125 42
-4.632599 -10.69194 1.425871 42
-7.69525 -9.434232 2.211879 48
-3.778341 -8.643525 2.517015 42
-4.574179 -10.74096 0.06701241 35
-12.94633 -23.90993 0 10
-13.5203 -20.29911 -0.1274957 12
-13.7154 -17.00027 -0.2549754 14
-4.582322 -10.77565 0.3443166 30
-21.78932 -40.37865 1.064331 61
-22.66873 -34.17399 0.7008115 10
-24.12432 -30.0131 0.469988 10
nan nan nan 0
-0.1806631 -0.4182724 -0.1086803 54
-2.580284 -6.044107 -0.9075869 27
-3.342636 -7.648982 -0.7867839 30
-4.149354 -9.588967 -0.6676221 62
-4.737285 -8.699644 -0.6898915 27
-5.304169 -7.902944 -0.7159813 35
-5.957573 -7.339667 -0.7689803 13
-4.574811 -10.76845 -0.4744434 97
-5.62647 -10.45413 -0.5517806 14
-6.394167 -9.62354 -0.6034335 13
-7.184694 -8.941331 -0.6650932 20
-4.617248 -10.7589 -0.2036696 37
-7.572003 -13.94786 -0.3675429 30
-8.735632 -13.06723 -0.4571059 42
-9.433024 -11.66995 -0.5173959 42
-3.550429 -4.430583 -1.022569 39
-4.979233 -6.120459 -0.8833449 18
-28.12592 -34.60531 1.789477 47
-4.640466 -10.74569 0.6787437 35
-28.32762 -34.47105 3.6258 33
-4.677839 -10.6939 1.428309 31
nan nan nan 0
-3.779278 -8.563991 2.497604 38
-4.619535 -10.7433 0.06712761 44
-13.05127 -23.90409 0 9
-13.57714 -20.23103 -0.1273648 13
nan nan nan 0
-4.615969 -10.7504 0.3440217 39
-21.94208 -40.3243 1.064911 59
-19.64299 -29.38977 0.6040063 10
-24.28557 -29.99865 0.4710875 10
nan nan nan 0
-0.182122 -0.4176392 -0.1086803 55
-2.601367 -6.035063 -0.9075869 27
-3.369316 -7.637268 -0.7867839 27
-4.142895 -9.482956 -0.6612211 85
-4.765224 -8.678683 -0.6895427 25
-5.387599 -7.966971 -0.723514 33
-5.986313 -7.322682 -0.7693874 14
-4.618274 -10.76619 -0.4750533 72
nan nan nan 0
-6.486067 -9.688285 -0.6089288 12
-7.262991 -8.974377 -0.6694497 16
-4.660731 -10.75648 -0.2039313 35
-7.613445 -13.90819 -0.3671947 40
-8.756058 -12.99936 -0.4557945 43
-9.596796 -11.78804 -0.5241332 39
-3.575153 -4.42964 -1.025246 40
-5.003718 -6.106882 -0.883904 19
-28.29718 -34.56877 1.792687 37
-4.67994 -10.73401 0.6790341 36
-28.46049 -34.38732 3.627421 25
-16.537 -37.48125 5.025282 118
nan nan nan 0
-3.805223 -8.541922 2.495015 37
-4.658998 -10.7317 0.06715641 40
-13.14669 -23.88029 0 10
nan nan nan 0
nan nan nan 0
-4.653466 -10.73422 0.3440217 38
-22.09954 -40.27814 1.065724 58
-19.72592 -29.292 0.6034077 17
-24.41858 -29.94856 0.4716373 9
nan nan nan 0
-0.1835787 -0.4170009 -0.1086803 47
-2.624389 -6.030489 -0.908275 26
-3.397976 -7.630007 -0.7872552 31
-4.232285 -9.596297 -0.6701825 62
nan nan nan 0
-5.44065 -7.985193 -0.7269037 28
-6.015008 -7.305588 -0.7697945 13
-4.641943 -10.7179 -0.4736303 81
-5.792798 -10.58548 -0.5608644 15
-6.550568 -9.711115 -0.6118073 12
-7.322672 -8.983777 -0.6720636 17
-4.688242 -10.71724 -0.2034951 16
nan nan nan 0
-8.832257 -13.0142 -0.4573974 36
-9.495247 -11.58064 -0.5163593 45
-3.571953 -4.394245 -1.019892 41
-5.028171 -6.093209 -0.8844631 21
-28.45264 -34.51219 1.794894 38
-4.721397 -10.72674 0.679615 7
-18.65206 -22.37991 2.366397 5
-16.67177 -37.43236 5.026501 114
-8.285123 -9.942422 2.351747 56
-3.835017 -8.528585 2.495015 47
-4.698434 -10.71995 0.06718521 13
-13.2882 -23.93918 0 9
-13.95736 -20.48697 -0.1295901 29
-13.74317 -16.67442 -0.2522275 17
-4.690908 -10.71791 0.3440217 18
-22.26662 -40.24886 1.067 60
nan nan nan 0
-24.57374 -29.92496 0.4726146 8
nan nan nan 0
-0.1850332 -0.4163576 -0.1086803 48
-2.647412 -6.025827 -0.9089631 26
-3.426627 -7.622641 -0.7877266 32
-4.271838 -9.595143 -0.6711426 58
-4.828126 -8.64956 -0.6898915 25
-5.488248 -7.994923 -0.7295401 30
-6.046839 -7.292216 -0.7706087 13
-4.683327 -10.71079 -0.4740369 47
nan nan nan 0
-6.48617 -9.543666 -0.6026485 13
-7.334972 -8.935022 -0.6703211 23
-7.445106 -16.8667 -0.3211243 35
-7.831869 -14.0731 -0.3729975 35
-8.945348 -13.0823 -0.4608945 32
-9.576995 -11.5975 -0.5186051 32
-3.54047 -4.324692 -1.006507 43
-5.055766 -6.083258 -0.8855813 18
nan nan nan 0
nan nan nan 0
-28.73191 -34.22596 3.631474 6
-16.8064 -37.38298 5.027719 113
-8.322941 -9.917208 2.352644 104
nan nan nan 0
nan nan nan 0
-13.41075 -23.96246 0 9
-14.04294 -20.45873 -0.129721 20
-13.69268 -16.49558 -0.2502396 15
nan nan nan 0
-22.36802 -40.10104 1.065143 52
nan nan nan 0
-24.71948 -29.88908 0.4734088 9
nan nan nan 0
-0.1884091 -0.420148 -0.109944 46
-2.66843 -6.01655 -0.9089631 29
-3.455268 -7.615167 -0.7881981 30
-4.325736 -9.625698 -0.6743432 49
nan nan nan 0
-5.516122 -7.975716 -0.7295401 30
-6.07865 -7.278709 -0.7714228 14
nan nan nan 0
nan nan nan 0
-6.533553 -9.541564 -0.6039569 14
-7.439313 -8.997811 -0.6770011 17
-7.381934 -16.56659 -0.3158886 31
-7.863827 -14.01516 -0.3721851 31
-8.968272 -13.01807 -0.4597288 45
-9.553487 -11.48718 -0.5151501 42
-3.621344 -4.391959 -1.025246 40
-5.080162 -6.069381 -0.8861403 19
-28.7025 -34.32421 1.795496 6
nan nan nan 0
-19.41926 -22.97216 2.443412 42
-16.93884 -37.32861 5.028329 118
-8.367039 -9.899361 2.355333 113
-4.041118 -8.822221 2.589484 39
nan nan nan 0
-13.53116 -23.98082 0 10
-14.21666 -20.55763 -0.1306635 19
-13.73414 -16.4285 -0.2499473 16
nan nan nan 0
nan nan nan 0
nan nan nan 0
-24.86847 -29.85639 0.474264 9
nan nan nan 0
-0.1898745 -0.4194877 -0.109944 47
-2.689415 -6.007198 -0.9089631 27
-3.483899 -7.607586 -0.7886695 31
-4.365486 -9.624175 -0.6753033 48
-4.861327 -8.567918 -0.6860549 24
-5.52397 -7.927782 -0.7269037 25
-6.10723 -7.261259 -0.7718299 14
nan nan nan 0
nan nan nan 0
-6.538459 -9.477605 -0.6013401 13
-7.457892 -8.95645 -0.6758393 18
-7.46021 -16.58632 -0.3167612 36
-7.883173 -13.93541 -0.3707924 38
-9.050711 -13.04006 -0.4616231 39
-8.762134 -10.46189 -0.470407 13
-3.61148 -4.349035 -1.018107 38
-5.104522 -6.055408 -0.8866994 20
-28.86077 -34.26966 1.797904 8
nan nan nan 0
-19.4444 -22.83973 2.436521 40
-17.06697 -37.26474 5.027719 123
-8.468534 -9.948724 2.374162 95
-4.06379 -8.790519 2.584308 34
nan nan nan 0
-13.63951 -23.97691 0 9
-14.34836 -20.59402 -0.1312132 22
-13.74631 -16.32693 -0.2491287 9
nan nan nan 0
nan nan nan 0
nan nan nan 0
-24.9886 -29.78854 0.4745694 10
nan nan nan 0
-0.1893831 -0.4143971 -0.1086803 42
-2.710368 -5.997774 -0.9089631 28
-3.514605 -7.604419 -0.7896123 31
-4.407353 -9.627028 -0.6765835 49
-4.913487 -8.589868 -0.689194 25
-5.545878 -7.900291 -0.7261504 25
-6.138986 -7.247498 -0.7726441 13
nan nan nan 0
nan nan nan 0
-6.657013 -9.577711 -0.6091905 13
-7.402463 -8.827137 -0.6679976 18
-7.476757 -16.46912 -0.3150159 34
nan nan nan 0
-9.124821 -13.04934 -0.4630802 41
-8.837278 -10.47706 -0.47248 10
nan nan nan 0
-5.128846 -6.041338 -0.8872585 21
-28.99638 -34.18776 1.798908 10
nan nan nan 0
-21.143 -24.6593 2.638788 26
-17.18445 -37.17792 5.024064 47
-8.580084 -10.0087 2.39568 41
-4.09853 -8.785037 2.586896 34
nan nan nan 0
-13.7455 -23.96819 0 10
-14.38281 -20.49061 -0.1308729 18
nan nan nan 0
nan nan nan 0
nan nan nan 0
-23.71175 -33.91723 0.7072253 12
-25.1957 -29.82333 0.4765241 11
nan nan nan 0
-0.1888585 -0.4093151 -0.1074166 47
-2.731287 -5.988276 -0.9089631 28
-3.543229 -7.596617 -0.7900838 29
-4.440931 -9.611586 -0.6765835 48
-4.948422 -8.581305 -0.6898915 28
-5.553265 -7.852395 -0.723514 18
-6.17072 -7.233603 -0.7734582 13
nan nan nan 0
nan nan nan 0
-6.716187 -9.591223 -0.6115456 13
-7.510571 -8.892732 -0.674968 22
nan nan nan 0
-7.960339 -13.84537 -0.369864 39
-9.210619 -13.0746 -0.4651202 35
-8.925584 -10.50706 -0.4752441 12
-2.988145 -3.549179 -0.8342947 11
-5.153135 -6.027173 -0.8878176 17
-29.16097 -34.13951 1.801717 10
-20.22679 -43.9025 2.810237 6
-21.23872 -24.59666 2.640004 32
nan nan nan 0
-8.47346 -9.814922 2.35623 110
-4.182596 -8.884315 2.620543 70
-12.37457 -26.96525 0.1706556 9
-13.8491 -23.95469 0 9
nan nan nan 0
nan nan nan 0
nan nan nan 0
nan nan nan 0
-23.83288 -33.83834 0.7073108 12
-25.31909 -29.75805 0.4768906 9
nan nan nan 0
-0.1883007 -0.4042419 -0.1061528 51
-2.754241 -5.983206 -0.9096511 27
-3.571841 -7.588708 -0.7905552 29
-4.466029 -9.577933 -0.6753033 67
-4.950781 -8.516542 -0.6860549 29
-5.589323 -7.845142 -0.7246439 17
-6.202433 -7.219577 -0.7742724 14
nan nan nan 0
nan nan nan 0
-6.778415 -9.608517 -0.6141624 13
-7.554509 -8.881662 -0.6761297 22
nan nan nan 0
-8.143951 -14.05105 -0.3761309 35
-9.270667 -13.06275 -0.4658488 29
-8.994704 -10.5138 -0.4769716 26
-3.000515 -3.538727 -0.8342947 10
-5.177386 -6.012911 -0.8883767 20
-29.30277 -34.06402 1.803121 9
-20.38833 -43.84974 2.811399 7
-8.895372 -10.23443 1.099697 4
nan nan nan 0
-8.517356 -9.796417 2.35892 71
-4.182531 -8.804209 2.601131 34
-12.50013 -26.98995 0.1710876 9
-13.95529 -23.94508 0 9
-14.31952 -20.10059 -0.1290141 16
-14.03392 -16.31852 -0.2512335 16
nan nan nan 0
-22.6 -38.90492 1.043673 37
-24.00583 -33.83241 0.7089356 11
-25.45209 -29.70365 0.4774404 8
nan nan nan 0
-0.1877099 -0.3991776 -0.1048891 41
-2.775109 -5.973555 -0.9096511 27
-3.598309 -7.576194 -0.7905552 27
-4.49519 -9.553253 -0.6746632 59
-5.000648 -8.53364 -0.6888452 29
-5.619582 -7.829634 -0.7250205 17
-6.230857 -7.201647 -0.7746795 13
nan nan nan 0
nan nan nan 0
-6.788769 -9.552241 -0.612069 13
-7.546478 -8.809767 -0.6726446 22
nan nan nan 0
-8.114792 -13.88873 -0.3725332 28
-9.287135 -12.98966 -0.4643916 36
-8.96935 -10.41044 -0.4736893 16
-3.697442 -4.328088 -1.025246 41
-5.201602 -5.998554 -0.8889357 18
-21.25854 -24.54128 1.302477 6
nan nan nan 0
-8.901488 -10.16958 1.096049 42
nan nan nan 0
-8.522322 -9.733331 2.350851 101
-4.223665 -8.811337 2.607602 31
-12.60273 -26.96427 0.1712028 10
-14.04892 -23.91347 0 8
-14.76862 -20.57853 -0.1324175 25
-14.11045 -16.2921 -0.2515844 16
nan nan nan 0
nan nan nan 0
-24.18483 -33.83382 0.7107315 11
-21.23683 -24.61126 0.396686 6
nan nan nan 0
-0.187086 -0.3941225 -0.1036254 49
-2.798043 -5.968318 -0.9103392 25
-3.626881 -7.568076 -0.7910265 29
-4.515683 -9.510452 -0.672743 68
-5.022797 -8.503246 -0.6877988 31
-5.649799 -7.81401 -0.7253972 17
-6.26251 -7.187365 -0.7754936 13
nan nan nan 0
nan nan nan 0
nan nan nan 0
-7.521725 -8.719144 -0.6677072 27
-7.705973 -16.36312 -0.3150159 29
-8.135324 -13.81294 -0.3712566 35
-9.402535 -13.05449 -0.4678888 39
-8.904068 -10.2621 -0.4683339 16
nan nan nan 0
-5.22578 -5.9841 -0.8894948 22
-8.851658 -10.15164 0.5393713 38
nan nan nan 0
-8.943526 -10.14592 1.09686 43
-15.19515 -31.70244 4.311738 8
-8.549737 -9.696147 2.349057 67
nan nan nan 0
-12.72236 -26.97439 0.1715483 8
-14.18071 -23.94603 0 7
-14.77883 -20.44176 -0.1318678 20
-8.923971 -10.23441 -0.1583292 21
-19.26593 -40.91045 1.333029 6
nan nan nan 0
-24.34661 -33.81004 0.7120142 11
-8.884664 -10.22876 0.1650517 29
nan nan nan 0
-0.1884606 -0.393467 -0.1036254 49
-2.818859 -5.958515 -0.9103392 31
-3.653276 -7.55537 -0.7910265 28
-4.570389 -9.539641 -0.6759434 50
nan nan nan 0
-5.685849 -7.806329 -0.726527 18
-6.294139 -7.172948 -0.7763078 13
nan nan nan 0
nan nan nan 0
-6.922484 -9.597746 -0.6180876 14
-7.59142 -8.738034 -0.6711923 23
-7.765189 -16.34064 -0.3151032 26
-8.22176 -13.84893 -0.3729975 33
-9.424562 -12.98922 -0.4667231 32
-8.916807 -10.20463 -0.4671246 30
-3.743693 -4.320746 -1.029707 38
-5.249921 -5.969552 -0.8900539 19
-8.906827 -10.14319 0.5405752 41
nan nan nan 0
-8.998748 -10.13699 1.099292 9
-15.31004 -31.65814 4.312956 9
-7.753522 -8.732368 2.121324 14
-4.414131 -9.046472 2.686542 38
-12.79926 -26.8937 0.1713179 10
-14.30521 -23.96508 0 9
nan nan nan 0
-8.949739 -10.19193 -0.1581538 40
-19.41934 -40.86551 1.333766 6
-23.15185 -38.91099 1.050288 9
-24.52613 -33.80982 0.7138101 11
-8.923607 -10.20144 0.1651128 37
nan nan nan 0
-0.1898329 -0.3928067 -0.1036254 37
-2.841771 -5.95311 -0.9110273 27
-3.681808 -7.547048 -0.7914979 29
-4.621016 -9.559578 -0.6785038 66
-5.107697 -8.510746 -0.6912866 27
-5.721916 -7.798492 -0.727657 17
-6.325744 -7.158399 -0.777122 14
-5.527272 -11.63257 -0.5224163 110
-6.250441 -10.5315 -0.5692495 13
-7.026399 -9.670462 -0.6243679 12
-7.664626 -8.7603 -0.674968 18
-7.820021 -16.30893 -0.3150159 22
-8.254653 -13.79441 -0.3723011 32
-9.440349 -12.9159 -0.4652659 30
-8.955677 -10.17719 -0.4672974 39
-3.185627 -3.652054 -0.871771 122
-5.274023 -5.954906 -0.890613 19
-8.975291 -10.14945 0.5425818 37
-19.57703 -40.611 2.620874 40
nan nan nan 0
-15.43568 -31.63573 4.317221 10
-7.833164 -8.760229 2.134773 127
-4.452074 -9.04401 2.690424 39
-12.89089 -26.84435 0.1712892 11
-14.41197 -23.95356 0 10
nan nan nan 0
-8.968695 -10.14191 -0.1578614 41
-19.57699 -40.82903 1.334798 9
nan nan nan 0
-24.6322 -33.70786 0.713468 11
-8.969082 -10.18148 0.165296 40
nan nan nan 0
-0.1912029 -0.3921417 -0.1036254 41
-2.864679 -5.947618 -0.9117154 28
-3.710325 -7.538617 -0.7919694 30
-4.645617 -9.525446 -0.6772236 53
-5.106404 -8.441647 -0.6871012 23
-5.755031 -7.786489 -0.7284102 19
-6.357322 -7.143716 -0.7779361 14
nan nan nan 0
-6.266657 -10.47533 -0.5673861 15
-7.012918 -9.581415 -0.620181 13
-7.625824 -8.654875 -0.6688689 25
-7.874726 -16.27703 -0.3149287 25
-8.364704 -13.86825 -0.3750864 33
-9.485376 -12.88287 -0.4652659 33
-8.997779 -10.15334 -0.4676429 19
-3.760762 -4.279735 -1.026138 42
-5.301397 -5.943872 -0.8917311 18
-9.037256 -10.1479 0.5441871 5
-19.73832 -40.58282 2.623488 43
-20.08121 -22.29531 2.437332 6
-15.55478 -31.59947 4.319659 10
-8.008603 -8.8936 2.174223 97
-4.507222 -9.076009 2.704659 34
-12.99323 -26.81718 0.1714044 11
-14.51883 -23.94158 0 8
-14.95642 -20.23763 -0.1315536 17
-9.030654 -10.1404 -0.1583292 10
-19.57578 -40.46349 1.325066 50
nan nan nan 0
-24.77342 -33.65388 0.7141521 10
-9.021163 -10.16881 0.1656014 29
nan nan nan 0
-0.1904933 -0.387103 -0.1023617 40
-2.885422 -5.937582 -0.9117154 25
-3.738827 -7.530079 -0.7924408 28
-4.670035 -9.491259 -0.6759434 56
-5.177372 -8.491917 -0.6926817 28
-5.79111 -7.778347 -0.7295401 23
-6.388875 -7.1289 -0.7787503 14
-5.643125 -11.66567 -0.5256687 91
-6.31092 -10.46622 -0.5680848 14
-7.06114 -9.576969 -0.6214895 12
-7.652675 -8.624471 -0.6685784 18
-7.863559 -16.11015 -0.3122235 26
-8.452003 -13.90304 -0.3768272 33
-9.521355 -12.83764 -0.4648288 30
nan nan nan 0
-3.759359 -4.248175 -1.021676 45
-5.325436 -5.929025 -0.8922902 20
nan nan nan 0
-18.45974 -37.61869 2.435868 33
-19.99147 -22.04055 2.417065 27
-15.67823 -31.57165 4.323315 11
-8.013149 -8.836452 2.16705 37
-4.558324 -9.099092 2.716306 40
-13.09335 -26.78514 0.1714907 10
-14.62839 -23.93342 0 9
nan nan nan 0
-14.45274 -16.11034 -0.2526368 16
-18.43257 -37.76281 1.238655 13
-24.32783 -39.93 1.08464 6
-24.92945 -33.6194 0.7152639 10
nan nan nan 0
nan nan nan 0
-0.1918433 -0.3864357 -0.1023617 41
-2.908307 -5.931922 -0.9124035 27
-3.767316 -7.521434 -0.7929122 29
-4.680975 -9.430195 -0.672743 62
nan nan nan 0
-5.827203 -7.770051 -0.73067 22
-6.417062 -7.110253 -0.7791574 14
nan nan nan 0
-6.373348 -10.48682 -0.5704141 13
-7.106436 -9.568295 -0.6225362 13
-7.669422 -8.582823 -0.6674168 18
-7.860151 -15.96149 -0.3098674 22
-8.531816 -13.9246 -0.3782199 39
-9.566108 -12.80432 -0.4648288 30
nan nan nan 0
-3.797102 -4.260715 -1.027922 33
-5.349435 -5.914082 -0.8928493 18
-30.40769 -33.64925 1.819977 8
-18.5843 -37.5406 2.434996 38
-20.02795 -21.92648 2.4122 36
-15.80167 -31.54336 4.326971 10
-8.08709 -8.855626 2.178706 59
-4.590058 -9.083126 2.716306 33
-13.1934 -26.75273 0.1715771 9
-14.72757 -23.90776 0 8
-15.03434 -20.04873 -0.1310038 19
-14.55583 -16.11171 -0.2534553 17
-18.52455 -37.61753 1.236001 38
-23.7818 -38.72878 1.054234 11
nan nan nan 0
nan nan nan 0
nan nan nan 0
-0.1952989 -0.390118 -0.1036254 36
-2.931188 -5.926176 -0.9130916 24
-3.793548 -7.508238 -0.7929122 27
-4.725023 -9.436111 -0.6743432 70
nan nan nan 0
-5.860302 -7.757618 -0.7314233 22
-6.44855 -7.095181 -0.7799716 14
nan nan nan 0
-6.38905 -10.43043 -0.5685507 14
nan nan nan 0
-7.739423 -8.600507 -0.670902 23
-7.904705 -15.91157 -0.3094311 28
-8.661772 -14.02659 -0.3818175 32
-9.601728 -12.75888 -0.4643916 29
nan nan nan 0
-3.22315 -3.592586 -0.8682019 119
-5.373394 -5.899043 -0.8934084 21
-30.58549 -33.60941 1.823589 8
nan nan nan 0
-20.16511 -21.92245 2.419497 9
-15.92287 -31.51015 4.330018 10
-8.101295 -8.809247 2.174223 29
-4.648029 -9.118695 2.731835 84
-13.3201 -26.77367 0.1720091 9
-14.86631 -23.94541 0 9
-15.15848 -20.06793 -0.131475 17
nan nan nan 0
-18.65574 -37.55264 1.236001 18
nan nan nan 0
-25.30182 -33.6283 0.7191976 8
nan nan nan 0
nan nan nan 0
-0.1966594 -0.3894339 -0.1036254 35
-2.954064 -5.920341 -0.9137797 25
-3.821991 -7.499387 -0.7933836 27
-4.766922 -9.43738 -0.6756233 56
-5.131364 -8.221416 -0.6748939 35
-5.893385 -7.745048 -0.7321765 22
-6.476645 -7.076302 -0.7803787 14
nan nan nan 0
nan nan nan 0
nan nan nan 0
-7.809639 -8.617805 -0.6743872 19
nan nan nan 0
-8.684276 -13.95383 -0.380657 30
-9.640166 -12.71732 -0.4641002 24
nan nan nan 0
nan nan nan 0
-5.400676 -5.887569 -0.8945265 19
-30.73639 -33.53927 1.825595 10
-16.56262 -32.87601 2.139625 12
nan nan nan 0
-16.04853 -31.48533 4.334283 9
nan nan nan 0
-4.818817 -9.373084 2.813363 48
-13.43813 -26.77617 0.1723259 10
-14.98693 -23.95272 0 9
-15.38892 -20.22578 -0.1328626 17
-14.60376 -15.93968 -0.2523444 15
nan nan nan 0
-24.59121 -39.42705 1.077909 24
-25.50663 -33.65532 0.7216777 10
-26.88835 -29.4544 0.4867864 6
nan nan nan 0
-0.2001557 -0.3930846 -0.1048891 32
-2.974711 -5.909993 -0.9137797 27
-3.850418 -7.490429 -0.793855 29
-4.81794 -9.45626 -0.6781837 63
-5.183925 -8.241455 -0.6780329 32
-5.926452 -7.732343 -0.7329298 24
-6.511445 -7.064638 -0.7815999 13
nan nan nan 0
-6.451161 -10.36861 -0.567619 15
nan nan nan 0
-7.859872 -8.612604 -0.6761297 29
-8.290589 -16.40039 -0.3200771 31
-8.754174 -13.95731 -0.3815854 36
-9.663265 -12.65578 -0.4630802 32
nan nan nan 0
nan nan nan 0
-5.424569 -5.872329 -0.8950856 18
-30.86683 -33.44646 1.826398 17
-16.67502 -32.81355 2.139335 10
-19.03585 -20.40752 2.266682 18
-16.17195 -31.4556 4.337939 9
nan nan nan 0
-4.762662 -9.184663 2.761599 88
-13.55409 -26.77371 0.1726139 9
-15.11312 -23.96793 0 9
-15.38338 -20.07273 -0.1322081 21
-14.67627 -15.90697 -0.2526368 15
nan nan nan 0
-24.76859 -39.40446 1.07965 35
-25.62091 -33.5621 0.7215921 10
-27.06883 -29.44501 0.4881913 6
nan nan nan 0
-0.2036799 -0.3967155 -0.1061528 34
-2.995323 -5.899573 -0.9137797 30
-3.87883 -7.481363 -0.7943264 26
-4.837248 -9.412748 -0.6762635 82
-5.204652 -8.210671 -0.6769865 33
-5.959502 -7.7195 -0.7336831 19
-6.54285 -7.049167 -0.7824141 13
-5.789566 -11.45392 -0.5205868 98
-6.471398 -10.32063 -0.5662215 16
-7.175637 -9.384853 -0.6170409 13
-7.896647 -8.592463 -0.6767106 23
-8.302395 -16.28227 -0.3183319 34
-8.821534 -13.95625 -0.3823978 34
-9.725669 -12.64575 -0.4639545 31
nan nan nan 0
-3.956046 -4.315996 -1.054691 36
-5.451807 -5.860629 -0.8962037 18
-31.03781 -33.39706 1.829608 8
-16.78491 -32.74626 2.138754 9
-19.11038 -20.34458 2.267087 39
-16.29764 -31.42981 4.342205 9
nan nan nan 0
-4.97805 -9.519009 2.867715 28
-13.6702 -26.77077 0.1729018 10
-15.22351 -23.95723 0 9
-15.50224 -20.08223 -0.132627 18
-14.88489 -16.02043 -0.2552678 16
