# .PCD v0.7 - Point Cloud Data file format
VERSION 0.7
FIELDS x y z intensity
SIZE 4 4 4 4
TYPE F F F F
COUNT 1 1 1 1
WIDTH 1574
HEIGHT 1
VIEWPOINT 0 0 0 1 0 0 0
POINTS 1574
DATA ascii
-13.38914 -6.714548 -1.044603 12
-13.738 -5.363876 -1.11107 10
-13.62945 -3.939766 -1.15571 8
-12.71748 -8.005095 -0.6098245 106
-16.16209 -8.204407 -0.8433929 39
-12.86927 -5.094603 -0.7232829 45
-13.02827 -3.837555 -0.7879467 13
-13.05204 -8.149343 -0.2678944 11
nan nan nan 0
-12.84906 -5.04523 -0.4012973 44
-12.71247 -3.706205 -0.456414 4
-7.232376 -2.139589 -1.360748 14
-10.88633 -3.133549 -1.270228 14
nan nan nan 0
-13.37264 -8.307569 0.9137045 8
-12.68765 -3.591384 1.069297 6
-19.97054 -12.27973 2.873679 17
-42.97691 -12.14286 8.132938 15
nan nan nan 0
-13.34374 -8.318577 0.09033862 6
-21.43478 -10.71765 0 19
-12.86313 -5.024824 -0.07209922 43
-12.62252 -3.646577 -0.1531841 45
-13.27874 -8.287621 0.4606617 6
nan nan nan 0
-12.87041 -5.056056 0.2358558 38
-12.62987 -3.674863 0.160226 44
nan nan nan 0
-0.2980112 -0.1820244 -0.08087836 9
-7.900513 -4.916881 -1.287411 20
-10.62525 -6.487252 -1.175226 15
-12.75237 -7.848272 -0.9579065 67
-13.46609 -6.694421 -1.048789 16
-13.7613 -5.317684 -1.111447 10
-13.65271 -3.894897 -1.156524 9
-12.73264 -7.95271 -0.6092146 106
-16.11032 -8.107518 -0.8392004 63
-12.83118 -5.027797 -0.7201427 44
nan nan nan 0
nan nan nan 0
nan nan nan 0
-12.82932 -4.985869 -0.4001316 47
-12.70132 -3.654908 -0.4555502 7
-7.2398 -2.11433 -1.360748 14
-10.90199 -3.096885 -1.270787 13
nan nan nan 0
-19.28962 -11.89313 1.316246 7
-12.70491 -3.548412 1.069702 5
-19.99211 -12.19702 2.870632 37
-44.45478 -12.39282 8.404604 18
nan nan nan 0
-13.50024 -8.350902 0.09120255 5
-21.5303 -10.67163 0 16
-12.84328 -4.965473 -0.07188978 44
-12.61594 -3.597018 -0.1529502 45
-13.47326 -8.343901 0.4664126 5
-21.64388 -10.76552 0.5603086 18
-12.83673 -4.991177 0.2349151 40
-12.62339 -3.625242 0.1599816 44
nan nan nan 0
-0.2986448 -0.180983 -0.08087836 9
-7.917629 -4.889272 -1.287411 19
-10.65208 -6.452704 -1.175697 14
-12.77543 -7.801108 -0.9575865 49
-13.52964 -6.667222 -1.051928 15
-13.78443 -5.271396 -1.111824 9
-13.67102 -3.848564 -1.156931 8
-12.75183 -7.90295 -0.6088081 107
-16.27707 -8.120367 -0.8464208 74
-12.82072 -4.972148 -0.7185726 45
-12.5845 -3.611755 -0.7594842 39
-13.63235 -8.380227 -0.2786276 17
-21.16375 -10.46233 -0.5471944 16
-12.83265 -4.935676 -0.3996945 43
-12.714 -3.61055 -0.4555502 8
-7.247137 -2.089046 -1.360748 13
-10.91273 -3.058811 -1.270787 14
-12.8115 -3.604451 0.5329502 14
-19.31825 -11.8179 1.315374 45
-12.69319 -3.497434 1.067675 7
-20.14917 -12.19657 2.887084 32
-44.48354 -12.23366 8.401915 4
nan nan nan 0
-18.88888 -11.5958 0.1274302 37
-21.50459 -10.56554 0 23
-12.83251 -4.909894 -0.07173271 43
-12.61398 -3.548902 -0.1527748 45
-21.51017 -13.22137 0.7437829 18
-21.72168 -10.7098 0.561353 16
-12.82608 -4.93557 0.234402 43
-12.61673 -3.575711 0.1597373 45
nan nan nan 0
-0.2992747 -0.1799394 -0.08087836 9
-7.934647 -4.861605 -1.287411 19
-10.67454 -6.415482 -1.175697 15
-12.82819 -7.771988 -0.9595068 46
-13.61557 -6.650609 -1.05681 15
-13.80275 -5.223248 -1.111824 10
-13.68917 -3.802152 -1.157338 8
-12.77083 -7.853152 -0.6084015 107
-16.17996 -8.001493 -0.8398991 71
-12.81003 -4.916633 -0.7170026 44
-12.62585 -3.575955 -0.7612268 41
-13.63591 -8.316961 -0.2781041 18
-21.22708 -10.40159 -0.5478908 16
-12.85914 -4.894406 -0.3999859 14
-13.46761 -3.77348 -0.4821542 18
-7.259117 -2.065078 -1.36164 14
-10.92813 -3.022022 -1.271346 14
-12.80475 -3.554371 0.5321475 12
-19.47884 -11.82295 1.323507 43
-12.68128 -3.44658 1.065649 8
-20.34902 -12.22073 2.909631 24
-44.25061 -12.00365 8.349913 30
nan nan nan 0
-19.10856 -11.63908 0.1286397 17
-21.62675 -10.53201 0 17
-12.81684 -4.852683 -0.07154945 44
-12.61183 -3.500844 -0.1525994 45
nan nan nan 0
-21.75893 -10.63391 0.561353 13
-12.80585 -4.87654 0.2337179 45
-12.60987 -3.52627 0.1594929 46
nan nan nan 0
-0.299901 -0.1788937 -0.08087836 8
-7.947338 -4.831303 -1.286723 18
-10.69687 -6.378181 -1.175697 14
-12.86807 -7.734879 -0.960467 47
-13.68808 -6.626956 -1.060647 14
-13.82556 -5.176783 -1.1122 10
-13.70717 -3.755659 -1.157745 9
-12.84933 -7.839769 -0.6108409 90
-16.1181 -7.900989 -0.8352408 91
-12.80377 -4.863027 -0.7156941 45
-12.62383 -3.527836 -0.7603555 35
-13.66486 -8.269313 -0.2781041 19
-21.28574 -10.33835 -0.548471 13
-12.8855 -4.853012 -0.4002773 3
-13.61557 -3.763673 -0.4869913 12
-7.266282 -2.039727 -1.36164 13
-10.93861 -2.983857 -1.271346 14
-12.85081 -3.518875 0.5335522 8
-19.5884 -11.7961 1.328153 42
-12.68841 -3.401005 1.065243 8
-19.99511 -11.9133 2.852961 16
-44.33501 -11.86055 8.357982 8
-23.9765 -14.18492 7.453988 35
-19.39295 -11.71977 0.1302811 11
-21.74443 -10.49558 0 19
-12.80561 -4.797393 -0.07139236 42
-12.61433 -3.454162 -0.1524825 45
-20.29795 -12.28146 0.6988079 23
-22.55616 -10.92623 0.5809661 9
-12.7994 -4.822998 0.2332903 75
-12.598 -3.475594 0.1591875 46
nan nan nan 0
-0.3005236 -0.1778457 -0.08087836 9
-7.964154 -4.803532 -1.286723 21
-10.71907 -6.340804 -1.175697 15
-12.90784 -7.697585 -0.961427 45
-13.76509 -6.605034 -1.064832 13
-13.84355 -5.128491 -1.1122 10
-13.72501 -3.709088 -1.158152 9
-12.98771 -7.862177 -0.616126 95
-16.23992 -7.890525 -0.8401321 75
-12.79262 -4.807768 -0.7141241 46
-12.61682 -3.478451 -0.7591938 31
-13.68507 -8.216413 -0.2779295 4
-21.22712 -10.21845 -0.5460339 15
-12.91173 -4.811492 -0.4005688 4
-12.9054 -3.51922 -0.4610783 4
-7.2781 -2.01566 -1.362533 13
-10.95376 -2.946945 -1.271905 15
-12.83407 -3.466192 0.5323482 2
-19.6466 -11.73789 1.329315 39
-12.69057 -3.354151 1.064433 8
-20.02376 -11.83585 2.851133 37
-45.51293 -12.00543 8.572267 10
-24.27159 -14.24542 7.53034 26
-19.378 -11.61857 0.1299068 20
-22.05606 -10.55126 0 13
-12.79414 -4.742241 -0.07123528 39
-12.61183 -3.406204 -0.152307 44
-20.26785 -12.16678 0.696301 18
-23.00872 -11.0465 0.5916432 8
-12.78805 -4.767815 0.2327772 42
-12.59558 -3.427665 0.1590043 47
nan nan nan 0
-0.3011426 -0.1767956 -0.08087836 9
-7.980873 -4.775702 -1.286723 20
-10.74114 -6.303348 -1.175697 14
-12.94322 -7.657566 -0.9620672 48
-13.83761 -6.580513 -1.068669 12
-13.86605 -5.081851 -1.112577 10
-13.74268 -3.662438 -1.158559 8
-13.16494 -7.906877 -0.6232406 76
-16.27637 -7.838125 -0.8405979 89
-12.79061 -4.756126 -0.7130774 15
-12.61925 -3.431772 -0.7586129 32
nan nan nan 0
-21.29874 -10.16151 -0.5469623 17
-12.96597 -4.780219 -0.4017345 4
-13.08169 -3.518209 -0.4669519 12
-7.285091 -1.990243 -1.362533 13
-10.96878 -2.909963 -1.272464 15
-12.75918 -3.398264 0.5287364 33
nan nan nan 0
-12.69256 -3.307323 1.063622 9
-20.08636 -11.77844 2.85418 37
nan nan nan 0
-24.31282 -14.15575 7.527751 29
-19.55163 -11.63013 0.1307995 10
nan nan nan 0
-12.78715 -4.688949 -0.07110439 35
-12.61398 -3.35959 -0.1521901 47
-20.47765 -12.19573 0.702052 14
-22.69057 -10.79642 0.5824748 15
-12.77647 -4.71277 0.2322641 42
-12.59781 -3.381089 0.1588821 46
nan nan nan 0
-0.3017579 -0.1757434 -0.08087836 9
-7.997494 -4.747815 -1.286723 18
-10.76738 -6.268322 -1.176169 15
-12.93975 -7.594648 -0.9598268 43
-13.91012 -6.555567 -1.072506 12
-13.88839 -5.035118 -1.112954 10
-13.76021 -3.615709 -1.158966 9
-13.32119 -7.937639 -0.6293389 86
-16.36673 -7.811387 -0.8438587 86
nan nan nan 0
-12.62151 -3.38512 -0.758032 28
-20.41614 -12.06769 -0.413273 20
-21.44254 -10.13839 -0.5497476 13
-12.86988 -4.693845 -0.3982373 5
-12.63016 -3.349741 -0.4503676 30
-7.291995 -1.964801 -1.362533 13
-10.98368 -2.872912 -1.273023 15
-12.82413 -3.367641 0.5309436 36
-20.197 -11.87635 1.360973 33
-12.68954 -3.259285 1.062406 10
-20.21313 -11.75818 2.866367 15
nan nan nan 0
-24.30772 -14.03938 7.510928 25
-20.48764 -12.09058 0.1367894 16
-22.08846 -10.37788 0 13
-12.77523 -4.634058 -0.0709473 34
-12.61112 -3.311736 -0.1520147 48
-20.29207 -11.98938 0.6942366 10
-22.69647 -10.70222 0.5816625 17
-12.76467 -4.657865 0.231751 43
-12.6047 -3.335817 0.158821 46
nan nan nan 0
-0.2982215 -0.1721995 -0.07961464 9
-8.014019 -4.71987 -1.286723 18
-10.78919 -6.230699 -1.176169 15
-13.05672 -7.60219 -0.9665478 44
-13.98263 -6.530193 -1.076342 11
-13.91058 -4.98829 -1.11333 9
-13.77757 -3.568903 -1.159373 9
-13.4993 -7.980126 -0.6364534 77
-16.43001 -7.771297 -0.845722 83
nan nan nan 0
-12.62842 -3.339768 -0.7577416 19
-20.3719 -11.94576 -0.4115277 31
-21.46422 -10.05712 -0.5493995 14
-12.85798 -4.63872 -0.397363 10
-12.63694 -3.30437 -0.4501948 46
-7.303564 -1.940595 -1.363425 13
-10.99845 -2.835792 -1.273582 14
-12.8745 -3.332857 0.5325488 26
-20.22971 -11.80074 1.360392 25
-12.69601 -3.213749 1.062001 10
-20.09933 -11.59823 2.84443 24
nan nan nan 0
-24.48229 -14.0265 7.549752 34
-20.55992 -12.03668 0.136991 20
nan nan nan 0
-12.7678 -4.580997 -0.07081641 35
-12.60324 -3.26269 -0.1517808 42
-21.22189 -12.43931 0.7246132 30
-22.79709 -10.65256 0.5832872 15
-12.75734 -4.604795 0.2313234 42
-12.61143 -3.290538 0.1587599 191
nan nan nan 0
-0.2988208 -0.1711575 -0.07961464 9
-8.030446 -4.691867 -1.286723 21
-10.81088 -6.193 -1.176169 14
-13.11342 -7.574046 -0.9687881 48
-14.05965 -6.506489 -1.080528 10
-13.9279 -4.939703 -1.11333 9
-13.7996 -3.52325 -1.160187 8
-13.67788 -8.021465 -0.6435681 82
-16.54296 -7.754184 -0.8501475 77
-12.91488 -4.648973 -0.7172642 5
-12.63517 -3.294409 -0.7574512 21
-20.47397 -11.90978 -0.4127494 32
-21.54906 -10.00529 -0.5506761 15
-12.93999 -4.617315 -0.3994031 8
-12.65808 -3.26273 -0.4505404 40
-7.310293 -1.915089 -1.363425 13
-11.0131 -2.798604 -1.274141 15
-12.87638 -3.28543 0.5321475 18
-20.19303 -11.68503 1.355164 25
-12.70231 -3.168208 1.061595 11
-20.23013 -11.57979 2.857227 27
nan nan nan 0
-24.56889 -13.96244 7.561399 42
nan nan nan 0
-24.42128 -11.26668 0 12
-12.75544 -4.526372 -0.07065933 39
-12.60971 -3.217443 -0.1517224 45
-21.4855 -12.49333 0.7321336 12
nan nan nan 0
-12.74979 -4.551835 0.2308958 43
-12.60831 -3.242765 0.1585767 130
nan nan nan 0
-0.2952512 -0.167653 -0.07835092 8
-8.046775 -4.663807 -1.286723 20
-10.83243 -6.155225 -1.176169 14
-13.15709 -7.538155 -0.9700684 45
-14.12308 -6.476088 -1.083667 10
-13.94977 -4.892705 -1.113707 9
-13.81665 -3.476273 -1.160594 9
-13.8569 -8.061653 -0.6506827 81
-16.61975 -7.719541 -0.8527096 58
-12.96396 -4.615582 -0.719096 7
-12.65143 -3.251525 -0.7577416 44
-20.57603 -11.87323 -0.4139711 26
-21.62927 -9.950907 -0.5518366 15
-12.81935 -4.523904 -0.3951773 8
-12.66454 -3.217296 -0.4503676 40
-7.321698 -1.890787 -1.364317 14
-11.02763 -2.761349 -1.2747 15
-12.87323 -3.236814 0.5315456 17
-20.41116 -11.7164 1.367072 38
-12.72782 -3.127411 1.062811 10
-20.32221 -11.53852 2.864539 24
nan nan nan 0
-24.65113 -13.89557 7.571751 22
-20.37921 -11.74054 0.1352343 34
-24.78332 -11.32897 0 10
-12.74757 -4.473545 -0.07052843 36
-12.57722 -3.162453 -0.1511962 44
-20.44248 -11.79122 0.6951214 20
nan nan nan 0
-12.73732 -4.497319 0.2303827 42
-12.6244 -3.199961 0.1586377 45
nan nan nan 0
-0.2958346 -0.1666214 -0.07835092 10
-8.063005 -4.63569 -1.286723 20
-10.85818 -6.119822 -1.17664 14
-13.21802 -7.511918 -0.9726288 44
-14.1456 -6.426749 -1.083667 8
-13.96676 -4.843981 -1.113707 9
-13.83837 -3.430417 -1.161409 9
-16.98245 -9.802297 -0.7962275 15
-16.63752 -7.657302 -0.8522438 69
-13.01296 -4.581905 -0.7209278 4
-12.66754 -3.208566 -0.758032 37
-20.66507 -11.82867 -0.4149309 22
-21.71845 -9.900229 -0.5532293 13
-12.73124 -4.442914 -0.3919716 29
-12.67085 -3.171858 -0.4501948 37
-7.328254 -1.865217 -1.364317 13
-11.04202 -2.724026 -1.275259 16
nan nan nan 0
-20.17002 -11.48448 1.348193 33
-12.77257 -3.091155 1.065649 13
-20.53963 -11.56739 2.889522 28
nan nan nan 0
nan nan nan 0
-20.42874 -11.6743 0.1352919 30
-24.6542 -11.16606 0 13
-12.73949 -4.420828 -0.07039753 35
-12.59304 -3.119731 -0.1512546 43
-20.23629 -11.57826 0.6867163 20
-24.46817 -11.1229 0.6230937 12
-12.72934 -4.444593 0.2299551 43
-12.62094 -3.152246 0.1584545 47
nan nan nan 0
-0.2964144 -0.1655877 -0.07835092 10
-8.079137 -4.607516 -1.286723 21
-10.87948 -6.081882 -1.17664 15
-13.29631 -7.495153 -0.9764694 50
-14.13611 -6.362998 -1.081225 9
-13.9883 -4.796816 -1.114084 10
-13.86479 -3.385632 -1.16263 9
-17.01223 -9.740473 -0.7960242 28
-16.68687 -7.609543 -0.8534083 83
-13.13262 -4.572561 -0.7266847 10
-12.67866 -3.164329 -0.758032 33
-20.73666 -11.77374 -0.4155418 18
-21.79843 -9.844936 -0.5543898 11
-12.7514 -4.400076 -0.3921173 44
-12.70125 -3.132387 -0.4508858 30
-7.339492 -1.840819 -1.365209 13
-11.05629 -2.686637 -1.275818 15
nan nan nan 0
-20.34035 -11.48767 1.356906 29
-12.83661 -3.059237 1.070107 17
-20.51923 -11.46173 2.880991 34
nan nan nan 0
-23.54813 -13.05774 7.204228 16
-20.39109 -11.55852 0.1347736 37
-24.53337 -11.00828 0 11
-12.72647 -4.3666 -0.07024045 36
-12.63785 -3.084037 -0.1516639 41
-20.22443 -11.47794 0.6849468 33
-24.52508 -11.04563 0.623558 11
-12.72114 -4.391978 0.2295275 43
-12.65129 -3.112942 0.1586988 43
nan nan nan 0
-0.3011814 -0.1669686 -0.07961464 9
-8.095171 -4.579287 -1.286723 22
-10.90499 -6.046284 -1.177112 14
-13.40948 -7.497426 -0.9828703 44
-14.14002 -6.305488 -1.07983 9
-14.00968 -4.749558 -1.11446 10
-13.86683 -3.334887 -1.161816 9
-17.02875 -9.671156 -0.7952111 26
-16.72699 -7.55742 -0.8541071 73
-12.98326 -4.469825 -0.717526 37
-12.69933 -3.122432 -0.7586129 40
nan nan nan 0
-21.91935 -9.807582 -0.5565948 7
-12.7383 -4.34586 -0.391243 45
-12.72668 -3.091565 -0.4514041 22
-7.35065 -1.816365 -1.366102 13
-11.07044 -2.649181 -1.276378 16
-12.76067 -3.066868 0.5255258 9
-20.49354 -11.48005 1.364458 37
-12.9297 -3.033727 1.076998 35
-20.50269 -11.35876 2.87307 22
nan nan nan 0
-23.53009 -12.94055 7.184817 29
-20.54461 -11.55101 0.1355223 32
-24.57621 -10.9246 0 17
-12.72269 -4.315727 -0.07013573 38
-12.67771 -3.046902 -0.1520147 35
-20.31227 -11.43425 0.6865688 28
-24.39916 -10.88662 0.61938 14
-12.71274 -4.339474 0.2290999 44
-12.70582 -3.079342 0.1592486 38
nan nan nan 0
-0.2975632 -0.1635143 -0.07835092 8
-8.115425 -4.553428 -1.287411 20
-10.92603 -6.008182 -1.177112 14
-13.42685 -7.445729 -0.9822302 49
-14.13001 -6.241979 -1.077389 10
-14.0309 -4.702209 -1.114837 10
-13.89293 -3.289902 -1.163037 8
-17.09287 -9.628828 -0.796634 31
-16.7715 -7.50715 -0.8550388 78
-12.9326 -4.401961 -0.7138624 12
-12.73441 -3.083949 -0.7600651 32
-20.61324 -11.51406 -0.4114404 18
-21.92603 -9.718853 -0.5558985 7
-12.7155 -4.288595 -0.3900773 47
-12.79086 -3.059889 -0.4533044 18
-7.361727 -1.791856 -1.366994 13
-11.08445 -2.611659 -1.276937 16
-12.8102 -3.031494 0.5271311 42
-20.50295 -11.39147 1.362425 46
-12.9742 -2.996411 1.079836 4
-20.52917 -11.27995 2.871242 26
nan nan nan 0
-23.62599 -12.88609 7.200346 30
-20.25297 -11.29407 0.1333337 19
-24.6325 -10.84681 0 14
-12.69975 -4.258578 -0.0699263 3
-12.81964 -3.033661 -0.1535933 17
-20.44369 -11.41446 0.6896654 21
-24.56502 -10.85798 0.6226295 14
-12.70886 -4.288681 0.2287579 43
-12.78944 -3.052351 0.1601649 34
nan nan nan 0
-0.3149624 -0.1720239 -0.08340581 9
-8.131269 -4.525073 -1.287411 20
-10.95131 -5.972392 -1.177583 15
-13.50958 -7.430096 -0.9863909 48
-14.14714 -6.190618 -1.07704 9
-14.05196 -4.654771 -1.115213 10
-13.90433 -3.241387 -1.163037 9
-17.1351 -9.57398 -0.7970406 29
-16.84326 -7.468811 -0.8573679 80
nan nan nan 0
-12.76937 -3.045258 -0.7615173 18
nan nan nan 0
-21.99186 -9.656327 -0.5567108 6
-12.71617 -4.239444 -0.3896402 47
nan nan nan 0
-7.367937 -1.766148 -1.366994 13
-11.09834 -2.574071 -1.277496 15
-12.93749 -3.013915 0.5319469 7
-20.57319 -11.3367 1.364458 47
-12.96028 -2.945592 1.077809 3
-20.4682 -11.15358 2.857227 37
nan nan nan 0
-23.75578 -12.84951 7.226228 41
-20.45851 -11.3153 0.134428 19
-24.66563 -10.75876 0 12
nan nan nan 0
-12.97138 -3.021732 -0.1552889 16
nan nan nan 0
-24.50204 -10.72805 0.6200764 21
-12.70004 -4.236385 0.2283303 45
-12.90224 -3.031664 0.1614477 22
nan nan nan 0
-0.3071293 -0.1661782 -0.08087836 9
-8.147017 -4.496661 -1.287411 18
-10.97209 -5.934128 -1.177583 14
-13.51792 -7.37333 -0.9851107 43
-14.18697 -6.149134 -1.078435 10
-14.07286 -4.607243 -1.11559 11
-13.83298 -3.173918 -1.156116 5
-17.17715 -9.518955 -0.7974471 28
-16.9241 -7.434082 -0.860163 82
nan nan nan 0
-12.90142 -3.029141 -0.7687781 14
-21.10054 -11.59385 -0.4195558 22
-22.03919 -9.585485 -0.557059 8
-12.70716 -4.187212 -0.3889116 47
-13.30848 -3.085434 -0.4709252 36
-7.378846 -1.741545 -1.367886 14
-11.10726 -2.535315 -1.277496 14
-13.66383 -3.132568 0.5614437 3
nan nan nan 0
-13.238 -2.960033 1.100103 14
nan nan nan 0
nan nan nan 0
-23.78347 -12.75738 7.221051 50
-20.38831 -11.18368 0.1337081 34
-24.68467 -10.66466 0 16
nan nan nan 0
-13.07445 -2.997626 -0.1563998 17
-20.78568 -11.41588 0.698513 33
-24.68608 -10.70611 0.6237901 10
-12.69576 -4.185769 0.2279882 30
-13.02965 -3.013601 0.1629137 19
nan nan nan 0
-18.51797 -10.32997 -5.528794 20
-8.162663 -4.468195 -1.287411 18
-10.99274 -5.895792 -1.177583 13
-13.53041 -7.318973 -0.9841506 45
-14.21751 -6.103511 -1.079133 10
-14.09835 -4.56116 -1.116343 10
-13.77106 -3.109179 -1.15001 5
-17.22341 -9.46616 -0.7980569 26
-16.95452 -7.376954 -0.8603958 82
-12.71709 -4.180564 -0.69947 6
-13.08215 -3.023358 -0.7789433 13
-21.0531 -11.47227 -0.4178106 6
-22.09087 -9.516407 -0.5575233 9
-12.70269 -4.136643 -0.3883288 47
-13.32404 -3.04007 -0.471098 42
-7.38488 -1.715777 -1.367886 14
-11.12089 -2.497614 -1.278055 14
-13.89401 -3.134241 0.5704734 9
-19.18188 -10.39568 1.267162 9
-13.38941 -2.944791 1.111858 27
-20.51495 -10.994 2.852961 46
nan nan nan 0
nan nan nan 0
-19.15368 -10.41924 0.1253567 9
-24.83667 -10.62762 0 13
-12.67229 -4.102267 -0.0695336 4
-13.19701 -2.97723 -0.1577445 17
-20.75957 -11.30738 0.696301 35
-27.36412 -11.75446 0.6905211 10
-12.68653 -4.133686 0.2275606 25
-13.13273 -2.989146 0.1640743 19
nan nan nan 0
-18.55392 -10.26527 -5.528794 57
-8.17821 -4.439675 -1.287411 19
-11.01325 -5.857384 -1.177583 14
-13.54708 -7.266977 -0.9835104 46
-14.24791 -6.057749 -1.07983 9
-14.11893 -4.513437 -1.11672 9
-13.75264 -3.054619 -1.147568 5
-17.26512 -9.410766 -0.7984635 27
-17.01686 -7.333544 -0.8622592 71
-12.71736 -4.131521 -0.698685 8
-13.18998 -2.999775 -0.784752 13
nan nan nan 0
-22.14695 -9.449049 -0.5581036 9
-12.69802 -4.086156 -0.3877459 46
-13.31507 -2.989171 -0.470407 41
-7.39562 -1.691082 -1.368779 12
-11.13439 -2.459849 -1.278614 14
-13.93413 -3.092206 0.5716774 9
-21.8118 -11.7235 1.438518 17
-13.53114 -2.926424 1.122802 22
-20.4568 -10.87107 2.839556 42
nan nan nan 0
-24.69633 -13.02604 7.470812 17
-19.17233 -10.34281 0.1252415 16
nan nan nan 0
-12.63415 -4.041258 -0.06924562 26
-13.3196 -2.956015 -0.1590892 16
nan nan nan 0
-27.49697 -11.69801 0.6928422 12
-12.68184 -4.083251 0.2272186 43
-13.2553 -2.968371 0.1654793 17
nan nan nan 0
-18.58964 -10.20044 -5.528794 81
-8.193657 -4.411101 -1.287411 22
-11.03803 -5.821229 -1.178054 15
-13.53713 -7.200886 -0.9809501 48
-14.27816 -6.01185 -1.080528 10
-14.14411 -4.467127 -1.117473 11
-13.75348 -3.004471 -1.146754 7
-17.31104 -9.357572 -0.7990733 26
-17.03777 -7.272138 -0.8620263 79
-12.70793 -4.079476 -0.6973766 13
-13.38549 -2.99506 -0.7957885 11
-21.1459 -11.3321 -0.4180724 30
-22.20742 -9.383358 -0.5587998 9
-12.69315 -4.035752 -0.387163 47
-13.3791 -2.954506 -0.4723073 26
-7.406279 -1.666333 -1.369671 12
-11.14291 -2.420968 -1.278614 14
nan nan nan 0
nan nan nan 0
-13.6729 -2.907104 1.133746 22
-20.38927 -10.74404 2.824931 34
nan nan nan 0
-24.80584 -12.97334 7.490223 18
-20.91866 -11.19137 0.136415 14
-25.26064 -10.60104 0 11
-12.68155 -4.007674 -0.06942888 40
-13.43731 -2.932916 -0.1603755 14
-20.64859 -11.06065 0.6899604 40
nan nan nan 0
-12.6722 -4.031383 0.226791 45
-13.38766 -2.948923 0.1670064 16
nan nan nan 0
-18.59964 -10.1216 -5.521212 76
-8.209005 -4.382473 -1.287411 22
-11.05828 -5.782663 -1.178054 14
-13.61072 -7.179213 -0.9844706 54
-14.30827 -5.965814 -1.081225 9
-14.16914 -4.420696 -1.118226 10
-13.84671 -2.974203 -1.153674 8
-17.35241 -9.301812 -0.7994798 28
-17.01705 -7.19317 -0.8596971 92
-12.68877 -4.02453 -0.6955448 12
-13.55675 -2.983661 -0.8053728 7
-21.18091 -11.25587 -0.4179851 16
-22.26771 -9.317363 -0.5594962 8
-12.68809 -3.985432 -0.3865802 47
-13.47723 -2.92684 -0.4754168 8
-7.412051 -1.64047 -1.369671 13
-11.15615 -2.383093 -1.279173 15
-12.83179 -2.754181 0.5255258 17
-21.43421 -11.32826 1.408313 23
-13.81468 -2.886829 1.144691 22
-20.38267 -10.64981 2.818838 43
nan nan nan 0
-24.6452 -12.77992 7.428106 10
-21.16516 -11.22846 0.1377686 15
nan nan nan 0
-12.68115 -3.958915 -0.06935034 38
-13.5599 -2.910078 -0.1617203 18
-20.7974 -11.04715 0.6936468 39
-27.31963 -11.39796 0.6863432 11
-12.66712 -3.981131 0.2264489 44
-13.52004 -2.928587 0.1685335 16
nan nan nan 0
-18.6008 -10.03823 -5.511102 84
-8.228628 -4.356111 -1.288099 20
-11.08282 -5.746321 -1.178526 15
-13.56055 -7.09232 -0.9790298 51
-14.33823 -5.919641 -1.081923 9
-14.18925 -4.372677 -1.118603 11
-13.95942 -2.94743 -1.162223 14
-17.398 -9.248222 -0.8000897 32
-17.02823 -7.127939 -0.8589984 93
-12.80757 -4.013044 -0.7013018 19
-13.73297 -2.972157 -0.8152475 41
nan nan nan 0
-22.30933 -9.243404 -0.5597283 9
-12.67805 -3.933716 -0.3858516 46
-13.8197 -2.9506 -0.487164 2
-7.42254 -1.61563 -1.370563 12
-11.1644 -2.344136 -1.279173 14
-12.89999 -2.721725 0.5279337 6
-21.22606 -11.12357 1.392049 36
-13.95649 -2.865599 1.155635 18
-20.5563 -10.6494 2.837728 45
nan nan nan 0
-24.76696 -12.73358 7.4514 40
-22.61121 -11.89507 0.1469263 18
-26.78588 -11.02195 0 14
-12.68056 -3.910207 -0.0692718 37
-13.67272 -2.884359 -0.1629481 15
-21.05249 -11.08866 0.7008723 32
-27.32691 -11.28917 0.6855308 23
-12.66183 -3.930963 0.2261068 45
-13.65733 -2.908401 0.1701217 15
nan nan nan 0
-18.61014 -9.959537 -5.50352 84
-8.243784 -4.327361 -1.288099 19
-11.10281 -5.707599 -1.178526 15
-13.66494 -7.086316 -0.9847906 50
-14.36803 -5.87333 -1.08262 9
-14.21397 -4.326023 -1.119356 11
-14.00866 -2.906769 -1.165479 15
-17.43902 -9.192098 -0.8004962 31
-17.15912 -7.112453 -0.8643554 79
-12.91691 -3.997827 -0.7065354 20
-13.73349 -2.922128 -0.8146666 6
-21.49821 -11.23279 -0.4226972 5
-22.39695 -9.188244 -0.5611209 9
-12.67259 -3.883582 -0.3852687 47
-13.91795 -2.920782 -0.4902736 3
-7.428134 -1.589711 -1.370563 12
-11.17739 -2.306153 -1.279732 14
-12.88985 -2.67263 0.5271311 19
-21.7785 -11.3165 1.425739 41
-14.09832 -2.843414 1.166579 17
-20.66397 -10.61387 2.847477 35
nan nan nan 0
-24.51869 -12.49785 7.363401 18
-22.47086 -11.72122 0.1457455 25
-26.67602 -10.86801 0 19
-12.67499 -3.860096 -0.06916708 31
-13.79042 -2.858901 -0.1642344 12
-21.40999 -11.18177 0.7114894 30
-27.54659 -11.26753 0.6900569 9
-12.65636 -3.880881 0.2257648 44
-13.78975 -2.886271 0.1716489 28
nan nan nan 0
nan nan nan 0
-8.26323 -4.300848 -1.288787 20
-11.12267 -5.668809 -1.178526 15
-13.77389 -7.081953 -0.9908715 53
-14.39769 -5.826883 -1.083318 10
-14.23853 -4.279249 -1.12011 10
-14.02848 -2.859839 -1.166294 11
-17.48428 -9.138114 -0.8011061 28
nan nan nan 0
-12.92601 -3.951255 -0.7062737 28
-13.98792 -2.925166 -0.8291883 4
-21.33313 -11.05185 -0.4186832 17
-22.44741 -9.117534 -0.5615851 9
-12.67172 -3.834982 -0.3848316 47
-14.07979 -2.903409 -0.4956289 5
-7.438453 -1.564781 -1.371456 12
-11.19024 -2.268107 -1.280291 14
-12.93337 -2.634586 0.5285357 4
-21.49398 -11.07346 1.404538 25
-14.25483 -2.823173 1.17874 17
-21.38186 -10.88865 2.941317 11
nan nan nan 0
-24.59665 -12.42962 7.373755 15
-21.48585 -11.11191 0.1390933 32
-12.87729 -5.192936 0 18
-12.66924 -3.810071 -0.06906236 31
-13.9522 -2.84162 -0.1660468 11
-21.3912 -11.07707 0.7095724 16
-26.86299 -10.87856 0.6719524 19
-12.65069 -3.830886 0.2254227 43
-13.92218 -2.863251 0.173176 14
nan nan nan 0
nan nan nan 0
-8.278193 -4.271977 -1.288787 21
-11.14683 -5.632196 -1.178997 14
-13.85186 -7.061041 -0.9947122 54
-14.42721 -5.780302 -1.084016 10
-14.25816 -4.23094 -1.120486 10
-14.04816 -2.812807 -1.167108 10
-17.52494 -9.081627 -0.8015127 25
-17.20836 -6.992487 -0.8643554 80
-12.93494 -3.904668 -0.706012 23
-13.97849 -2.87231 -0.8280266 7
-21.4605 -11.02302 -0.4204285 34
nan nan nan 0
-12.66587 -3.785005 -0.3842487 49
-14.60902 -2.959212 -0.5139408 12
-7.448689 -1.539799 -1.372348 12
-11.19809 -2.229032 -1.280291 14
-14.07422 -2.815362 0.5748879 37
-21.47917 -10.9711 1.401052 33
-14.42604 -2.80472 1.192116 19
-21.46846 -10.83856 2.948019 13
nan nan nan 0
-25.90497 -12.97774 7.752924 14
-21.33767 -10.94098 0.1378837 38
-12.90462 -5.151663 0 24
-12.66329 -3.760134 -0.06895765 23
-14.10911 -2.822264 -0.1678008 11
-21.24302 -10.90642 0.7033792 18
-26.91472 -10.7903 0.6723006 12
-12.64483 -3.780977 0.2250806 42
-14.06441 -2.841318 0.1748253 14
nan nan nan 0
nan nan nan 0
-8.297462 -4.245314 -1.289475 21
-11.16642 -5.593252 -1.178997 14
-13.81409 -6.981117 -0.9902315 66
-14.45657 -5.733585 -1.084713 10
-14.28241 -4.183945 -1.121239 10
-14.06278 -2.764711 -1.167515 9
-17.5743 -9.029534 -0.8023257 26
-12.96521 -5.215143 -0.6498387 24
-12.94371 -3.858067 -0.7057503 7
nan nan nan 0
-21.57457 -10.98663 -0.4219119 6
nan nan nan 0
-12.66463 -3.736528 -0.3838116 48
-14.60946 -2.906252 -0.5135953 10
-7.45884 -1.514765 -1.37324 12
-11.21068 -2.19088 -1.28085 12
-14.31439 -2.811383 0.5843189 64
-21.23682 -10.75393 1.382755 10
-14.53366 -2.772989 1.200223 30
nan nan nan 0
nan nan nan 0
-25.88091 -12.85285 7.732219 37
-21.1529 -10.75309 0.1364439 39
-12.88533 -5.091881 0 40
-12.65714 -3.710285 -0.06885292 15
-14.88917 -2.923982 -0.1769802 26
-21.37894 -10.8821 0.7066232 14
nan nan nan 0
-12.63877 -3.731156 0.2247386 45
-14.22138 -2.82134 0.1766578 14
nan nan nan 0
nan nan nan 0
-8.31223 -4.216324 -1.289475 22
-11.18588 -5.55424 -1.178997 14
-13.8696 -6.94851 -0.9924719 57
-14.48578 -5.686734 -1.085411 9
-14.30651 -4.136834 -1.121993 10
-14.08213 -2.717491 -1.168329 8
-17.62352 -8.97721 -0.8031388 30
-12.99262 -5.17355 -0.6503046 46
-12.96188 -3.814271 -0.706012 7
-17.73435 -3.513754 -1.049628 9
-21.57263 -10.89096 -0.4211265 21
-12.9244 -5.091689 -0.3215855 39
-12.6584 -3.68671 -0.3832287 48
-14.42823 -2.817953 -0.5068579 5
-7.468907 -1.489679 -1.374133 12
-11.22313 -2.152668 -1.281409 13
-14.41733 -2.779333 0.5881314 21
-21.81394 -10.95083 1.417898 41
-14.79309 -2.768906 1.220895 43
-21.14354 -10.48982 2.893178 30
nan nan nan 0
-25.42736 -12.51705 7.583398 28
-21.38228 -10.77599 0.1376822 19
-12.87043 -5.034118 0 38
-12.6508 -3.660524 -0.06874821 8
-14.88947 -2.870103 -0.1768633 28
-21.2428 -10.71956 0.7008723 22
-12.85996 -5.050647 0.3198447 36
-12.63252 -3.681423 0.2243965 45
-14.37837 -2.8003 0.1784904 12
nan nan nan 0
nan nan nan 0
-8.331322 -4.18951 -1.290163 19
-11.20966 -5.517359 -1.179469 14
-13.92505 -6.915601 -0.9947122 49
-14.51484 -5.639748 -1.086108 9
-14.33045 -4.089605 -1.122746 10
-14.09643 -2.669244 -1.168736 9
-17.68151 -8.929157 -0.8043585 28
-13.02454 -5.133662 -0.6510034 5
-12.63946 -3.671548 -0.6876944 6
-17.73181 -3.448973 -1.048756 9
-21.61052 -10.8156 -0.4211265 28
-12.90949 -5.033828 -0.3207732 35
-12.65678 -3.638361 -0.3827916 49
-14.46252 -2.772266 -0.5077217 3
-7.47889 -1.46454 -1.375025 11
-11.23546 -2.114395 -1.281968 13
-14.54968 -2.752158 0.5931479 33
-21.63309 -10.7656 1.403666 29
-14.78796 -2.714558 1.219679 46
-21.09097 -10.37213 2.880991 41
nan nan nan 0
-25.44485 -12.4155 7.575633 27
-21.54946 -10.76612 0.1385173 23
-12.90191 -4.994578 0 8
-12.64908 -3.612225 -0.06866967 5
-14.87974 -2.814401 -0.1766294 23
-21.64657 -10.82878 0.7129639 29
-12.83093 -4.98761 0.3186842 34
-12.62607 -3.63178 0.2240544 43
-14.54521 -2.780071 0.1804451 17
nan nan nan 0
-0.3224417 -0.1575592 -0.08340581 6
-8.350325 -4.162615 -1.290851 22
-11.23332 -5.480381 -1.17994 13
-13.96253 -6.873567 -0.9956723 48
-14.5484 -5.59442 -1.087155 9
-14.34944 -4.040908 -1.123123 10
-14.11056 -2.62093 -1.169143 9
-17.7349 -8.878572 -0.8053748 26
-13.05168 -5.091799 -0.6514692 6
-12.6282 -3.620528 -0.686386 46
-17.75355 -3.388926 -1.049337 8
-21.64366 -10.73787 -0.4210393 29
-12.93631 -4.992335 -0.3210053 5
-12.65498 -3.590069 -0.3823545 52
-14.65873 -2.756793 -0.5142863 6
-7.48879 -1.43935 -1.375917 12
-11.24766 -2.076063 -1.282527 12
-14.75569 -2.737736 0.6011742 45
-21.63473 -10.67235 1.401343 13
-14.76791 -2.657637 1.217247 45
-21.10475 -10.28757 2.877944 32
nan nan nan 0
-25.55325 -12.35816 7.595045 24
-21.47939 -10.63755 0.1378261 25
nan nan nan 0
-12.64717 -3.563983 -0.06859113 4
-14.84523 -2.754252 -0.1761032 29
-21.8857 -10.85312 0.7195996 39
-12.8156 -4.930223 0.3178718 31
-12.62424 -3.583591 0.2237979 43
-14.66786 -2.750435 0.18185 21
nan nan nan 0
-0.3013939 -0.145538 -0.07708719 7
-8.369243 -4.135639 -1.29154 23
-11.25687 -5.443305 -1.180411 14
-14.00885 -6.835735 -0.9972726 51
-14.56784 -5.543602 -1.087155 8
-14.37306 -3.993462 -1.123876 10
-14.12943 -2.573441 -1.169957 9
-17.79263 -8.829945 -0.8065945 23
nan nan nan 0
-12.61674 -3.569632 -0.6850777 44
-17.77508 -3.328768 -1.049918 8
-21.65409 -10.64901 -0.4205157 18
-12.86027 -4.911468 -0.3186842 35
-12.65299 -3.541833 -0.3819173 49
-14.86485 -2.741793 -0.5211964 20
-7.493768 -1.413201 -1.375917 12
-11.26462 -2.038553 -1.283646 13
-14.78974 -2.690675 0.6021776 45
-21.70772 -10.61431 1.403666 14
-14.74765 -2.600889 1.214815 46
nan nan nan 0
nan nan nan 0
-25.41768 -12.18326 7.541987 42
-21.61063 -10.6088 0.1384309 33
nan nan nan 0
-12.64509 -3.515799 -0.06851259 4
-14.8154 -2.695271 -0.1756355 37
-21.64988 -10.6421 0.7106046 24
-12.81405 -4.878341 0.3174076 30
-12.61742 -3.534111 0.2234558 45
-14.82489 -2.726294 0.1836826 42
nan nan nan 0
-0.3062268 -0.1466489 -0.07835092 8
-8.388074 -4.10858 -1.292228 21
-11.28029 -5.406131 -1.180883 13
-14.01916 -6.780271 -0.9963124 43
-14.58711 -5.492717 -1.087155 8
-14.39653 -3.945901 -1.124629 9
-14.14323 -2.524979 -1.170364 11
-17.84575 -8.778815 -0.8076109 22
nan nan nan 0
-12.63874 -3.528253 -0.685601 44
-17.80132 -3.269402 -1.050789 8
-21.75404 -10.60404 -0.4217374 29
-12.83993 -4.852406 -0.3177558 42
-12.65083 -3.493656 -0.3814802 48
-15.01694 -2.715625 -0.5262063 13
-7.503493 -1.387925 -1.376809 11
-11.27656 -2.000085 -1.284205 12
-14.77445 -2.634657 0.6011742 46
-21.69973 -10.51669 1.400762 17
-14.74191 -2.546855 1.213599 37
-22.21438 -10.63746 3.019313 48
nan nan nan 0
-25.70433 -12.21056 7.614456 14
-21.6835 -10.55081 0.1386613 36
nan nan nan 0
-12.64282 -3.467672 -0.06843404 4
-14.81487 -2.641787 -0.1755185 37
-21.66893 -10.5577 0.7100148 29
-12.80293 -4.823006 0.3167113 42
-12.61522 -3.486053 0.2231993 45
-14.81956 -2.671873 0.1834994 37
nan nan nan 0
-0.3067369 -0.1455791 -0.07835092 8
-8.406817 -4.081441 -1.292916 23
-11.30358 -5.368861 -1.181354 12
-14.09223 -6.755036 -0.999833 35
-14.62489 -5.448733 -1.08855 7
-14.41985 -3.898225 -1.125382 9
-14.16178 -2.477308 -1.171179 9
-17.89874 -8.727422 -0.8086272 26
-12.78662 -4.834683 -0.6356308 46
-12.74244 -3.509292 -0.6905729 5
-17.82245 -3.20901 -1.05137 9
-21.88544 -10.57373 -0.4235699 19
-12.82402 -4.795297 -0.3169434 42
-12.65812 -3.448162 -0.3813345 47
-15.18379 -2.691039 -0.5317343 11
-7.513134 -1.3626 -1.377702 11
-11.28837 -1.961559 -1.284764 14
-14.75402 -2.57792 0.5999703 49
-22.19969 -10.6636 1.430677 19
-14.93744 -2.526897 1.229002 3
-22.26931 -10.56837 3.02175 45
nan nan nan 0
-25.30987 -11.91497 7.485047 7
nan nan nan 0
nan nan nan 0
-12.64036 -3.419604 -0.06835551 6
-14.80923 -2.587481 -0.1753431 9
-21.62465 -10.44286 0.7073605 37
-12.79627 -4.769553 0.316131 37
-12.61284 -3.438055 0.2229427 52
-14.80418 -2.615786 0.1831939 36
nan nan nan 0
-0.3115849 -0.1466411 -0.07961464 9
-8.425475 -4.054221 -1.293604 21
-11.32676 -5.331492 -1.181826 13
-14.14276 -6.71866 -1.001753 34
nan nan nan 0
-14.443 -3.850434 -1.126136 9
-14.18016 -2.429538 -1.171993 9
-17.94708 -8.673592 -0.8094403 23
-12.78471 -4.783018 -0.6346992 49
-12.76907 -3.468716 -0.691358 7
-17.8483 -3.149376 -1.052241 8
-22.50832 -10.77809 -0.434914 25
-12.81724 -4.741828 -0.3163631 42
-12.66043 -3.401363 -0.381043 46
-15.41465 -2.676412 -0.5395082 9
-7.517844 -1.336366 -1.377702 11
-11.30494 -1.923806 -1.285882 13
-14.9353 -2.555834 0.6069934 3
-22.20073 -10.56887 1.428353 17
-15.10843 -2.501544 1.242378 4
nan nan nan 0
nan nan nan 0
-25.17625 -11.74485 7.433283 23
-22.05884 -10.54371 0.1405907 39
-12.78061 -4.692791 0 9
-12.63773 -3.371596 -0.06827697 9
nan nan nan 0
-21.62942 -10.3522 0.7063283 14
-12.7894 -4.716206 0.3155507 33
-12.61028 -3.390115 0.2226862 45
-14.84278 -2.569199 0.1835604 5
nan nan nan 0
-0.3120949 -0.1455526 -0.07961464 9
-8.439576 -4.024786 -1.293604 24
-11.3453 -5.291923 -1.181826 13
-14.13904 -6.65649 -0.999833 14
-14.00655 -5.107212 -1.03972 4
-14.46118 -3.801262 -1.126512 9
-14.19347 -2.380848 -1.1724 9
-17.99978 -8.621689 -0.8104567 33
-12.79196 -4.734892 -0.6342333 38
nan nan nan 0
-17.86902 -3.088752 -1.052822 8
-22.85741 -10.84741 -0.440935 31
-12.81024 -4.688466 -0.3157828 40
-12.66739 -3.35587 -0.3808973 19
-15.61604 -2.655189 -0.5462456 9
-7.527311 -1.310956 -1.378594 10
-11.31649 -1.885146 -1.286441 12
-15.09196 -2.528396 0.6130131 4
-22.03436 -10.39542 1.415284 30
-15.28926 -2.476617 1.256566 9
nan nan nan 0
nan nan nan 0
-25.28723 -11.68933 7.453988 38
-22.12261 -10.4795 0.1407635 22
-12.75462 -4.632781 0 16
-12.63492 -3.323648 -0.06819843 10
-15.26581 -2.557396 -0.1805467 23
-22.68132 -10.7588 0.7395065 29
-12.7823 -4.662965 0.3149705 29
-12.61721 -3.344795 0.2226006 43
-15.02912 -2.547389 0.1857595 3
nan nan nan 0
-0.3169576 -0.1465655 -0.08087836 9
-8.458051 -3.997421 -1.294292 20
-11.36822 -5.254378 -1.182297 13
-14.06272 -6.56065 -0.9927918 9
-13.95861 -5.034588 -1.034837 5
-14.48401 -3.75326 -1.127266 9
-14.21153 -2.332899 -1.173214 9
-18.04781 -8.56738 -0.8112698 21
-12.78027 -4.679903 -0.6328358 6
nan nan nan 0
-17.89445 -3.028853 -1.053694 9
-22.93133 -10.78459 -0.4416331 32
-12.80303 -4.63521 -0.3152026 37
-12.67419 -3.31037 -0.3807516 32
-15.81746 -2.632593 -0.552983 9
-7.531841 -1.284673 -1.378594 11
-11.32791 -1.84643 -1.287 12
-15.28312 -2.505541 0.6204375 13
-22.14285 -10.35229 1.419931 27
nan nan nan 0
-22.78872 -10.52402 3.077201 25
nan nan nan 0
-25.30154 -11.58892 7.446224 21
-22.23147 -10.43622 0.1412243 5
-12.74718 -4.579775 0 19
-12.63192 -3.27576 -0.06811989 40
-15.32892 -2.512971 -0.1811898 8
-22.66446 -10.65404 0.7377371 26
-12.77969 -4.611529 0.3145062 22
-12.62397 -3.299469 0.2225151 58
-15.26975 -2.533291 0.1886305 4
nan nan nan 0
-0.3174673 -0.1454582 -0.08087836 9
-8.476436 -3.969975 -1.29498 21
-11.39102 -5.216738 -1.182769 13
-14.0946 -6.515713 -0.993432 9
-13.95261 -4.97745 -1.033093 7
-14.50185 -3.703912 -1.127642 9
-14.22451 -2.284066 -1.173621 9
-18.09569 -8.512841 -0.8120829 28
-12.81062 -4.640368 -0.6335346 4
-12.79987 -3.333553 -0.6910963 20
-17.91969 -2.968815 -1.054565 7
-22.94164 -10.6918 -0.4411095 27
-12.7956 -4.582061 -0.3146223 34
-12.67599 -3.263618 -0.3804602 46
-16.01891 -2.608623 -0.5597203 9
-7.541132 -1.259181 -1.379486 10
-11.33919 -1.807657 -1.287559 12
-15.45006 -2.474739 0.6268586 13
-22.28029 -10.31723 1.42632 45
-15.69611 -2.424434 1.288588 7
-22.85604 -10.44883 3.080857 18
nan nan nan 0
-24.92999 -11.29779 7.323285 29
-24.18851 -11.23205 0.1533769 13
-12.74348 -4.515758 0 22
-12.62671 -3.215678 -0.06801517 42
-15.6068 -2.485759 -0.1843471 5
-22.81228 -10.59743 0.7409812 16
-12.76832 -4.539529 0.3136939 14
-12.63453 -3.238703 0.2224296 147
-15.43991 -2.483997 0.1905852 10
nan nan nan 0
-0.3179983 -0.1442937 -0.08087836 9
-8.495421 -3.940968 -1.295668 21
-11.4155 -5.175019 -1.18324 13
-14.12518 -6.461159 -0.993752 10
-14.01952 -4.937977 -1.036581 8
-14.52691 -3.64556 -1.128396 9
-14.2438 -2.225997 -1.174435 10
-18.15531 -8.444345 -0.8130993 31
-12.78371 -4.567616 -0.6312054 4
-12.81002 -3.274199 -0.6908346 15
-17.94283 -2.889051 -1.055146 9
-23.01447 -10.59403 -0.4415458 33
-12.79349 -4.513395 -0.314042 34
-12.68154 -3.201402 -0.3801688 47
-16.22892 -2.561404 -0.5666305 8
-7.547622 -1.219679 -1.379486 10
-11.35341 -1.749014 -1.288118 13
-15.63026 -2.422465 0.633681 6
-22.47295 -10.26866 1.435323 20
-15.88028 -2.373422 1.302775 12
-27.23086 -12.28938 3.663392 14
nan nan nan 0
-24.91242 -11.14861 7.302579 20
-24.40281 -11.19727 0.1544137 13
-12.73947 -4.45186 0 26
-12.62122 -3.155705 -0.06791045 44
-15.80978 -2.45016 -0.1866273 5
-23.83277 -10.95062 0.7726848 15
-12.76286 -4.479956 0.3131136 9
-12.63774 -3.185517 0.2222586 50
-15.64197 -2.45486 0.1929675 10
nan nan nan 0
-0.3187245 -0.1426823 -0.08087836 9
-8.519761 -3.899982 -1.296356 23
-11.44519 -5.121204 -1.183711 13
-14.21912 -6.423304 -0.9982327 14
-14.09918 -4.891482 -1.040767 10
-14.54815 -3.580793 -1.128772 9
-14.25868 -2.162084 -1.174842 11
-18.21013 -8.373401 -0.8139124 29
-12.76113 -4.496847 -0.6291091 5
-12.77035 -3.207141 -0.6879561 34
-17.96957 -2.816182 -1.056017 8
-23.04317 -10.49534 -0.4412841 29
-12.7879 -4.453778 -0.3134618 35
-12.69914 -3.151673 -0.3803144 48
-16.43126 -2.52865 -0.5733678 9
-7.556694 -1.194089 -1.380378 11
-11.36436 -1.71011 -1.288677 13
-15.85104 -2.399977 0.6423093 5
-22.55412 -10.21075 1.438228 8
-16.06601 -2.343811 1.317367 11
-27.47745 -12.28544 3.690813 14
nan nan nan 0
-25.00858 -11.08704 7.319402 22
nan nan nan 0
-12.7313 -4.399196 0 34
-12.59817 -3.103263 -0.06772719 43
-15.94182 -2.413628 -0.188089 4
-24.18013 -11.00824 0.782712 19
-12.79258 -4.440298 0.3134618 5
-12.63908 -3.138974 0.2220875 43
-15.83331 -2.428226 0.1952277 3
nan nan nan 0
-0.3192206 -0.1415689 -0.08087836 10
-8.533323 -3.870219 -1.296356 22
-11.46755 -5.083242 -1.184183 12
-14.28699 -6.394029 -1.001433 15
-14.20109 -4.871377 -1.047045 9
-14.57025 -3.532336 -1.129525 9
-14.27107 -2.113026 -1.175249 8
-18.27562 -8.326364 -0.8155386 30
-12.71072 -4.429256 -0.6258483 232
-12.77662 -3.161346 -0.6876944 55
-17.9941 -2.755702 -1.056888 9
-23.15257 -10.44776 -0.4426803 30
-12.77974 -4.400972 -0.3128815 39
-12.71977 -3.109698 -0.3806059 47
-16.63766 -2.500927 -0.580278 9
-7.560816 -1.167704 -1.380378 11
-11.37518 -1.67115 -1.289236 13
-16.05208 -2.373062 0.650135 7
-24.36568 -10.92903 1.551497 16
-16.27639 -2.316435 1.333986 9
nan nan nan 0
nan nan nan 0
-25.00733 -10.98219 7.307755 27
nan nan nan 0
-12.72292 -4.346643 0 38
-12.63808 -3.066338 -0.06788427 42
-16.22219 -2.398088 -0.1913047 5
-24.45984 -11.03273 0.7905274 13
nan nan nan 0
-12.66938 -3.099586 0.2224296 46
-16.02958 -2.401024 0.1975489 4
nan nan nan 0
-0.3197129 -0.1404537 -0.08087836 9
-8.551296 -3.842441 -1.297044 22
-11.48978 -5.045184 -1.184654 13
-14.37307 -6.372455 -1.005914 15
-14.34082 -4.863441 -1.056113 6
-14.60189 -3.486084 -1.131032 9
-14.28329 -2.063909 -1.175657 8
-18.30457 -8.26252 -0.8155386 25
-12.73555 -4.388115 -0.6263142 248
-12.74877 -3.107274 -0.685601 64
-18.01842 -2.695084 -1.05776 8
-23.26647 -10.40158 -0.4441637 30
-12.77136 -4.348277 -0.3123012 40
-12.75484 -3.071125 -0.3813345 45
-16.84406 -2.471793 -0.5871881 9
-7.569711 -1.142036 -1.381271 10
-11.38586 -1.632136 -1.289795 12
-16.25806 -2.345484 0.6581614 8
-24.2714 -10.7851 1.543074 17
-16.49171 -2.288302 1.351011 9
-28.06695 -12.31474 3.758451 12
nan nan nan 0
-24.09784 -10.48238 7.030819 26
-24.50503 -10.935 0.1543273 14
-12.71907 -4.295803 0 41
-12.68762 -3.031494 -0.06809371 39
-16.4581 -2.374211 -0.1939942 11
-24.3157 -10.86569 0.784629 22
nan nan nan 0
-12.69956 -3.060025 0.2227717 41
-16.23081 -2.373204 0.1999312 5
nan nan nan 0
-0.3246043 -0.1413407 -0.08214208 9
-8.564657 -3.812568 -1.297044 21
-11.51189 -5.007034 -1.185126 13
-14.45918 -6.350356 -1.010395 15
-14.77385 -4.952917 -1.086806 12
-14.59456 -3.430532 -1.129525 9
-14.29535 -2.014732 -1.176064 9
-18.3561 -8.208778 -0.8165549 29
-12.73188 -4.337189 -0.6253824 255
-12.74012 -3.058095 -0.6845543 45
-18.04253 -2.634331 -1.058631 8
-23.26608 -10.3041 -0.4434656 30
-12.76752 -4.297289 -0.311837 38
-12.82871 -3.041564 -0.3832287 39
-17.06529 -2.443368 -0.5946165 8
-7.573651 -1.115605 -1.381271 10
-11.40133 -1.593753 -1.290914 12
-16.46405 -2.316496 0.6661878 8
-24.46879 -10.77073 1.55324 17
-16.69221 -2.256695 1.366819 8
-28.0324 -12.18305 3.748091 8
nan nan nan 0
-24.06332 -10.3676 7.010114 23
-24.56134 -10.85748 0.1544425 17
-12.71028 -4.243459 0 31
-12.78086 -3.006641 -0.06853877 33
-16.72374 -2.352884 -0.1970345 9
-24.2301 -10.72609 0.7806476 41
nan nan nan 0
-12.77827 -3.031825 0.2239689 44
-16.43204 -2.344007 0.2023135 6
nan nan nan 0
-0.3250957 -0.1402067 -0.08214208 9
-8.582442 -3.784649 -1.297732 21
-11.53386 -4.968791 -1.185597 13
-14.54988 -6.329727 -1.015195 17
-14.81472 -4.909163 -1.08855 11
-13.68835 -3.167271 -1.058342 4
-14.30723 -1.965496 -1.176471 9
nan nan nan 0
-12.72801 -4.286341 -0.6244508 233
-12.78473 -3.021639 -0.686386 42
-18.05162 -2.571335 -1.058631 10
-23.26986 -10.20875 -0.4428548 28
-12.76347 -4.246381 -0.3113728 41
-12.93659 -3.019471 -0.3861431 34
-17.28159 -2.41274 -0.6018721 8
-7.577499 -1.089162 -1.381271 10
-11.41175 -1.554614 -1.291473 11
-16.67003 -2.286098 0.6742141 8
-24.8082 -10.81699 1.572408 16
-16.9174 -2.22696 1.384654 9
nan nan nan 0
nan nan nan 0
-24.15267 -10.3063 7.025642 11
-24.62657 -10.78372 0.1546153 28
-12.70602 -4.192796 0 11
-12.9569 -3.000336 -0.06942888 29
-16.93495 -2.322278 -0.1994316 9
-24.50539 -10.74587 0.7883155 21
nan nan nan 0
-12.88128 -3.008795 0.2255937 34
-16.6382 -2.314121 0.2047569 6
nan nan nan 0
-0.303498 -0.1292058 -0.07582346 9
-8.595601 -3.754668 -1.297732 23
-11.55572 -4.930455 -1.186068 13
-14.64062 -6.30854 -1.019996 17
-14.81755 -4.852762 -1.087503 10
-13.67016 -3.112833 -1.056082 4
-14.32388 -1.916861 -1.177285 8
nan nan nan 0
-12.72394 -4.235573 -0.6235191 202
-12.87302 -2.995088 -0.6905729 16
-18.05554 -2.507622 -1.058341 8
-23.232 -10.09557 -0.4414586 36
-12.75922 -4.195555 -0.3109086 35
-13.04935 -2.99778 -0.389203 33
-17.49787 -2.38063 -0.6091278 9
-7.586128 -1.063384 -1.382163 11
-11.42203 -1.515421 -1.292032 11
-16.8859 -2.25561 0.6826418 9
-24.89162 -10.75013 1.575313 16
-17.13763 -2.195048 1.402084 8
-27.10338 -11.5548 3.612816 15
nan nan nan 0
-24.14401 -10.20312 7.012702 10
-24.63654 -10.68575 0.1544425 27
-12.70156 -4.142215 0 4
-13.07455 -2.979517 -0.07000484 27
-17.26012 -2.305413 -0.2031735 10
nan nan nan 0
nan nan nan 0
-13.00376 -2.989561 0.2275606 33
-16.85923 -2.284833 0.2073836 7
nan nan nan 0
-0.3349144 -0.141849 -0.08466953 9
-8.613199 -3.72661 -1.29842 23
-11.57286 -4.890089 -1.186068 13
-14.73138 -6.286798 -1.024797 16
-14.86762 -4.811764 -1.089945 9
-13.65175 -3.05856 -1.053822 4
-14.33543 -1.867491 -1.177692 9
nan nan nan 0
-12.71967 -4.184886 -0.6225874 255
-13.11702 -3.0036 -0.7031335 5
-18.05924 -2.443913 -1.05805 9
-23.30842 -10.03221 -0.442244 25
-12.75477 -4.144809 -0.3104444 30
-13.16211 -2.975339 -0.3922631 32
-17.73891 -2.350314 -0.6172472 8
-7.589794 -1.036897 -1.382163 10
-11.43711 -1.476809 -1.29315 12
-17.10672 -2.224285 0.6912701 9
-26.48465 -11.32896 1.67377 19
-17.38258 -2.164698 1.42154 8
-26.80982 -11.31915 3.568334 32
nan nan nan 0
nan nan nan 0
-24.73341 -10.62535 0.1548168 28
-12.69215 -4.090181 0 24
-13.19708 -2.959005 -0.07060697 25
-17.82338 -2.317173 -0.2097218 10
-24.97001 -10.74249 0.8008494 12
nan nan nan 0
-13.10677 -2.965099 0.2291855 34
-17.06537 -2.252073 0.209827 7
nan nan nan 0
nan nan nan 0
-8.626155 -3.696522 -1.29842 19
-11.59445 -4.851585 -1.18654 14
-14.82676 -6.266442 -1.029918 14
-14.90808 -4.767436 -1.091689 9
-13.66721 -3.01196 -1.054199 7
-14.3468 -1.818064 -1.178099 9
-17.88623 -7.700621 -0.790739 72
-12.7152 -4.13428 -0.6216558 225
-13.21511 -2.977539 -0.7078438 15
-18.06271 -2.380209 -1.05776 9
-23.38009 -9.966479 -0.4429421 24
-12.75488 -4.095675 -0.3100962 36
-13.27975 -2.953231 -0.3954688 31
-17.88082 -2.305593 -0.6219115 8
-7.598244 -1.011043 -1.383055 11
-11.44712 -1.437494 -1.293709 11
-17.34238 -2.193321 0.7005004 8
nan nan nan 0
-17.60278 -2.129678 1.43897 8
-24.42266 -10.21047 3.24538 18
nan nan nan 0
-25.62444 -10.61885 7.421636 39
-24.92216 -10.60358 0.1557672 17
-12.68729 -4.039782 0 40
-13.31963 -2.937673 -0.07120911 23
-18.23315 -2.30563 -0.2144577 6
-26.74059 -11.3942 0.8564415 17
-12.55924 -4.018223 0.3052219 21
-13.23416 -2.94538 0.2312379 32
-17.31613 -2.223618 0.2128202 7
nan nan nan 0
nan nan nan 0
-8.643562 -3.668326 -1.299108 24
-11.61591 -4.812991 -1.187011 13
-14.92218 -6.245496 -1.035038 14
-14.9056 -4.709355 -1.090294 8
-13.75073 -2.980064 -1.059848 7
-14.36295 -1.769188 -1.178913 9
-17.85327 -7.612648 -0.7880965 105
-12.71053 -4.083756 -0.6207241 232
-13.32292 -2.952988 -0.7130774 27
-18.07091 -2.317144 -1.05776 9
-23.43776 -9.894534 -0.4433784 37
-12.75004 -4.045078 -0.309632 30
-13.38763 -2.928203 -0.3983831 43
-18.07718 -2.266732 -0.6284762 5
-7.601727 -0.9845143 -1.383055 10
-11.46194 -1.398726 -1.294827 12
-17.57804 -2.160739 0.7097307 8
-25.56434 -10.72457 1.610746 18
-17.83284 -2.094307 1.457211 8
-24.43064 -10.11376 3.241724 11
nan nan nan 0
nan nan nan 0
-25.17556 -10.60782 0.1571206 19
-12.68224 -3.989466 0 42
-13.4422 -2.915522 -0.07181124 22
-18.28575 -2.247447 -0.2149839 5
-27.01502 -11.39993 0.8639619 16
-12.54459 -3.965316 0.3045256 20
-13.3518 -2.922671 0.2331192 32
-17.54208 -2.19035 0.2155079 7
nan nan nan 0
-0.3052725 -0.1249557 -0.07582346 9
-8.656315 -3.638131 -1.299108 24
-11.63724 -4.774305 -1.187483 13
-15.01302 -6.222049 -1.039839 13
-14.92671 -4.658782 -1.090642 8
-13.83907 -2.94866 -1.065874 8
-14.37399 -1.719632 -1.17932 9
-17.99018 -7.596958 -0.7929751 105
-12.70091 -4.031805 -0.6195595 225
-13.48927 -2.940475 -0.7214512 18
-18.07393 -2.253435 -1.057469 9
-23.45371 -9.804943 -0.4430293 24
-12.74978 -3.99606 -0.3092838 32
-13.47106 -2.897207 -0.4005688 33
-18.79929 -2.290438 -0.6533526 101
-7.609999 -0.9585847 -1.383948 10
-11.47168 -1.35929 -1.295386 12
-17.82856 -2.128311 0.7195631 9
-25.81826 -10.72531 1.624396 17
-18.12229 -2.064104 1.480315 8
-24.31428 -9.966277 3.221616 30
nan nan nan 0
-25.72032 -10.44879 7.428106 39
-25.45698 -10.62197 0.1586469 26
-12.67222 -3.93775 0 42
-13.56965 -2.893593 -0.07243956 19
-18.2488 -2.178284 -0.2144577 13
-27.08693 -11.31906 0.8649941 33
-12.47725 -3.896162 0.3025527 27
-13.489 -2.903382 0.2353427 29
-17.78786 -2.157934 0.21844 6
nan nan nan 0
-0.3101576 -0.125785 -0.07708719 10
-8.668962 -3.607893 -1.299108 23
-11.65845 -4.73553 -1.187954 13
-15.10388 -6.198042 -1.04464 12
-14.93812 -4.605181 -1.090294 9
-13.92736 -2.916675 -1.0719 9
-14.38486 -1.670019 -1.179727 9
-18.13641 -7.584262 -0.7982603 102
-12.69584 -3.981464 -0.6186278 226
-13.74845 -2.946707 -0.7347968 40
-18.08169 -2.190331 -1.057469 8
nan nan nan 0
-12.74932 -3.947094 -0.3089356 31
-13.62779 -2.881161 -0.4049402 12
-18.88161 -2.233586 -0.6559439 112
-7.613298 -0.9320151 -1.383948 9
-11.48129 -1.319803 -1.295945 11
-18.06418 -2.092439 0.7287933 8
-26.00325 -10.69592 1.63369 16
-18.37707 -2.02809 1.500583 16
-24.26156 -9.845869 3.210038 27
nan nan nan 0
-25.71183 -10.34092 7.415165 26
-25.66949 -10.60562 0.1597413 14
-12.66677 -3.887621 0 42
-13.70201 -2.871834 -0.07309406 15
nan nan nan 0
-27.0293 -11.18429 0.8618975 37
-12.49555 -3.854059 0.3026688 21
-13.63111 -2.884204 0.2376516 28
-18.04356 -2.124996 0.2214942 7
nan nan nan 0
nan nan nan 0
-8.686083 -3.579501 -1.299797 21
-11.67953 -4.696665 -1.188425 13
-15.19938 -6.175357 -1.049761 11
-14.95887 -4.554461 -1.090642 9
nan nan nan 0
-14.4005 -1.620908 -1.180542 8
-18.27816 -7.568724 -0.8033421 111
-12.69058 -3.931209 -0.6176962 184
-13.75865 -2.898698 -0.7347968 13
-18.08923 -2.127201 -1.057469 10
-23.91474 -9.802212 -0.4504466 27
-12.74391 -3.896717 -0.3084714 34
nan nan nan 0
-18.89922 -2.1688 -0.6562894 41
-7.621391 -0.9060115 -1.38484 10
-11.49077 -1.280266 -1.296504 11
-18.33451 -2.05884 0.7394282 8
-13.22679 -5.383759 0.8286074 8
-18.62685 -1.989794 1.520444 13
-24.33261 -9.775928 3.214913 28
nan nan nan 0
-25.77918 -10.26361 7.424224 28
-26.63643 -10.89666 0.1655296 27
-12.66112 -3.837578 0 42
-13.83439 -2.849186 -0.07374855 16
-19.46596 -2.185489 -0.2286067 13
nan nan nan 0
-12.47067 -3.798759 0.3017403 26
-13.77325 -2.86407 0.2399606 27
-18.28434 -2.088599 0.2243652 7
nan nan nan 0
nan nan nan 0
-8.698524 -3.549159 -1.299797 25
-11.70047 -4.65771 -1.188897 13
-15.28565 -6.148354 -1.054241 10
-14.97945 -4.503655 -1.090991 9
-14.74887 -2.981272 -1.133668 17
-14.41103 -1.571169 -1.180949 8
-18.37379 -7.533322 -0.8063912 107
-12.68512 -3.881039 -0.6167645 61
-13.95449 -2.889098 -0.7447406 11
