# .PCD v0.7 - Point Cloud Data file format
VERSION 0.7
FIELDS x y z intensity
SIZE 4 4 4 4
TYPE F F F F
COUNT 1 1 1 1
WIDTH 1642
HEIGHT 1
VIEWPOINT 0 0 0 1 0 0 0
POINTS 1642
DATA ascii
nan nan nan 0
nan nan nan 0
-2.621201 -2.87276 0.08936156 16
-4.99792 -4.572436 0.1151913 24
-3.632361 -2.763801 0.05528193 10
nan nan nan 0
nan nan nan 0
-2.085118 -2.750874 -0.474092 9
-2.161923 -2.801868 -0.3314015 10
nan nan nan 0
-2.565204 -2.791003 -0.2622843 17
-3.064482 -2.773586 -0.3092166 11
-3.690639 -2.77801 -0.3741095 7
-2.378899 -3.148727 -0.1589609 64
-2.561828 -2.814495 -0.1756195 15
-3.048614 -2.78518 -0.2143157 21
-3.670737 -2.791971 -0.2660373 9
-2.334507 -3.066512 -0.06658092 7
-2.611266 -2.84798 -0.08878128 16
-3.218323 -2.923756 -0.1256058 11
-3.706391 -2.802831 -0.1592785 9
-3.659077 -2.788042 -0.8271563 9
-3.679234 -2.762357 -0.5132346 8
nan nan nan 0
nan nan nan 0
-3.934238 -2.926792 0.3956155 9
-46.29601 -60.10789 9.310818 17
nan nan nan 0
-46.31852 -59.74806 20.24612 12
-2.364251 -3.101059 0.02223188 8
-2.629079 -2.853381 0 15
-3.132058 -2.835447 -0.02191251 23
-3.639208 -2.738201 -0.05279588 10
nan nan nan 0
-2.637973 -2.870957 0.08959366 16
nan nan nan 0
-3.622022 -2.73606 0.0549765 10
nan nan nan 0
nan nan nan 0
-2.100705 -2.751461 -0.4754682 9
-2.17169 -2.794305 -0.3314015 10
-2.191517 -2.840101 -0.2275548 7
-2.581703 -2.789356 -0.2629819 17
-3.085274 -2.772864 -0.3103465 11
-3.716296 -2.777023 -0.3757379 8
-2.389876 -3.140404 -0.1589609 58
-2.581755 -2.816586 -0.1763183 15
-3.069416 -2.784582 -0.2151008 20
-3.704382 -2.797161 -0.2677799 6
-2.357342 -3.074231 -0.06692997 6
-2.62797 -2.846196 -0.08901339 16
-3.276771 -2.956004 -0.1275001 24
-3.732151 -2.801858 -0.1599695 8
-3.688421 -2.79007 -0.8316178 9
-3.708791 -2.76432 -0.51603 9
-3.838327 -2.866818 0.1908267 20
nan nan nan 0
-3.964491 -2.92782 0.3976422 9
-46.62112 -60.09492 9.333972 17
nan nan nan 0
-46.57138 -59.64311 20.26553 15
-2.359863 -3.072937 0.02208789 7
-2.645822 -2.85152 0 15
-3.23121 -2.904682 -0.02254082 23
-3.680817 -2.749379 -0.05326362 9
nan nan nan 0
-2.658158 -2.872743 0.08994183 15
nan nan nan 0
-3.61954 -2.714416 0.05479325 9
nan nan nan 0
nan nan nan 0
-2.11331 -2.748042 -0.4761563 9
-2.175306 -2.778859 -0.3304586 9
-2.20753 -2.840322 -0.2281949 8
-2.601622 -2.791278 -0.2640282 17
-3.10982 -2.77535 -0.311853 12
-3.741991 -2.775891 -0.3773662 8
-2.403857 -3.136012 -0.1591642 61
-2.601729 -2.818573 -0.177017 16
-3.093962 -2.787212 -0.2161475 21
-3.738108 -2.802149 -0.2695225 8
-2.389411 -3.093709 -0.06754081 7
-2.648096 -2.847993 -0.08936156 16
-3.220036 -2.88455 -0.1248772 14
-3.75795 -2.800739 -0.1606605 9
-3.713888 -2.788977 -0.835187 9
-3.734408 -2.763159 -0.5182663 9
-3.87241 -2.871229 0.1920306 14
-2.463031 -3.174388 0.2314757 21
-3.994799 -2.928673 0.3996689 9
-46.93755 -60.0687 9.3553 16
nan nan nan 0
-46.84198 -59.55991 20.29271 13
-2.413323 -3.120111 0.02249106 7
-2.665995 -2.853232 0 15
-3.196553 -2.853449 -0.02222667 24
-3.718529 -2.757326 -0.05367288 29
nan nan nan 0
-2.671575 -2.867106 0.09005788 16
nan nan nan 0
-3.645049 -2.713689 0.05503759 35
nan nan nan 0
-0.2627018 -0.3361155 -0.1010979 8
-2.128942 -2.748489 -0.4775325 10
-2.181916 -2.767335 -0.3299872 8
-2.195942 -2.805064 -0.2259546 8
-2.618173 -2.789456 -0.2647258 17
-3.134421 -2.777698 -0.3133595 11
-3.767723 -2.774613 -0.3789945 8
-2.417836 -3.13156 -0.1593675 63
-2.621748 -2.820453 -0.1777158 15
-3.114841 -2.786378 -0.2169325 21
-3.743859 -2.786108 -0.2692321 5
-2.421644 -3.113001 -0.06815165 7
-2.668265 -2.849684 -0.08970972 16
-3.203936 -2.850051 -0.1238572 12
-3.787805 -2.802441 -0.1615242 9
-3.739391 -2.78774 -0.8387561 9
-3.764071 -2.76479 -0.5210617 8
-3.902544 -2.872479 0.1930339 13
-2.464891 -3.15396 0.2306044 24
-4.025162 -2.92935 0.4016956 10
nan nan nan 0
nan nan nan 0
-47.11257 -59.47554 20.31988 13
-2.430334 -3.119565 0.02254866 9
-2.679363 -2.847552 0 16
-3.28884 -2.915204 -0.02280262 23
-3.647533 -2.685146 -0.05250354 40
-2.492072 -3.202427 0.118557 17
-2.695242 -2.87235 0.0905221 16
nan nan nan 0
-3.875828 -2.864126 0.05839726 12
nan nan nan 0
-0.2109482 -0.2660482 -0.07835092 8
-2.147644 -2.752769 -0.4795967 8
-2.166844 -2.728481 -0.326216 12
-2.211887 -2.805228 -0.2265947 8
-2.638168 -2.791179 -0.2657722 17
-3.159076 -2.779907 -0.314866 11
-3.797518 -2.776125 -0.38103 7
-2.428753 -3.123101 -0.1593675 57
-2.641811 -2.822228 -0.1784145 15
-3.135752 -2.785431 -0.2177176 20
-3.761598 -2.778946 -0.2698129 9
-2.441729 -3.116347 -0.06841343 8
-2.691906 -2.854906 -0.09017393 16
-3.176392 -2.805779 -0.1224001 12
-3.817719 -2.803969 -0.162388 8
-3.768888 -2.789282 -0.8432177 8
-3.79379 -2.766247 -0.5238571 9
-3.928695 -2.87061 0.1938366 11
-2.478968 -3.149263 0.2308948 24
-4.059621 -2.932765 0.4041277 8
nan nan nan 0
-69.4738 -50.05783 15.60061 6
-47.38314 -59.39001 20.34706 14
-2.459695 -3.13469 0.02272144 8
-2.709911 -2.859968 0 15
-3.250187 -2.860781 -0.02246229 22
-3.871014 -2.828487 -0.0556023 9
-2.487847 -3.17402 0.1178197 18
-2.70182 -2.85929 0.09040604 16
-3.124408 -2.760685 0.07063701 19
-3.914043 -2.871249 0.05882486 10
nan nan nan 0
-0.2207366 -0.2768041 -0.08214208 9
-2.163347 -2.753053 -0.4809729 9
-2.213596 -2.767603 -0.3318729 9
-2.22786 -2.805314 -0.2272348 10
-2.654769 -2.789182 -0.2664697 17
-3.180028 -2.7787 -0.3159959 11
-3.823332 -2.774541 -0.3826583 7
-2.448865 -3.126416 -0.1599773 50
-2.661919 -2.823898 -0.1791133 17
-3.160439 -2.787674 -0.2187643 18
-3.767247 -2.762851 -0.2695225 6
-2.464958 -3.12352 -0.06876247 9
-2.708736 -2.852745 -0.09040604 17
-3.171132 -2.781498 -0.1218172 16
-3.847689 -2.805322 -0.1632518 8
-3.794474 -2.787742 -0.8467868 8
-3.823564 -2.76753 -0.5266525 8
-3.967024 -2.877381 0.1952412 10
-2.496137 -3.148422 0.2314757 15
-4.073886 -2.921475 0.404533 10
nan nan nan 0
-69.76815 -49.90086 15.62751 21
-47.65066 -59.29955 20.37294 13
nan nan nan 0
-2.726777 -2.857729 0 15
-3.305345 -2.888884 -0.02277644 22
-3.929469 -2.850129 -0.05630391 8
-2.492729 -3.157462 0.1175248 17
-2.72556 -2.864333 0.09087025 17
-3.190414 -2.799196 0.07191976 18
-3.944266 -2.872262 0.05913028 8
nan nan nan 0
nan nan nan 0
-2.179078 -2.753261 -0.4823491 9
-2.235712 -2.775383 -0.3337585 10
-2.246972 -2.809223 -0.2281949 7
-2.674838 -2.790706 -0.267516 17
-3.204778 -2.780645 -0.3175025 11
-3.849182 -2.77281 -0.3842866 7
-2.435053 -3.086437 -0.1583511 55
-2.678633 -2.821837 -0.1795791 18
-3.181423 -2.786489 -0.2195493 19
-3.821294 -2.78195 -0.2727173 10
-2.478952 -3.118814 -0.06884974 7
-2.72213 -2.846887 -0.0905221 16
-3.14689 -2.740884 -0.1205058 13
-3.877714 -2.8065 -0.1641155 8
-3.824072 -2.788953 -0.8512483 9
-3.853394 -2.768639 -0.5294479 9
-4.00139 -2.881004 0.1964451 10
-2.507112 -3.139689 0.2314757 14
-4.128756 -2.938977 0.4089918 8
nan nan nan 0
-70.62379 -50.14106 15.77993 10
-47.91204 -59.20044 20.39623 14
nan nan nan 0
-2.740198 -2.851801 0 15
-3.421179 -2.969046 -0.02350948 29
-3.943454 -2.839312 -0.05636238 7
-2.503735 -3.148741 0.1175248 18
-2.745912 -2.865634 0.09121841 7
-3.219019 -2.804455 0.07234735 18
-3.962378 -2.864326 0.05925245 8
nan nan nan 0
nan nan nan 0
-2.194838 -2.753393 -0.4837252 9
-2.264169 -2.790782 -0.336587 9
-2.263013 -2.809144 -0.228835 8
-2.691488 -2.788533 -0.2682136 17
-3.225801 -2.779199 -0.3186324 11
-3.879123 -2.773827 -0.3863221 8
-2.486144 -3.128823 -0.1609937 49
-2.691916 -2.816082 -0.179812 15
-3.202438 -2.785193 -0.2203344 19
-3.859325 -2.789028 -0.2747503 5
nan nan nan 0
-2.735516 -2.84097 -0.09063815 16
-3.13753 -2.713544 -0.1197772 11
-3.907795 -2.807502 -0.1649793 8
-3.853726 -2.789991 -0.8557098 8
-3.883277 -2.769573 -0.5322433 9
-4.031761 -2.881521 0.1974484 9
-2.518056 -3.130919 0.2314757 14
-4.159355 -2.938903 0.4110185 9
nan nan nan 0
-70.63754 -49.7809 15.74406 16
-48.17332 -59.10022 20.41953 15
nan nan nan 0
nan nan nan 0
-3.488356 -3.006023 -0.02390218 16
-3.973695 -2.840042 -0.05665471 8
-2.449218 -3.05797 0.1144281 19
nan nan nan 0
-3.327125 -2.878202 0.0745708 23
-3.996744 -2.86794 0.05961896 8
nan nan nan 0
-0.2086549 -0.2554767 -0.07582346 9
-2.210625 -2.753448 -0.4851014 9
-2.280185 -2.79058 -0.3375298 9
-2.279082 -2.808986 -0.2294751 8
-2.71163 -2.789855 -0.26926 17
-3.250643 -2.78088 -0.3201389 11
-3.909117 -2.774668 -0.3883575 8
-2.493935 -3.11622 -0.1607904 36
-2.715578 -2.821069 -0.1807437 15
-3.227262 -2.787045 -0.2213811 18
-3.905569 -2.801685 -0.2773642 9
nan nan nan 0
-2.741939 -2.827813 -0.0905221 12
-3.139397 -2.696067 -0.1194858 13
-3.93793 -2.808328 -0.1658431 8
-3.883432 -2.790854 -0.8601712 8
-3.913215 -2.770332 -0.5350387 9
-4.066262 -2.884748 0.1986524 10
-2.525833 -3.118227 0.2311853 13
nan nan nan 0
nan nan nan 0
-71.02855 -49.68627 15.79248 18
-48.44061 -59.00636 20.44541 13
nan nan nan 0
nan nan nan 0
-3.472226 -2.971083 -0.02371892 12
-4.00807 -2.843484 -0.05700552 7
-2.469274 -3.061085 0.1148705 19
nan nan nan 0
-3.413022 -2.931692 0.07628113 26
-4.027107 -2.868452 0.05992439 7
nan nan nan 0
nan nan nan 0
-2.226438 -2.753426 -0.4864776 8
-2.296227 -2.7903 -0.3384726 9
-2.292024 -2.804882 -0.2297952 10
-2.728326 -2.787505 -0.2699575 18
-3.271734 -2.779194 -0.3212688 10
-3.939165 -2.775333 -0.3903929 8
nan nan nan 0
-2.732358 -2.818748 -0.1812095 15
-3.248346 -2.785509 -0.2221661 18
-3.951948 -2.814051 -0.2799781 6
nan nan nan 0
nan nan nan 0
-3.175419 -2.70778 -0.1205058 13
-3.968117 -2.808978 -0.1667068 7
-3.9172 -2.794398 -0.865525 9
-3.943204 -2.770916 -0.537834 8
-4.096746 -2.884896 0.1996557 10
-2.533552 -3.105519 0.2308948 13
nan nan nan 0
-49.0117 -59.65945 9.475341 12
-71.37934 -49.56146 15.83193 14
-48.70784 -58.91137 20.47129 12
nan nan nan 0
nan nan nan 0
-3.471141 -2.949237 -0.02364038 13
-4.038426 -2.843847 -0.05729786 8
-2.479944 -3.052448 0.1148705 19
nan nan nan 0
-3.541185 -3.020286 0.07893215 26
-4.057522 -2.868787 0.06022981 8
nan nan nan 0
nan nan nan 0
-2.242279 -2.753328 -0.4878537 9
-2.312295 -2.789942 -0.3394154 10
-2.308132 -2.804579 -0.2304353 10
-2.745039 -2.785072 -0.2706551 17
-3.296666 -2.780608 -0.3227754 10
-3.969264 -2.775821 -0.3924283 8
nan nan nan 0
-2.763103 -2.830648 -0.182607 15
-3.273261 -2.787095 -0.2232128 19
-3.965826 -2.803116 -0.2802685 7
nan nan nan 0
nan nan nan 0
-3.184852 -2.69668 -0.1205058 13
-3.990174 -2.803715 -0.1672251 7
-3.951039 -2.79774 -0.8708788 9
-3.969166 -2.768486 -0.5400704 9
-4.13138 -2.887725 0.2008596 9
-2.53805 -3.088935 0.230314 13
nan nan nan 0
-48.92229 -59.12856 9.418062 17
-71.75848 -49.45434 15.87766 10
-48.98116 -58.82264 20.49976 14
nan nan nan 0
nan nan nan 0
-3.481414 -2.937102 -0.02364038 11
-4.072934 -2.846891 -0.05764866 7
-2.481106 -3.032155 0.1144281 19
nan nan nan 0
-3.734883 -3.162922 0.08303697 10
-4.087989 -2.868945 0.06053524 7
nan nan nan 0
nan nan nan 0
-2.258145 -2.753152 -0.4892299 9
-2.331573 -2.793331 -0.3408297 10
-2.321086 -2.800351 -0.2307553 10
-2.765281 -2.786098 -0.2717015 17
-3.321648 -2.781881 -0.3242819 10
-4.003512 -2.778971 -0.3948708 8
nan nan nan 0
nan nan nan 0
-3.294413 -2.785319 -0.2239979 19
-3.987855 -2.797843 -0.2811399 7
nan nan nan 0
nan nan nan 0
-3.198072 -2.68876 -0.1206515 13
-4.016344 -2.801185 -0.1679161 8
-3.980921 -2.798054 -0.8753402 8
-3.999248 -2.768732 -0.5428658 9
-4.161974 -2.887503 0.2018629 9
-2.555171 -3.087756 0.2308948 15
-3.957318 -2.714512 0.3871033 32
-49.25228 -59.10613 9.441827 12
-72.10526 -49.32296 15.91621 13
-49.25446 -58.73272 20.52823 13
nan nan nan 0
nan nan nan 0
-3.460973 -2.899258 -0.02343094 9
-4.107513 -2.84973 -0.05799946 8
-2.485329 -3.015753 0.1141332 18
nan nan nan 0
-3.745901 -3.149866 0.08303697 9
-4.122611 -2.871778 0.06090175 7
nan nan nan 0
nan nan nan 0
-2.274038 -2.752899 -0.4906061 9
-2.341309 -2.785176 -0.3408297 10
-2.337231 -2.799903 -0.2313954 9
-2.782038 -2.783487 -0.272399 17
-3.342842 -2.779828 -0.3254118 10
-4.033722 -2.779093 -0.3969062 8
nan nan nan 0
nan nan nan 0
-3.315593 -2.783429 -0.2247829 18
-4.013994 -2.795298 -0.2823016 10
nan nan nan 0
nan nan nan 0
-3.195924 -2.667977 -0.1202143 12
-4.038433 -2.795668 -0.1684344 8
-4.014891 -2.801005 -0.880694 9
-4.029379 -2.768801 -0.5456612 8
-4.192617 -2.887102 0.2028662 10
-2.572315 -3.086496 0.2314757 15
-4.036856 -2.748276 0.3939941 35
-49.88575 -59.44327 9.523479 8
-72.45605 -49.19252 15.95566 10
-49.52461 -58.63792 20.55541 13
nan nan nan 0
nan nan nan 0
-3.413393 -2.839222 -0.02303824 8
-4.14216 -2.852361 -0.05835026 7
-2.486282 -2.995508 0.1136908 19
nan nan nan 0
-3.760711 -3.139973 0.08312248 9
-4.157303 -2.874403 0.06126826 7
nan nan nan 0
nan nan nan 0
-2.289956 -2.752568 -0.4919823 9
-2.351017 -2.776986 -0.3408297 11
-2.350195 -2.795551 -0.2317154 9
-2.802347 -2.78431 -0.2734454 17
-3.367909 -2.780833 -0.3269183 10
-4.059866 -2.776228 -0.3985345 7
nan nan nan 0
nan nan nan 0
-3.336798 -2.781425 -0.225568 18
-4.044273 -2.795438 -0.2837538 6
nan nan nan 0
nan nan nan 0
-3.24371 -2.688683 -0.1216715 12
-4.068775 -2.79568 -0.1692981 8
-4.04893 -2.803752 -0.8860477 9
-4.05956 -2.768694 -0.5484565 8
-4.227436 -2.889337 0.2040702 9
-2.583073 -3.077498 0.2314757 16
-4.141473 -2.798231 0.403317 17
-49.83029 -58.95796 9.473514 16
-72.8109 -49.06299 15.996 12
-49.79783 -58.54563 20.58388 13
nan nan nan 0
nan nan nan 0
-3.496555 -2.887755 -0.02353566 26
-4.172745 -2.851969 -0.0586426 7
-2.499923 -2.99065 0.1138383 18
nan nan nan 0
-3.7601 -3.117259 0.08286593 13
-4.187937 -2.873997 0.06157368 7
nan nan nan 0
-0.2201046 -0.2585241 -0.07835092 8
-2.3059 -2.75216 -0.4933585 9
-2.36392 -2.772555 -0.3413011 7
-2.366377 -2.794956 -0.2323555 10
-2.822696 -2.785025 -0.2744917 17
-3.393025 -2.781697 -0.3284249 10
-4.090165 -2.77601 -0.40057 7
-2.517085 -3.013404 -0.1581478 8
nan nan nan 0
-3.361878 -2.782489 -0.2266147 18
-4.074602 -2.7954 -0.2852059 9
nan nan nan 0
nan nan nan 0
-3.268517 -2.690041 -0.1222543 12
-4.107429 -2.801137 -0.1705074 8
-4.078979 -2.803513 -0.8905092 10
-4.098024 -2.773971 -0.5523701 9
-4.258183 -2.888564 0.2050734 10
-2.600234 -3.076096 0.2320566 16
-4.308619 -2.889051 0.4187201 16
-50.14192 -58.90837 9.493622 16
-73.15347 -48.92338 16.03366 9
-50.07101 -58.45214 20.61235 14
nan nan nan 0
nan nan nan 0
-3.657446 -2.999119 -0.02455667 30
-4.207518 -2.8542 -0.0589934 7
-2.481428 -2.947454 0.1125112 19
nan nan nan 0
-3.782541 -3.113642 0.08312248 9
-4.222754 -2.876223 0.06194019 7
nan nan nan 0
nan nan nan 0
-2.325057 -2.755464 -0.4954227 9
nan nan nan 0
-2.382582 -2.794282 -0.2329956 10
-2.839523 -2.78214 -0.2751893 17
-3.418187 -2.782419 -0.3299314 10
-4.116375 -2.772833 -0.4021983 8
-2.514746 -2.989289 -0.1573347 8
-2.858219 -2.827681 -0.1856349 24
-3.387006 -2.783412 -0.2276614 18
-4.10498 -2.795185 -0.2866581 6
-2.436941 -2.875219 -0.06509747 14
nan nan nan 0
-3.304987 -2.700741 -0.1232743 12
-4.137888 -2.800765 -0.1713712 8
-4.117211 -2.808635 -0.8967553 11
-4.136573 -2.779012 -0.5562837 9
-4.293122 -2.890398 0.2062774 10
-2.536655 -2.979481 0.2253766 23
-4.401716 -2.929121 0.426827 16
-50.45382 -58.85733 9.513729 16
-73.53691 -48.80916 16.08028 10
-50.34729 -58.36112 20.64211 12
nan nan nan 0
nan nan nan 0
-3.760977 -3.062063 -0.02518499 6
-4.238206 -2.853434 -0.05928573 6
-2.52074 -2.973125 0.1138383 18
nan nan nan 0
-3.774027 -3.084608 0.0826949 11
-4.253492 -2.875444 0.06224562 7
nan nan nan 0
nan nan nan 0
-2.341064 -2.754889 -0.4967989 8
nan nan nan 0
-2.395567 -2.789738 -0.2333157 11
-2.859938 -2.782651 -0.2762356 17
-3.443394 -2.783 -0.331438 10
-4.146759 -2.772272 -0.4042337 7
nan nan nan 0
nan nan nan 0
-3.412181 -2.784192 -0.2287081 19
-4.135406 -2.794791 -0.2881103 8
-2.440482 -2.85908 -0.06492295 16
nan nan nan 0
-3.326042 -2.69863 -0.1237115 13
-4.176696 -2.805778 -0.1725805 7
-4.159603 -2.816278 -0.9038936 8
-4.171071 -2.781067 -0.5596382 9
-4.32397 -2.889251 0.2072807 10
-2.530821 -2.951638 0.2239244 14
-4.453528 -2.941158 0.4308804 14
nan nan nan 0
-73.88348 -48.66851 16.11884 11
-50.62038 -58.26524 20.67058 14
nan nan nan 0
nan nan nan 0
-3.752195 -3.033207 -0.02505409 5
-4.264781 -2.849716 -0.0595196 8
-2.430668 -2.846338 0.1092671 23
nan nan nan 0
-3.765356 -3.055671 0.08226731 6
-4.284277 -2.874485 0.06255104 8
nan nan nan 0
nan nan nan 0
-2.357095 -2.754235 -0.4981751 9
-2.425461 -2.785233 -0.3460152 11
-2.408549 -2.785138 -0.2336357 9
-2.88039 -2.783053 -0.277282 16
-3.468648 -2.783438 -0.3329445 10
-4.181345 -2.774284 -0.4066762 7
nan nan nan 0
-2.888611 -2.818127 -0.1863337 27
-3.437403 -2.784831 -0.2297548 18
-4.165877 -2.794219 -0.2895624 7
-2.430927 -2.827769 -0.06439938 17
nan nan nan 0
-3.351015 -2.699538 -0.1242943 14
-4.207268 -2.805018 -0.1734442 8
-4.198012 -2.820918 -0.9101397 8
-4.20978 -2.785651 -0.5635517 9
-4.354862 -2.887923 0.208284 10
-2.482483 -2.8747 0.2186966 21
-4.501306 -2.95014 0.4345284 13
nan nan nan 0
-74.26703 -48.55027 16.16546 9
-50.8966 -58.17179 20.70035 13
-2.420256 -2.811213 0.02113757 30
nan nan nan 0
-3.76666 -3.023219 -0.02508027 6
-4.291381 -2.845847 -0.05975347 7
-2.362514 -2.746777 0.1057281 25
-4.732875 -4.575795 0.1519146 29
-3.748742 -3.020562 0.0816687 5
-4.315107 -2.873347 0.06285647 7
nan nan nan 0
-0.2424394 -0.2775859 -0.08593326 8
-2.373149 -2.753503 -0.4995512 8
-2.45483 -2.799232 -0.3488436 12
-2.421528 -2.780482 -0.2339558 11
-2.90088 -2.783346 -0.2783283 17
-3.493946 -2.783733 -0.334451 11
-4.215994 -2.776087 -0.4091187 8
nan nan nan 0
-2.891259 -2.801073 -0.1858679 13
-3.462671 -2.785327 -0.2308016 18
-4.196396 -2.793469 -0.2910146 7
-2.372184 -2.739794 -0.06256688 21
nan nan nan 0
-3.368227 -2.694065 -0.1245858 14
-4.237885 -2.80408 -0.174308 7
-4.256984 -2.838952 -0.9208472 10
-4.244415 -2.787276 -0.5669062 8
-4.389973 -2.889157 0.2094879 9
-2.463071 -2.832077 0.2160827 29
-4.545021 -2.956112 0.4377712 11
nan nan nan 0
-74.62588 -48.41386 16.2067 12
-51.17597 -58.08075 20.73141 12
nan nan nan 0
nan nan nan 0
-3.777191 -3.010052 -0.02508027 7
-4.322185 -2.844571 -0.06004581 8
-2.41455 -2.787689 0.107645 20
-4.745214 -4.555783 0.1517986 9
-3.747549 -2.998093 0.08141214 6
-4.34598 -2.872027 0.06316189 8
nan nan nan 0
-0.2277203 -0.2583258 -0.07961464 8
-2.392468 -2.756438 -0.5016155 9
-2.464586 -2.790645 -0.3488436 12
-2.434503 -2.775768 -0.2342758 9
-2.921407 -2.78353 -0.2793747 16
-3.519289 -2.783886 -0.3359576 11
-4.250707 -2.777683 -0.4115612 8
nan nan nan 0
-2.936995 -2.825608 -0.188197 12
-3.487983 -2.785681 -0.2318483 18
-4.231127 -2.795286 -0.2927572 6
-2.414531 -2.769227 -0.0634395 20
nan nan nan 0
-3.397186 -2.697824 -0.1253143 13
-4.272727 -2.8057 -0.1753445 8
-4.266868 -2.824075 -0.9208472 9
-4.274947 -2.785985 -0.5697016 9
-4.425146 -2.890181 0.2106919 9
-2.509058 -2.864818 0.2192775 33
-4.584641 -2.959116 0.4406086 11
nan nan nan 0
-75.03844 -48.31016 16.2596 8
-51.45211 -57.98484 20.76117 12
-2.380731 -2.726366 0.02061921 21
nan nan nan 0
-3.775908 -2.987546 -0.02500173 7
-4.353031 -2.843114 -0.06033815 7
-2.371794 -2.718903 0.1052857 34
-4.782789 -4.559893 0.1524949 8
-3.785401 -3.00675 0.08201077 7
-4.385262 -2.876002 0.06358949 8
nan nan nan 0
-0.2380711 -0.2685437 -0.08340581 8
-2.408583 -2.755537 -0.5029917 8
-2.484221 -2.793198 -0.3502579 12
-2.450773 -2.774742 -0.2349159 8
-2.941971 -2.783604 -0.280421 17
-3.548597 -2.786973 -0.3378407 10
-4.285481 -2.779069 -0.4140037 7
-2.245394 -2.575387 -0.1374138 17
-2.95406 -2.822243 -0.1886629 13
-3.509427 -2.782791 -0.2326333 18
-4.261745 -2.794162 -0.2942094 7
-2.39784 -2.73069 -0.0627414 22
nan nan nan 0
-3.426213 -2.701413 -0.1260429 13
-4.303442 -2.804387 -0.1762083 8
-4.280815 -2.811861 -0.9217395 9
-4.305521 -2.784514 -0.572497 9
-4.456183 -2.888282 0.2116952 10
-2.52234 -2.859791 0.2195679 36
-4.628537 -2.964563 0.4438514 12
-52.06971 -58.63954 9.624022 7
-75.39317 -48.1671 16.29995 8
-51.72822 -57.88773 20.79093 13
nan nan nan 0
nan nan nan 0
-3.774514 -2.965086 -0.02492319 7
-4.392317 -2.846906 -0.06074741 8
-2.463586 -2.804603 0.1089722 16
-4.82045 -4.563797 0.1531912 7
-3.768388 -2.971858 0.08141214 8
-4.420433 -2.877016 0.063956 7
nan nan nan 0
nan nan nan 0
-2.421453 -2.750835 -0.5036798 9
-2.497272 -2.788221 -0.3507293 12
-2.473688 -2.781102 -0.2361961 10
-2.96257 -2.783568 -0.2814673 16
-3.574036 -2.786826 -0.3393473 10
-4.320317 -2.780246 -0.4164462 7
-2.359653 -2.687839 -0.1439186 15
-2.97838 -2.825671 -0.1895945 12
-3.534817 -2.782872 -0.23368 17
-4.296593 -2.795576 -0.295952 7
-2.380908 -2.692303 -0.0620433 39
nan nan nan 0
-3.451368 -2.701753 -0.1266258 14
-4.338398 -2.805603 -0.1772448 7
-4.302976 -2.804948 -0.9244164 9
-4.336137 -2.782864 -0.5752924 9
-4.495671 -2.891597 0.2130998 10
-2.552163 -2.873389 0.2213105 16
-4.668318 -2.96707 0.4466888 10
-52.35017 -58.54252 9.638037 10
-77.57166 -49.17826 16.7339 15
-51.99458 -57.77861 20.81682 12
-2.515526 -2.840866 0.02162713 13
nan nan nan 0
-3.784841 -2.951893 -0.02492319 7
-4.431683 -2.850459 -0.06115669 7
-2.516336 -2.844716 0.1108891 16
nan nan nan 0
-3.786613 -2.964847 0.08158318 8
-4.455664 -2.877818 0.06432251 7
nan nan nan 0
-0.2240615 -0.2486283 -0.07708719 9
-2.43432 -2.746077 -0.5043678 9
-2.513647 -2.78689 -0.3516721 13
-2.493352 -2.783615 -0.2371563 10
-2.979559 -2.780019 -0.2821649 17
-3.599517 -2.786534 -0.3408538 10
-4.355214 -2.781214 -0.4188887 8
nan nan nan 0
-2.995493 -2.822111 -0.1900604 12
-3.56025 -2.782811 -0.2347268 18
-4.327306 -2.794077 -0.2974041 7
-2.479908 -2.784913 -0.06439938 18
nan nan nan 0
-3.480515 -2.705015 -0.1273543 14
-4.377624 -2.809304 -0.1784541 8
-4.374744 -2.82993 -0.9378008 16
-4.366793 -2.781034 -0.5780878 9
-4.531021 -2.891988 0.2143038 9
-2.575468 -2.879364 0.2224723 15
-4.716608 -2.974643 0.4503369 9
-52.48779 -58.28566 9.62585 12
-77.93023 -49.02504 16.77424 14
-52.25107 -57.65761 20.83882 13
-2.522105 -2.828331 0.02159833 12
nan nan nan 0
-3.755578 -2.908067 -0.02466139 7
-4.466908 -2.851086 -0.06150749 7
-2.542845 -2.854598 0.1116264 14
nan nan nan 0
-3.792991 -2.948544 0.08149766 9
-4.490954 -2.878409 0.06468902 7
nan nan nan 0
nan nan nan 0
-2.443891 -2.737562 -0.5043678 10
-2.530043 -2.785477 -0.3526149 11
-2.513064 -2.786024 -0.2381164 10
-3.000217 -2.779775 -0.2832113 17
-3.628994 -2.789135 -0.342737 11
-4.390169 -2.781972 -0.4213312 7
nan nan nan 0
-3.012617 -2.818465 -0.1905262 12
-3.58178 -2.779545 -0.2355118 18
-4.362267 -2.795086 -0.2991468 10
-2.539596 -2.832142 -0.0657083 14
nan nan nan 0
-3.505769 -2.705056 -0.1279372 15
-4.416927 -2.812764 -0.1796633 7
-4.45088 -2.857098 -0.9520775 17
-4.39749 -2.779023 -0.5808831 8
-4.570652 -2.894837 0.2157084 10
-2.60218 -2.888924 0.2239244 15
-4.760781 -2.979277 0.4535796 8
-52.49424 -57.88518 9.589898 17
-78.34708 -48.90638 16.82714 11
-52.54642 -57.57833 20.87634 12
-2.558644 -2.84931 0.02182871 11
nan nan nan 0
-3.745881 -2.87971 -0.02453049 4
-4.506419 -2.854172 -0.06191676 8
-2.566121 -2.860605 0.1122162 12
nan nan nan 0
nan nan nan 0
-4.526303 -2.878789 0.06505553 7
nan nan nan 0
nan nan nan 0
-2.460043 -2.736391 -0.505744 9
-2.54646 -2.783983 -0.3535578 10
-2.529473 -2.784631 -0.2387565 10
-3.01724 -2.776043 -0.2839088 17
-3.654568 -2.788542 -0.3442435 11
-4.425182 -2.782519 -0.4237737 8
-2.504194 -2.793352 -0.1510332 64
-3.029752 -2.814734 -0.190992 13
-3.607287 -2.779209 -0.2365585 18
-4.393072 -2.793211 -0.3005989 7
-2.562847 -2.83812 -0.06605735 12
-3.145279 -2.900901 -0.09841376 14
-3.531065 -2.704953 -0.1285201 16
-4.452081 -2.813319 -0.1806999 8
-4.464977 -2.844183 -0.9529697 20
-4.428225 -2.776832 -0.5836785 9
-4.606124 -2.894789 0.2169123 9
-2.625643 -2.89463 0.2250862 14
-4.805042 -2.983637 0.4568224 8
-52.86664 -57.88849 9.620975 11
-78.72642 -48.76209 16.87197 12
-52.80918 -57.46212 20.90093 12
-2.578619 -2.851501 0.02191511 9
-3.182662 -2.921034 0 12
nan nan nan 0
-4.541769 -2.854361 -0.06226756 7
-2.60954 -2.888766 0.1136908 10
nan nan nan 0
nan nan nan 0
-4.561708 -2.878957 0.06542204 8
nan nan nan 0
-0.2362941 -0.2571161 -0.08087836 9
-2.479535 -2.738816 -0.5078083 8
-2.559529 -2.778744 -0.3540291 8
-2.545903 -2.783158 -0.2393966 10
-3.037955 -2.775592 -0.2849552 17
-3.684157 -2.790812 -0.3461267 10
-4.464484 -2.78549 -0.4266233 7
-2.527298 -2.799447 -0.1518463 76
-3.046898 -2.810918 -0.1914579 12
-3.632834 -2.778728 -0.2376052 18
-4.423917 -2.791155 -0.3020511 7
-2.599603 -2.858785 -0.06675545 10
nan nan nan 0
-3.564363 -2.710753 -0.1293944 18
-4.483056 -2.811012 -0.1815636 8
-4.491523 -2.839078 -0.9565389 19
-4.454776 -2.77184 -0.5859149 9
-4.650137 -2.899808 0.2185176 9
-2.652537 -2.903898 0.2265383 14
-4.862129 -2.995554 0.4612812 7
-53.2901 -57.94471 9.661192 8
-79.11826 -48.62348 16.91949 10
-53.10128 -57.37669 20.93717 12
-2.591918 -2.846184 0.0219439 10
-3.170675 -2.889689 0 13
nan nan nan 0
-4.58142 -2.856979 -0.06267683 7
-2.61625 -2.875937 0.1135434 10
nan nan nan 0
nan nan nan 0
-4.592929 -2.876263 0.06572746 7
nan nan nan 0
-0.2307374 -0.2490803 -0.07835092 8
-2.499073 -2.741138 -0.5098726 8
-2.575974 -2.7771 -0.354972 9
-2.558978 -2.777929 -0.2397167 11
-3.058703 -2.775029 -0.2860015 17
-3.709821 -2.789915 -0.3476332 11
-4.5081 -2.790838 -0.4298799 8
-2.560541 -2.816519 -0.1532692 65
-3.064054 -2.807017 -0.1919237 12
-3.658423 -2.778103 -0.2386519 18
-4.4421 -2.780985 -0.302632 7
-2.609567 -2.849693 -0.06675545 10
nan nan nan 0
-3.597742 -2.716354 -0.1302686 25
-4.514068 -2.808523 -0.1824274 8
-4.522258 -2.836432 -0.9610004 13
-4.489809 -2.771907 -0.5892693 8
-4.685737 -2.899305 0.2197216 9
-2.669406 -2.901978 0.2271192 14
-4.906592 -2.999324 0.4645239 8
-53.44483 -57.70735 9.652661 15
-79.51011 -48.48272 16.96701 11
-53.38685 -57.28284 20.97081 13
-2.608585 -2.844499 0.0220015 9
nan nan nan 0
-3.763841 -2.831314 -0.02445195 11
-4.61689 -2.856728 -0.06302764 7
-2.629643 -2.870478 0.1136908 10
-3.36833 -3.056976 0.1046807 17
nan nan nan 0
-4.624187 -2.873386 0.06603289 8
nan nan nan 0
nan nan nan 0
-2.518658 -2.743357 -0.5119368 8
-2.592438 -2.775376 -0.3559148 10
-2.572048 -2.772642 -0.2400367 10
-3.079484 -2.774356 -0.2870479 16
-3.739519 -2.791853 -0.3495164 10
-4.547557 -2.793311 -0.4327295 7
-2.587197 -2.826013 -0.1542856 68
-3.08122 -2.80303 -0.1923895 13
-3.688039 -2.780337 -0.2399604 17
-4.502693 -2.797017 -0.3061172 9
-2.62965 -2.851606 -0.06701723 11
-3.194026 -2.884564 -0.09899403 13
-3.707212 -2.778677 -0.1339115 31
-4.536609 -2.800611 -0.1829456 8
-4.557208 -2.836202 -0.9663542 9
-4.529134 -2.774354 -0.5931829 7
-4.72565 -2.901198 0.2211262 9
-2.710002 -2.925642 0.2297331 12
-4.959669 -3.00798 0.4685773 7
-53.77794 -57.66199 9.676426 16
-79.91035 -48.34491 17.01632 11
-53.67241 -57.18771 21.00446 13
-2.625272 -2.842733 0.02205909 9
-3.257686 -2.92767 0 14
-3.789729 -2.830119 -0.02455667 10
-4.656677 -2.858875 -0.0634369 8
-2.646414 -2.868638 0.1139858 9
-3.367845 -3.035156 0.1043325 17
-3.767854 -2.824946 0.07987285 16
-4.65548 -2.870326 0.06633832 7
nan nan nan 0
-0.2357221 -0.2510455 -0.07961464 9
-2.538289 -2.745473 -0.5140011 10
-2.608921 -2.773571 -0.3568576 9
-2.588513 -2.770949 -0.2406768 11
-3.100298 -2.773571 -0.2880942 17
-3.765269 -2.790651 -0.3510229 10
-4.587086 -2.795543 -0.4355791 8
-2.600427 -2.820643 -0.1544889 71
-3.102099 -2.802306 -0.1930883 13
-3.713717 -2.779408 -0.2410071 18
-4.550696 -2.804816 -0.3087311 6
-2.646381 -2.849746 -0.06719176 10
-3.285915 -2.946854 -0.1015472 14
-3.82117 -2.843251 -0.1377001 9
-4.576204 -2.802998 -0.1841549 7
-4.5964 -2.838342 -0.9726002 12
-4.568531 -2.776561 -0.5970964 9
-4.765634 -2.902848 0.2225308 10
-2.740597 -2.938093 0.2314757 12
nan nan nan 0
-54.07741 -57.57883 9.694097 14
-80.31059 -48.2049 17.06563 10
-53.95464 -57.08776 21.03681 13
-2.645378 -2.84455 0.02214549 10
-3.297719 -2.942927 0 14
-3.823691 -2.83473 -0.02471375 26
-4.692263 -2.858183 -0.06378771 7
-2.653015 -2.855716 0.1138383 9
-3.363526 -3.010041 0.1038683 18
-3.765658 -2.802826 0.07961629 32
-4.686808 -2.867082 0.06664374 8
nan nan nan 0
nan nan nan 0
-2.557965 -2.747485 -0.5160654 9
-2.625423 -2.771684 -0.3578004 11
-2.604997 -2.769175 -0.2413169 11
-3.121143 -2.772675 -0.2891406 17
-3.795073 -2.792256 -0.3529061 10
-4.626687 -2.797533 -0.4384287 7
-2.620438 -2.822547 -0.1550987 83
-3.123011 -2.801471 -0.193787 13
-3.743442 -2.781309 -0.2423155 18
-4.603069 -2.814913 -0.3116354 8
-2.663131 -2.847803 -0.06736629 10
-3.288718 -2.928714 -0.1013151 13
-3.847156 -2.841767 -0.1382829 11
-4.624416 -2.810325 -0.1857097 7
-4.635661 -2.840244 -0.9788463 15
-4.607999 -2.778526 -0.60101 8
-4.805686 -2.904255 0.2239354 9
-2.737186 -2.913937 0.230314 11
-81.2864 -48.4246 7.692613 7
-54.38718 -57.50511 9.713596 11
-80.71506 -48.06519 17.11584 11
-54.24014 -56.99005 21.07046 12
-2.665529 -2.846262 0.02223188 10
-3.259342 -2.888268 0 13
-3.857731 -2.839138 -0.02487083 19
-4.732182 -2.859859 -0.06419698 7
-2.69365 -2.879329 0.1151654 8
-3.411363 -3.031502 0.1050288 17
-3.871942 -2.860932 0.0816687 18
-4.739553 -2.876604 0.0672546 7
nan nan nan 0
-0.2833381 -0.2992236 -0.09730678 8
-2.577686 -2.749393 -0.5181296 10
-2.641944 -2.769716 -0.3587433 10
-2.6215 -2.76732 -0.241957 12
-3.145759 -2.774967 -0.2905357 17
-3.824934 -2.793687 -0.3547893 11
-4.666357 -2.79928 -0.4412783 7
-2.637088 -2.820691 -0.1555052 81
-3.143955 -2.800524 -0.1944858 13
-3.769205 -2.780074 -0.2433622 18
-4.647027 -2.819508 -0.3139589 7
-2.690167 -2.856711 -0.06780259 11
-3.280205 -2.900652 -0.1007348 13
-3.881242 -2.846044 -0.1391572 15
-4.668454 -2.814773 -0.1870917 7
-4.674993 -2.841906 -0.9850924 11
-4.647535 -2.780248 -0.6049235 9
-4.845806 -2.905416 0.22534 10
nan nan nan 0
-81.75526 -48.31804 7.720987 6
-54.69367 -57.42632 9.732486 14
-81.11105 -47.91824 17.16426 11
-54.52228 -56.88754 21.10281 13
-2.682298 -2.844224 0.02228948 10
-3.321935 -2.923137 0 13
-3.895887 -2.846291 -0.02505409 14
-4.767879 -2.858724 -0.06454778 7
-2.69684 -2.862623 0.1148705 9
-3.410684 -3.009649 0.1046807 15
-3.922226 -2.876953 0.08252387 15
-4.79242 -2.885792 0.06786544 7
nan nan nan 0
-0.2449156 -0.2556589 -0.08214208 9
-2.594056 -2.74759 -0.5195057 8
-2.661926 -2.77126 -0.3601575 10
-2.641462 -2.768998 -0.2429172 10
-3.166678 -2.773833 -0.291582 17
-3.850813 -2.792018 -0.3562958 10
-4.706094 -2.800784 -0.4441279 8
-2.657176 -2.822396 -0.1561151 73
-3.16493 -2.799465 -0.1951846 14
-3.799035 -2.781641 -0.2446706 18
-4.686794 -2.82126 -0.3159919 7
-2.696687 -2.843671 -0.06771533 10
-3.402952 -2.988178 -0.1042165 16
-3.903278 -2.841298 -0.1395943 13
-4.712578 -2.818947 -0.1884737 7
-4.710176 -2.84079 -0.9904461 13
-4.687139 -2.781729 -0.6088371 9
-4.885992 -2.906333 0.2267446 9
nan nan nan 0
-81.94492 -48.04497 7.723014 17
-54.98654 -57.33176 9.748938 15
-81.50275 -47.76663 17.21178 12
-54.80436 -56.78376 21.13516 11
-2.716276 -2.860257 0.02249106 8
-3.347174 -2.924689 0 14
-3.934139 -2.853212 -0.02523734 13
-4.803625 -2.857374 -0.06489859 7
-2.727424 -2.874976 0.1157553 8
-3.394862 -2.974654 0.1038683 16
-3.952457 -2.877951 0.08295146 14
-4.862587 -2.904886 0.06872063 7
nan nan nan 0
nan nan nan 0
-2.613853 -2.749301 -0.52157 9
-2.681951 -2.772699 -0.3615717 11
-2.658015 -2.766967 -0.2435572 11
-3.187627 -2.772588 -0.2926284 16
-3.880775 -2.793114 -0.358179 10
-4.750193 -2.804574 -0.4473845 7
-2.677308 -2.823995 -0.1567249 74
-3.189687 -2.801592 -0.1961162 14
-3.824882 -2.7801 -0.2457173 17
-4.72663 -2.822769 -0.3180249 7
-2.737625 -2.866824 -0.06850069 10
-3.451025 -3.009147 -0.105377 22
-3.92938 -2.839358 -0.1401772 9
-4.752487 -2.820301 -0.189683 7
-4.749632 -2.841985 -0.9966922 19
-4.722527 -2.78045 -0.6121916 7
-4.926243 -2.907004 0.2281492 10
nan nan nan 0
-82.44816 -47.95404 7.754631 9
-55.27251 -57.22872 9.764171 15
-81.9369 -47.63758 17.26826 10
-55.08638 -56.6787 21.16751 12
-2.719342 -2.843521 0.02243347 9
-3.387565 -2.939214 0 15
-3.968428 -2.856982 -0.02539442 13
-4.843727 -2.858346 -0.06530786 7
nan nan nan 0
-3.446691 -2.998895 0.1051449 17
-3.974637 -2.872918 0.083208 12
-4.885607 -2.89553 0.06890389 7
nan nan nan 0
nan nan nan 0
-2.630273 -2.747324 -0.5229462 9
-2.702019 -2.774032 -0.362986 10
-2.67805 -2.768445 -0.2445174 11
-3.208607 -2.771229 -0.2936747 17
-3.910791 -2.794034 -0.3600621 10
-4.790072 -2.805575 -0.4502341 8
-2.704371 -2.832725 -0.1577413 79
-3.210735 -2.800294 -0.196815 14
-3.854815 -2.781332 -0.2470257 17
-4.762236 -2.821494 -0.3197676 7
-2.737235 -2.846425 -0.06823891 10
-3.438842 -2.977442 -0.1046807 18
-3.955517 -2.837271 -0.1407601 9
-4.796772 -2.823942 -0.191065 7
-4.776455 -2.835418 -1.000261 11
-4.775133 -2.788964 -0.6177824 6
-4.966558 -2.90743 0.2295538 9
nan nan nan 0
nan nan nan 0
-55.54806 -57.1137 9.777576 14
-82.33706 -47.48643 17.31757 11
-55.37173 -56.57581 21.20116 13
nan nan nan 0
-3.431884 -2.956758 0 17
-4.00279 -2.860545 -0.02555151 13
-4.888213 -2.861595 -0.0657756 7
nan nan nan 0
-3.449576 -2.980307 0.1049128 18
-4.009018 -2.876505 0.08372111 13
-4.917246 -2.891108 0.06920931 7
nan nan nan 0
nan nan nan 0
-2.650143 -2.748837 -0.5250105 8
-2.722128 -2.775258 -0.3644002 9
-2.694651 -2.766238 -0.2451575 11
-3.2334 -2.773007 -0.2950699 16
-3.944929 -2.79766 -0.3623219 10
-4.830016 -2.806332 -0.4530837 7
-2.710786 -2.819661 -0.157538 83
-3.231812 -2.798884 -0.1975137 14
-3.884802 -2.782389 -0.2483341 18
-4.793584 -2.817479 -0.3212197 8
nan nan nan 0
-3.479526 -2.991502 -0.1056091 18
-3.973541 -2.829241 -0.1410515 7
-4.836823 -2.824792 -0.1922743 7
-4.782082 -2.816235 -0.9993691 6
-4.827856 -2.797144 -0.6233732 7
-5.006936 -2.907609 0.2309584 11
-4.351629 -4.47796 0.3610091 27
nan nan nan 0
-55.8582 -57.03293 9.797076 13
-82.77131 -47.3526 17.37406 10
-55.66718 -56.48195 21.23869 13
nan nan nan 0
-3.453579 -2.954516 0 17
-4.037226 -2.863904 -0.02570858 13
-4.932779 -2.864568 -0.06624334 7
nan nan nan 0
-3.513053 -3.013836 0.1065375 19
-4.0394 -2.876987 0.08414869 13
-4.944592 -2.883986 0.06945365 7
nan nan nan 0
-0.2551373 -0.2592175 -0.08466953 9
-2.670056 -2.750244 -0.5270747 9
-2.742279 -2.776377 -0.3658144 9
-2.714758 -2.767516 -0.2461177 10
-3.254448 -2.771409 -0.2961162 16
-3.975061 -2.798214 -0.3642051 10
-4.874344 -2.809329 -0.4563404 7
-2.727552 -2.81737 -0.1579445 78
-3.252919 -2.797361 -0.1982125 14
-3.914843 -2.78327 -0.2496425 17
-4.824963 -2.81328 -0.3226719 6
nan nan nan 0
-3.463344 -2.956609 -0.1047967 17
-3.995641 -2.824002 -0.1414886 7
-4.876937 -2.825396 -0.1934836 8
-4.876888 -2.84908 -1.017215 7
-4.885004 -2.807462 -0.629523 8
-5.047374 -2.907542 0.2323631 14
-4.384673 -4.480596 0.3624613 28
nan nan nan 0
-56.16148 -56.94361 9.815357 13
-83.18423 -47.20417 17.42606 11
-55.96606 -56.39013 21.27751 13
nan nan nan 0
-3.494346 -2.968352 0 16
-4.067644 -2.864179 -0.02583948 13
-4.97309 -2.864772 -0.0666526 7
nan nan nan 0
-3.53116 -3.00804 0.1067697 19
-4.073917 -2.880177 0.08466179 13
-4.976278 -2.879208 0.06975908 7
nan nan nan 0
nan nan nan 0
-2.690011 -2.751546 -0.529139 9
-2.76247 -2.777389 -0.3672287 9
-2.734907 -2.768687 -0.2470778 11
-3.279332 -2.772921 -0.2975113 17
-4.001157 -2.795738 -0.3657117 10
-4.91875 -2.812049 -0.4595971 7
nan nan nan 0
-3.277851 -2.798969 -0.1991442 14
-3.944938 -2.783976 -0.2509509 17
-4.860693 -2.81139 -0.3244145 7
nan nan nan 0
-3.477456 -2.947735 -0.1049128 13
-4.013659 -2.815776 -0.1417801 8
-4.92145 -2.828241 -0.1948656 7
-4.959205 -2.873907 -1.032384 10
-4.937963 -2.814958 -0.6351138 10
-5.087873 -2.907227 0.2337677 7
-4.449294 -4.51508 0.3665274 10
-84.36901 -47.50724 7.87218 12
-56.46131 -56.84934 9.833028 12
-83.62285 -47.06792 17.48344 11
-56.23425 -56.26617 21.30469 12
nan nan nan 0
-3.435914 -2.898081 0 12
-4.098113 -2.864277 -0.02597038 13
-5.035179 -2.877111 -0.06735421 7
nan nan nan 0
-3.698058 -3.128116 0.1115279 31
-4.104411 -2.880291 0.08508938 13
-5.025344 -2.884181 0.07030883 7
nan nan nan 0
nan nan nan 0
-2.710007 -2.752742 -0.5312033 9
-2.779184 -2.774773 -0.3681715 9
-2.751583 -2.766208 -0.2477179 12
-3.304266 -2.774292 -0.2989065 16
-4.031382 -2.795953 -0.3675948 10
-4.963235 -2.814494 -0.4628537 7
nan nan nan 0
-3.299025 -2.797205 -0.1998429 14
-3.975085 -2.784504 -0.2522593 17
-4.87914 -2.799366 -0.3249953 6
nan nan nan 0
nan nan nan 0
-4.027566 -2.804603 -0.1419258 9
-4.966041 -2.830809 -0.1962476 7
-4.969207 -2.856579 -1.032384 8
-4.995361 -2.82456 -0.6412637 13
-5.128431 -2.906665 0.2351723 8
-4.479078 -4.513707 0.3676891 9
-84.42991 -47.15414 7.862453 17
-56.76819 -56.76069 9.851917 14
-84.03146 -46.91239 17.53455 10
-56.54336 -56.18187 21.34739 11
nan nan nan 0
-3.461337 -2.898917 0 11
-4.128632 -2.864197 -0.02610128 12
-5.049543 -2.861979 -0.06741267 7
nan nan nan 0
-3.728087 -3.13127 0.1121081 9
-4.13906 -2.883082 0.08560248 12
-5.074506 -2.888848 0.07085861 8
nan nan nan 0
-0.2477144 -0.2461324 -0.08087836 9
-2.730045 -2.753831 -0.5332675 9
-2.795913 -2.772074 -0.3691143 10
-2.771801 -2.767177 -0.248678 10
-3.329249 -2.775523 -0.3003016 16
-4.061656 -2.795991 -0.369478 10
-5.007796 -2.816662 -0.4661104 8
nan nan nan 0
-3.320227 -2.795328 -0.2005416 14
-4.005284 -2.784857 -0.2535677 17
-4.87586 -2.774923 -0.3241241 6
nan nan nan 0
-3.448105 -2.881695 -0.1034041 9
-4.066119 -2.810408 -0.1429458 9
-5.006357 -2.830644 -0.1974569 8
nan nan nan 0
-5.044214 -2.828942 -0.6462954 9
-5.16469 -2.90341 0.2363763 8
-4.512434 -4.515714 0.3691413 9
-85.02995 -47.10059 7.902987 6
-57.04345 -56.63911 9.865323 12
-84.45292 -46.76173 17.58834 9
-56.82163 -56.06558 21.37845 13
nan nan nan 0
-3.486807 -2.899611 0 15
-4.1592 -2.863939 -0.02623218 13
-5.12491 -2.881025 -0.06828968 9
nan nan nan 0
-3.74667 -3.124644 0.1123402 9
-4.169663 -2.882825 0.08603006 12
-5.12376 -2.893206 0.07140837 13
nan nan nan 0
nan nan nan 0
-2.743135 -2.747795 -0.5339556 10
-2.812658 -2.769291 -0.3700571 10
-2.79206 -2.768038 -0.2496382 11
-3.354281 -2.776613 -0.3016967 16
-4.09198 -2.795851 -0.3713611 10
-5.052432 -2.818553 -0.469367 8
nan nan nan 0
-3.341456 -2.793336 -0.2012404 14
-4.039644 -2.787866 -0.2551378 17
-4.968151 -2.804429 -0.3296423 10
nan nan nan 0
nan nan nan 0
-4.100637 -2.813152 -0.1438201 9
-5.051093 -2.832672 -0.1988389 7
-6.552855 -3.704427 -1.358071 41
-5.093158 -2.833017 -0.6513271 7
-5.205353 -2.902367 0.2377809 9
-4.549394 -4.521064 0.3708839 8
-85.2943 -46.85868 7.91231 18
-57.32915 -56.52676 9.880556 11
nan nan nan 0
nan nan nan 0
nan nan nan 0
nan nan nan 0
-4.189816 -2.863502 -0.02636308 13
-5.15678 -2.875272 -0.06858202 17
nan nan nan 0
-3.772949 -3.124305 0.1128045 12
-4.200316 -2.882388 0.08645765 11
-5.168743 -2.894816 0.07189704 7
nan nan nan 0
nan nan nan 0
-2.756216 -2.7417 -0.5346437 9
-2.829417 -2.766425 -0.3709999 9
-2.812358 -2.768791 -0.2505983 10
-3.379361 -2.777561 -0.3030919 16
-4.12648 -2.798331 -0.373621 10
-5.097142 -2.820167 -0.4726237 7
-2.875202 -2.868269 -0.1636362 6
-3.362711 -2.791231 -0.2019392 14
-4.069953 -2.78785 -0.2564462 17
-5.043275 -2.823586 -0.3339988 6
nan nan nan 0
-3.695674 -3.045184 -0.1102513 32
-4.135225 -2.815689 -0.1446943 10
-5.095904 -2.834423 -0.200221 7
-6.565745 -3.681531 -1.358071 43
-5.142191 -2.836785 -0.6563588 7
-5.259195 -2.908317 0.2397875 8
-4.568698 -4.508665 0.3711743 7
-85.7243 -46.70609 7.937036 16
-57.60766 -56.40617 9.894571 13
-85.34754 -46.48152 17.70669 9
nan nan nan 0
nan nan nan 0
-3.762077 -3.084526 0 16
-4.216342 -2.860081 -0.0264678 12
-5.140521 -2.842761 -0.06823122 5
nan nan nan 0
-3.791551 -3.117468 0.1130366 10
-4.235149 -2.884587 0.08697075 13
-5.213799 -2.896147 0.07238573 6
nan nan nan 0
nan nan nan 0
-2.769288 -2.735548 -0.5353318 8
-2.853323 -2.770421 -0.3728856 10
-2.832696 -2.769437 -0.2515585 10
-3.404488 -2.778369 -0.304487 17
-4.156909 -2.79782 -0.3755041 9
-5.146296 -2.823896 -0.4762875 7
-2.814311 -2.787798 -0.1595707 8
-3.383992 -2.789011 -0.2026379 14
-4.10031 -2.787655 -0.2577546 17
-5.092396 -2.827738 -0.3366127 7
nan nan nan 0
-3.729486 -3.051266 -0.1109476 33
-4.182306 -2.82641 -0.1460058 9
-5.127655 -2.828665 -0.2010847 7
-6.587159 -3.663367 -1.359856 45
-5.186951 -2.837864 -0.6608315 7
-5.326289 -2.92112 0.242396 8
-4.598656 -4.506678 0.3723361 9
nan nan nan 0
-57.92874 -56.32584 9.915898 12
-85.74732 -46.31187 17.756 13
nan nan nan 0
nan nan nan 0
-3.776697 -3.074533 0 10
-4.251191 -2.862091 -0.02662488 12
nan nan nan 0
nan nan nan 0
-3.798539 -3.101051 0.1129205 8
-4.265905 -2.883778 0.08739833 12
-5.263307 -2.899607 0.07293549 6
nan nan nan 0
nan nan nan 0
-2.78235 -2.729338 -0.5360199 9
-2.877291 -2.774282 -0.3747712 10
-2.856647 -2.773454 -0.2528387 11
-3.425788 -2.775893 -0.3055333 16
-4.191533 -2.7999 -0.3777639 10
-5.191158 -2.824938 -0.4795441 8
nan nan nan 0
-3.405299 -2.786676 -0.2033366 14
-4.130716 -2.787282 -0.259063 16
-5.132857 -2.826772 -0.3386458 7
nan nan nan 0
-3.743993 -3.041382 -0.1110636 9
-4.20045 -2.817359 -0.1462972 9
-5.190131 -2.839481 -0.2031578 7
-6.591287 -3.635604 -1.358071 43
-5.231781 -2.838665 -0.6653041 8
-47.28331 -25.66832 2.159291 10
-4.632231 -4.508019 0.3737882 9
nan nan nan 0
-58.23209 -56.2267 9.934179 13
nan nan nan 0
nan nan nan 0
nan nan nan 0
-3.748533 -3.029886 0 8
-4.281947 -2.861115 -0.02675577 12
-5.248126 -2.854501 -0.06940056 4
nan nan nan 0
nan nan nan 0
-4.300859 -2.885574 0.08791143 13
-5.308513 -2.900363 0.07342418 6
nan nan nan 0
nan nan nan 0
-2.788318 -2.716148 -0.5353318 10
-2.901322 -2.778011 -0.3766569 9
-2.877073 -2.77387 -0.2537988 11
-3.450998 -2.776431 -0.3069285 16
-4.222063 -2.799018 -0.3796471 10
-5.236089 -2.825701 -0.4828008 7
-2.901512 -2.834507 -0.163433 9
-3.422756 -2.781075 -0.2038025 13
-4.165319 -2.789508 -0.2606331 17
-5.173373 -2.825558 -0.3406788 7
nan nan nan 0
-3.731249 -3.009457 -0.1103673 8
-4.247712 -2.827591 -0.1476087 10
-5.248349 -2.847516 -0.2050581 7
-6.612574 -3.617291 -1.359856 44
-5.272301 -2.836836 -0.6692176 8
-47.33303 -25.4818 2.157485 14
-4.651525 -4.495294 0.3740787 9
-87.37938 -46.42778 8.044857 12
-58.53547 -56.12614 9.952459 12
nan nan nan 0
nan nan nan 0
nan nan nan 0
-3.762985 -3.019913 0 7
-4.316915 -2.862722 -0.02691285 12
-5.310888 -2.864599 -0.07010217 5
nan nan nan 0
nan nan nan 0
-4.335878 -2.88716 0.08842454 12
-5.336196 -2.891327 0.07366851 8
nan nan nan 0
nan nan nan 0
-2.81911 -2.727089 -0.5394603 9
-2.925413 -2.781605 -0.3785425 10
-2.897537 -2.774176 -0.254759 11
-3.476251 -2.776825 -0.3083236 16
-4.25264 -2.797957 -0.3815303 10
-5.298673 -2.835573 -0.4876858 9
-2.900645 -2.813911 -0.1628231 9
-3.440214 -2.775386 -0.2042683 14
-4.195827 -2.788764 -0.2619415 16
-5.205162 -2.819349 -0.342131 7
nan nan nan 0
-3.679322 -2.946397 -0.1085105 7
-4.261727 -2.8155 -0.1477544 8
-5.258256 -2.829179 -0.2050581 8
-6.629486 -3.596529 -1.360748 43
-5.334802 -2.846435 -0.6759266 8
-47.44373 -25.32818 2.158489 16
-4.71037 -4.520541 0.3775639 8
-87.50121 -46.10157 8.041208 16
-58.86041 -56.04468 9.974397 12
-87.34182 -45.99812 17.98553 7
nan nan nan 0
nan nan nan 0
-3.757866 -2.99429 0 8
-4.351947 -2.86412 -0.02706993 12
-5.369373 -2.871939 -0.0707453 6
-4.685265 -4.51511 0.1908119 29
nan nan nan 0
-4.366788 -2.885782 0.08885212 12
nan nan nan 0
nan nan nan 0
nan nan nan 0
-2.850012 -2.737847 -0.5435888 9
-2.949564 -2.785064 -0.3804281 9
-2.92165 -2.777817 -0.2560392 11
-3.50155 -2.777077 -0.3097187 16
-4.287435 -2.799441 -0.3837901 10
-5.356984 -2.842711 -0.4921637 5
-2.953567 -2.845422 -0.1652624 9
-3.457675 -2.769608 -0.2047341 15
-4.226381 -2.78784 -0.2632498 16
-5.324958 -2.860113 -0.3493918 9
nan nan nan 0
-3.701319 -2.942873 -0.1088586 6
nan nan nan 0
nan nan nan 0
-6.646334 -3.575694 -1.36164 42
-5.38425 -2.848672 -0.6809583 7
-47.64224 -25.22084 2.163505 14
-4.72612 -4.504071 0.3775639 9
-88.14309 -46.04736 8.085391 7
-59.12418 -55.90366 9.985973 13
-87.33616 -45.60645 17.95146 15
nan nan nan 0
nan nan nan 0
-3.748695 -2.965636 0 9
-4.387041 -2.865307 -0.02722701 12
nan nan nan 0
-4.722644 -4.519479 0.1916966 28
-3.790575 -3.007305 0.1114118 6
-4.401923 -2.886963 0.08936522 12
-43.90728 -23.35195 0.6071239 7
nan nan nan 0
-0.26837 -0.2526031 -0.08593326 8
-2.877445 -2.744999 -0.5470293 10
-2.970148 -2.78498 -0.3818423 9
-2.942199 -2.777892 -0.2569993 10
-3.53081 -2.780274 -0.3114626 16
-4.322292 -2.800716 -0.3860499 9
-13.33102 -7.005266 -1.226949 10
-2.967086 -2.838553 -0.1654657 10
-3.475137 -2.763743 -0.2052 15
-4.261158 -2.78947 -0.2648199 16
-5.330502 -2.839165 -0.3491013 24
nan nan nan 0
nan nan nan 0
nan nan nan 0
nan nan nan 0
-6.667459 -3.557097 -1.363425 43
-8.013366 -4.200893 -1.01361 36
-48.05293 -25.22386 2.178153 12
-4.745437 -4.49098 0.3778543 8
-88.38294 -45.78065 8.092688 18
-59.45283 -55.82264 10.00852 13
-87.92291 -45.52293 18.03933 7
-60.13749 -56.11127 22.02809 9
nan nan nan 0
-3.770817 -2.961803 0 7
-4.417999 -2.863566 -0.02735791 12
nan nan nan 0
-4.79993 -4.561548 0.1942034 8
-3.738241 -2.944541 0.1095549 9
-4.432928 -2.885209 0.08979281 12
-45.69122 -24.09627 0.6306416 8
nan nan nan 0
nan nan nan 0
-2.915734 -2.762225 -0.5525339 9
-2.990768 -2.784785 -0.3832566 11
-2.962785 -2.777858 -0.2579595 10
-3.556207 -2.780227 -0.3128578 16
-4.357209 -2.801781 -0.3883097 10
-8.139406 -4.243417 -0.7465908 26
-2.980594 -2.831624 -0.165669 9
-3.516111 -2.776371 -0.2070633 15
-4.29181 -2.788173 -0.2661283 17
nan nan nan 0
-3.040101 -2.86732 -0.07225296 18
nan nan nan 0
nan nan nan 0
-24.43063 -12.79446 -0.9520429 96
-6.684186 -3.5361 -1.364317 37
-8.054442 -4.18663 -1.016965 41
-47.8659 -24.91299 2.165712 16
nan nan nan 0
-88.83923 -45.62438 8.119845 10
-59.77798 -55.73661 10.03046 12
-88.23882 -45.29661 18.0716 16
-59.96812 -55.56289 21.8948 12
nan nan nan 0
-3.749599 -2.924012 0 8
-4.453204 -2.864347 -0.02751499 12
nan nan nan 0
-4.779504 -4.510432 0.1927288 6
-3.795732 -2.968445 0.1109476 7
-4.463974 -2.883273 0.0902204 13
-43.47552 -22.73447 0.5989385 12
nan nan nan 0
-0.2421798 -0.2239512 -0.07582346 9
-2.928961 -2.755429 -0.5532221 9
-3.011422 -2.784481 -0.3846708 10
-2.979758 -2.774309 -0.2585995 10
-3.585585 -2.783095 -0.3146017 16
-4.396391 -2.805317 -0.3909461 8
nan nan nan 0
-3.015866 -2.845236 -0.1670919 8
-3.549357 -2.78258 -0.2084608 14
-4.326701 -2.789399 -0.2676984 16
-17.5116 -9.157011 -1.147504 14
nan nan nan 0
-3.649113 -2.839456 -0.1064215 20
nan nan nan 0
-24.90536 -12.9324 -0.9687999 17
-6.700846 -3.515028 -1.365209 16
-8.06459 -4.156215 -1.016406 42
nan nan nan 0
nan nan nan 0
nan nan nan 0
-59.79375 -55.36238 10.0006 11
-88.76027 -45.17348 18.14602 16
-59.7992 -55.01966 21.7628 9
nan nan nan 0
-3.779545 -2.926218 0 9
-4.488469 -2.864917 -0.02767207 11
nan nan nan 0
nan nan nan 0
-3.778442 -2.933708 0.1101352 7
-4.503479 -2.886548 0.09081902 12
-43.75436 -22.68611 0.6016873 21
nan nan nan 0
nan nan nan 0
-2.945789 -2.75196 -0.5545982 9
-3.03211 -2.784065 -0.3860851 9
-3.000402 -2.774067 -0.2595597 11
-3.611077 -2.782746 -0.3159968 16
-4.431437 -2.805947 -0.3932059 8
-8.168832 -4.186491 -0.7465908 30
-2.993007 -2.803906 -0.1652624 9
-3.582689 -2.78859 -0.2098583 14
-4.361654 -2.790416 -0.2692685 17
-17.51687 -9.08205 -1.145761 33
-3.049076 -2.835798 -0.07199118 15
-3.674821 -2.838931 -0.1068857 19
-4.440987 -2.82378 -0.1522715 12
nan nan nan 0
-6.713075 -3.491616 -1.365209 16
-8.048066 -4.112233 -1.012492 43
-47.63835 -24.37346 2.147653 11
nan nan nan 0
nan nan nan 0
nan nan nan 0
nan nan nan 0
-59.65931 -54.5076 21.64245 10
nan nan nan 0
nan nan nan 0
-4.523791 -2.865276 -0.02782915 12
nan nan nan 0
nan nan nan 0
nan nan nan 0
-4.543061 -2.889582 0.09141763 12
nan nan nan 0
nan nan nan 0
-0.2718707 -0.2488315 -0.08593326 10
-2.96263 -2.748407 -0.5559744 9
-3.052832 -2.78354 -0.3874993 10
-3.01741 -2.770336 -0.2601998 11
-3.636609 -2.782253 -0.3173919 16
-4.46654 -2.806367 -0.3954657 8
-8.138954 -4.135403 -0.7425199 35
-2.988164 -2.77981 -0.1644493 9
-3.612155 -2.791345 -0.2110229 13
-4.396665 -2.791222 -0.2708386 16
-17.60618 -9.050501 -1.149537 40
-3.029611 -2.797964 -0.07129308 16
-3.700569 -2.83826 -0.1073499 17
-4.450817 -2.808261 -0.1522715 11
-24.80364 -12.66056 -0.9613715 18
-6.729596 -3.470414 -1.366102 16
-8.049069 -4.077388 -1.010815 44
-49.78617 -25.25321 2.240558 6
nan nan nan 0
nan nan nan 0
-59.43851 -54.26763 9.877509 11
nan nan nan 0
nan nan nan 0
nan nan nan 0
nan nan nan 0
-4.559169 -2.865422 -0.02798623 12
nan nan nan 0
nan nan nan 0
nan nan nan 0
-4.58272 -2.892375 0.09201626 12
-45.84056 -23.36291 0.6281371 7
nan nan nan 0
-0.2586247 -0.2346419 -0.08087836 9
-2.983119 -2.74813 -0.5580387 9
-3.077273 -2.786249 -0.389385 10
-3.03811 -2.769886 -0.26116 11
