# .PCD v0.7 - Point Cloud Data file format
VERSION 0.7
FIELDS x y z intensity
SIZE 4 4 4 4
TYPE F F F F
COUNT 1 1 1 1
WIDTH 1603
HEIGHT 1
VIEWPOINT 0 0 0 1 0 0 0
POINTS 1603
DATA ascii
-7.164061 -10.312 -0.5836903 17
-7.81242 -9.277 -0.6335267 15
-8.267801 -8.186368 -0.6746776 27
-9.359883 -16.39853 -0.3288906 30
-9.687016 -13.83643 -0.3912179 26
-10.3881 -12.26509 -0.4674516 36
-10.81814 -10.64974 -0.5234422 36
nan nan nan 0
-5.789359 -5.663277 -0.9068263 20
nan nan nan 0
nan nan nan 0
-21.60126 -20.92639 2.443007 19
-18.00649 -31.05225 4.40253 9
-9.114489 -8.83123 2.306021 93
-5.596266 -9.574235 2.96089 52
-15.33031 -26.8221 0.1777111 9
nan nan nan 0
-16.48285 -19.39063 -0.1330458 17
-15.83382 -15.50782 -0.2587174 17
nan nan nan 0
nan nan nan 0
-27.97104 -33.03167 0.7397217 10
-22.01239 -21.63898 0.3766502 5
nan nan nan 0
-0.2116417 -0.364815 -0.09983423 7
-3.314554 -5.783464 -0.9206606 31
-4.287495 -7.335728 -0.8009261 30
-5.314773 -9.168919 -0.6772236 82
-5.694012 -8.050874 -0.6867524 29
-6.436478 -7.51792 -0.7446055 21
-7.012579 -6.827243 -0.7962549 13
-6.542276 -11.46316 -0.5354259 98
-7.265869 -10.38106 -0.5890474 16
-7.831835 -9.234444 -0.63248 15
-8.299888 -8.160956 -0.674968 22
nan nan nan 0
-9.694925 -13.74534 -0.3895932 29
-10.43085 -12.22875 -0.4674516 34
-10.78734 -10.54557 -0.5201599 42
-3.327756 -3.282144 -0.8405408 13
-5.816224 -5.649952 -0.9079444 18
-22.41018 -21.79301 1.253918 3
-22.50694 -38.92511 2.613904 7
-21.56281 -20.74378 2.430441 18
-18.12479 -31.00634 4.404967 10
-8.886391 -8.550507 2.24057 103
-5.676198 -9.633724 2.985478 84
-15.47125 -26.85074 0.1782582 8
-16.21946 -22.87897 0 13
-16.54393 -19.32538 -0.1329935 17
-15.62616 -15.19805 -0.2544492 18
nan nan nan 0
nan nan nan 0
-28.12186 -32.97568 0.7406624 9
-21.97687 -21.45377 0.3747565 6
nan nan nan 0
-0.2081451 -0.3556556 -0.09730678 9
-3.334722 -5.771859 -0.9206606 31
-4.318124 -7.329298 -0.801869 28
-5.316563 -9.098598 -0.673383 80
-5.704719 -8.006574 -0.6846597 33
-6.465938 -7.499181 -0.7449821 21
-7.039952 -6.806185 -0.796662 13
-6.58723 -11.44891 -0.5358324 98
-7.296306 -10.34746 -0.5885816 16
-7.919161 -9.271585 -0.6369286 14
-8.33547 -8.138906 -0.6755489 26
nan nan nan 0
-9.629945 -13.55249 -0.3850671 30
nan nan nan 0
-10.8743 -10.55656 -0.5225784 41
-3.409565 -3.339277 -0.8583866 13
-5.832332 -5.626168 -0.9073853 18
-22.28123 -21.51687 1.24248 4
-22.57733 -38.73417 2.606352 50
-21.68915 -20.72001 2.436521 18
-18.25558 -30.98137 4.410451 10
-9.001576 -8.600953 2.262088 109
-5.606292 -9.4394 2.931126 49
-15.60254 -26.86144 0.1786902 9
-16.29922 -22.82221 0 16
nan nan nan 0
-15.84098 -15.29967 -0.2570803 16
-22.55206 -38.8775 1.324919 35
nan nan nan 0
-28.2596 -32.90386 0.7412611 9
-21.93673 -21.26559 0.3728018 6
nan nan nan 0
-0.2045871 -0.346525 -0.09477933 8
-3.357337 -5.764464 -0.9213486 28
-4.34622 -7.318461 -0.8023404 29
-5.416607 -9.196101 -0.6820243 72
-5.712277 -7.958243 -0.6822183 28
-6.498615 -7.484094 -0.7457353 21
-7.070861 -6.788467 -0.7974762 13
-6.629659 -11.43017 -0.5360357 96
-7.225383 -10.17126 -0.5799636 17
-7.905883 -9.190898 -0.633265 13
-8.36383 -8.109759 -0.6755489 24
nan nan nan 0
-9.717921 -13.5757 -0.3866918 29
nan nan nan 0
-10.8391 -10.4492 -0.5191234 35
-3.251731 -3.162899 -0.8155565 12
-5.833984 -5.588603 -0.90459 18
-22.32735 -21.4113 1.240875 4
-22.85903 -38.90476 2.623198 22
-21.80113 -20.68189 2.44098 16
nan nan nan 0
-9.206468 -8.7353 2.306021 42
-5.646644 -9.432208 2.935008 47
-15.73662 -26.87585 0.179151 8
-16.43718 -22.84636 0 15
nan nan nan 0
nan nan nan 0
-22.81627 -39.01859 1.332439 36
-25.8257 -36.00322 1.027774 7
-21.21169 -24.52463 0.5539789 9
-21.91356 -21.09528 0.3711525 7
nan nan nan 0
-0.2033818 -0.3416163 -0.0935156 9
-3.377439 -5.75271 -0.9213486 29
-4.374294 -7.307518 -0.8028117 31
-5.474127 -9.220055 -0.6852248 65
-5.780929 -7.994849 -0.6871012 26
-6.534548 -7.472621 -0.7468653 23
-7.101732 -6.770617 -0.7982903 14
-6.666997 -11.40265 -0.5358324 99
-7.316058 -10.22316 -0.5843891 16
-7.869249 -9.084001 -0.6277698 15
-8.395684 -8.083975 -0.6758393 19
nan nan nan 0
-9.946493 -13.79309 -0.3938872 34
-8.946134 -10.2688 -0.3959059 20
-10.80329 -10.34222 -0.5156683 37
nan nan nan 0
-5.849854 -5.564783 -0.9040309 19
-22.4309 -21.36079 1.24248 4
-23.56436 -39.78683 2.688255 8
-19.62015 -18.484 2.189261 9
-18.59886 -31.06608 4.440918 6
-9.136617 -8.608705 2.280917 36
-5.66208 -9.383485 2.925949 44
-15.86591 -26.88105 0.1795541 9
-16.5051 -22.77264 0 11
-8.944705 -10.231 -0.0709473 30
-15.57442 -14.83365 -0.2510581 14
nan nan nan 0
-25.57649 -35.39424 1.012919 33
-8.835288 -10.14496 0.229442 28
-21.91477 -20.94958 0.3699308 11
nan nan nan 0
-0.1997163 -0.3325362 -0.09098815 9
-3.400018 -5.745151 -0.9220367 31
-4.402344 -7.296467 -0.8032832 27
-5.503717 -9.196608 -0.6849048 67
-5.814672 -7.982685 -0.6877988 28
-6.567184 -7.457249 -0.7476186 21
-7.132564 -6.752635 -0.7991045 13
-6.69155 -11.35347 -0.5346128 111
-7.407183 -10.27454 -0.5888144 16
-7.94359 -9.105384 -0.6311716 14
-8.459945 -8.089099 -0.6787437 31
-9.552769 -16.07793 -0.3257491 29
-9.988704 -13.7502 -0.393655 28
-8.958848 -10.21121 -0.3948859 31
-10.84295 -10.30788 -0.5158411 39
nan nan nan 0
-5.811415 -5.489776 -0.8950856 16
-22.52711 -21.30296 1.243684 4
-23.22473 -38.90282 2.633944 12
-19.83379 -18.55496 2.205881 28
-18.70205 -30.99248 4.4397 7
-9.048029 -8.465908 2.251329 107
-5.662202 -9.310005 2.909126 38
-15.99798 -26.88996 0.1799861 9
-16.58449 -22.71489 0 15
-8.97706 -10.19596 -0.07092113 37
nan nan nan 0
-21.31168 -35.86768 1.229808 20
-25.86461 -35.53106 1.019418 54
-8.929991 -10.1817 0.2309813 30
-21.84995 -20.74217 0.3676096 14
nan nan nan 0
-0.19599 -0.3234859 -0.08846071 8
-3.422585 -5.737502 -0.9227248 28
-4.43037 -7.285311 -0.8037546 30
-5.522911 -9.155972 -0.6833045 62
-5.857253 -7.98245 -0.6895427 29
-6.599792 -7.441738 -0.7483718 21
-7.166991 -6.737931 -0.8003258 13
-6.779587 -11.41167 -0.538475 107
-7.393119 -10.17992 -0.5848549 17
-8.051137 -9.163863 -0.6371903 14
-8.509857 -8.080132 -0.6804863 19
-9.603699 -16.03591 -0.3255746 28
-9.912677 -13.54581 -0.3887808 29
-8.997746 -10.18362 -0.3950316 26
-10.8716 -10.26311 -0.5154955 38
-4.340294 -4.131822 -1.079675 35
-5.913943 -5.547585 -0.9079444 18
-22.6669 -21.28574 1.247296 4
-21.50005 -35.72906 2.42396 13
-19.77793 -18.3737 2.192504 42
-18.87458 -31.03302 4.454934 7
-9.22894 -8.574828 2.288986 97
-5.682055 -9.269589 2.902656 43
-16.11745 -26.87684 0.1802741 10
-16.6696 -22.66492 0 18
-9.029183 -10.18327 -0.07105203 31
-16.31551 -15.32338 -0.2612899 17
-21.4958 -35.89169 1.233199 45
-26.00031 -35.45669 1.019882 47
-8.952237 -10.13548 0.2306392 26
-21.87492 -20.6212 0.3668154 12
nan nan nan 0
-0.1946606 -0.3186328 -0.08719698 9
-3.442592 -5.72552 -0.9227248 30
-4.460971 -7.278293 -0.8046975 27
-5.435695 -8.940451 -0.6685823 101
-5.893973 -7.973989 -0.690589 30
-6.635695 -7.42981 -0.7495017 21
-7.197756 -6.71967 -0.80114 13
-6.811686 -11.37508 -0.5378652 112
nan nan nan 0
-8.056601 -9.105791 -0.6350968 13
-8.563444 -8.074336 -0.6825193 22
-9.716426 -16.09647 -0.3274944 29
-10.13487 -13.74854 -0.395628 26
-9.026594 -10.14468 -0.3947402 18
-10.89277 -10.21144 -0.5148045 37
-4.347535 -4.109893 -1.077891 33
-5.958738 -5.550597 -0.911858 18
-22.80684 -21.26781 1.250908 4
nan nan nan 0
-19.87492 -18.33496 2.196152 30
-19.01909 -31.02618 4.463465 19
-8.6729 -8.002462 2.143739 30
nan nan nan 0
-16.27064 -26.91884 0.1809364 9
-16.96885 -22.90391 0 18
-9.048021 -10.13304 -0.07092113 8
nan nan nan 0
-21.45052 -35.53402 1.223467 46
-25.77051 -34.88724 1.006072 36
-9.037407 -10.16019 0.231922 16
-21.91756 -20.51739 0.3663267 6
nan nan nan 0
-0.1957716 -0.3179514 -0.08719698 8
-3.46512 -5.717706 -0.9234129 27
-4.488964 -7.266913 -0.8051689 30
-5.597116 -9.134214 -0.6845847 69
-5.918794 -7.949366 -0.6902403 30
-6.66826 -7.414014 -0.750255 19
-7.22848 -6.701275 -0.801954 14
-6.890047 -11.4154 -0.5409143 101
nan nan nan 0
-8.091659 -9.08134 -0.6353585 14
-8.613448 -8.064855 -0.6842619 26
-9.782942 -16.07954 -0.3278434 31
-10.25729 -13.81341 -0.3985293 31
-10.76321 -12.01119 -0.4690545 29
-10.90274 -10.14953 -0.5135953 38
-4.354675 -4.087965 -1.076106 36
-5.981727 -5.533134 -0.9124171 18
-22.92127 -21.2254 1.253115 4
-24.44294 -39.98635 2.724559 6
-20.05641 -18.37317 2.209123 18
-19.22637 -31.12005 4.486619 7
-8.72618 -7.995389 2.150015 79
nan nan nan 0
-16.41652 -26.94729 0.1815124 9
-16.94105 -22.70027 0 19
nan nan nan 0
nan nan nan 0
nan nan nan 0
-25.91302 -34.82514 1.006884 25
nan nan nan 0
-21.86087 -20.32164 0.3641888 5
nan nan nan 0
-0.1968803 -0.3172661 -0.08719698 8
-3.485057 -5.705575 -0.9234129 30
-4.516931 -7.255427 -0.8056403 31
-5.566092 -9.012701 -0.6769035 96
-5.976426 -7.968565 -0.6937281 26
-6.704141 -7.401775 -0.7513849 22
-7.259165 -6.682748 -0.8027682 15
-6.870174 -11.29309 -0.536239 109
-7.600516 -10.23831 -0.592774 16
-8.163333 -9.097631 -0.6384987 13
-8.667147 -8.058519 -0.6862949 17
-9.833787 -16.03677 -0.3276689 25
-10.28449 -13.7495 -0.397717 24
-10.81846 -11.98839 -0.4696374 24
-10.91974 -10.09445 -0.5127315 40
nan nan nan 0
-6.004667 -5.51558 -0.9129761 19
-23.09453 -21.23655 1.258533 4
-23.8337 -38.68526 2.641495 7
-20.07986 -18.26616 2.204664 28
-19.42405 -31.196 4.507338 6
-9.13259 -8.308974 2.24326 102
nan nan nan 0
-16.5654 -26.97931 0.1821171 9
-16.91204 -22.49711 0 18
nan nan nan 0
-16.44195 -15.12124 -0.2607637 18
-24.46429 -39.89569 1.379626 13
-26.4691 -35.31447 1.023712 43
nan nan nan 0
-21.88758 -20.20452 0.3634558 16
nan nan nan 0
-0.2054895 -0.329 -0.09098815 9
-3.507545 -5.697595 -0.9241009 28
-4.544872 -7.243834 -0.8061117 32
-5.529019 -8.88304 -0.6685823 98
-6.028252 -7.979497 -0.6965184 29
-6.736658 -7.385695 -0.7521381 19
-7.289808 -6.664089 -0.8035824 12
-7.050471 -11.49909 -0.5472158 111
-7.627237 -10.19971 -0.5920753 16
-8.198388 -9.072785 -0.6387603 14
-8.720905 -8.051908 -0.688328 22
-9.892331 -16.0066 -0.3277562 27
-10.32039 -13.69755 -0.3972527 23
-10.76612 -11.847 -0.4655574 30
-10.896 -10.00223 -0.5099674 42
nan nan nan 0
-6.027556 -5.497932 -0.9135352 19
-34.78061 -31.75537 1.890007 4
-30.10507 -48.48739 3.318496 7
-20.1509 -18.20264 2.205475 18
-19.57766 -31.19948 4.517696 7
-9.139629 -8.257271 2.23788 42
nan nan nan 0
-16.71735 -27.01487 0.1827507 9
-17.14439 -22.64124 0 15
-17.41573 -19.09541 -0.1351141 13
-16.23615 -14.82781 -0.256671 15
nan nan nan 0
nan nan nan 0
nan nan nan 0
-21.91373 -20.08747 0.3627228 48
nan nan nan 0
-0.2041212 -0.3241484 -0.08972443 8
-3.527412 -5.685317 -0.9241009 29
-4.572788 -7.232133 -0.806583 26
-5.684512 -9.062416 -0.6836246 68
-6.080228 -7.990164 -0.6993086 28
-6.77252 -7.373148 -0.7532681 20
-7.320409 -6.645297 -0.8043966 13
-6.998712 -11.32562 -0.5401012 106
-7.61172 -10.1052 -0.5881158 16
nan nan nan 0
-8.785766 -8.055133 -0.6912323 16
-9.921728 -15.92953 -0.3268836 23
-10.44066 -13.75701 -0.400038 24
-10.83778 -11.84252 -0.4668688 37
-10.97887 -10.00788 -0.5122132 43
-4.418994 -4.062097 -1.08146 34
-6.050395 -5.480192 -0.9140943 18
-34.88383 -31.62706 1.889605 20
-24.67237 -39.42774 2.703938 43
-20.20318 -18.12221 2.204259 15
-19.75009 -31.23162 4.53232 11
-9.241657 -8.29098 2.255812 106
-22.23671 -34.92186 11.08263 9
-16.84593 -27.01151 0.183125 9
-17.21725 -22.57331 0 17
-17.40787 -18.95349 -0.1345381 22
-16.51748 -14.97922 -0.260296 16
-24.6656 -39.60089 1.37535 9
-26.7634 -35.19248 1.025569 41
nan nan nan 0
-21.99482 -20.02095 0.362906 134
nan nan nan 0
-0.1951321 -0.3069401 -0.08466953 8
-3.549858 -5.67717 -0.9247891 30
-4.600677 -7.220326 -0.8070545 30
-5.745416 -9.088928 -0.6871451 59
-6.126283 -7.992646 -0.7014013 26
-6.804988 -7.356782 -0.7540213 21
-7.350967 -6.626373 -0.8052107 13
-7.035563 -11.29688 -0.5398979 98
-7.656002 -10.0905 -0.5888144 16
-8.210918 -8.960117 -0.6348351 14
-8.839678 -8.047926 -0.6932653 12
-10.07557 -16.05149 -0.3301122 26
-10.50076 -13.73637 -0.4005022 23
-10.92647 -11.85607 -0.4689088 39
-11.06562 -10.01643 -0.5146317 44
-4.404055 -4.020138 -1.074322 33
-6.07688 -5.465678 -0.9152124 19
-35.13884 -31.63545 1.897431 18
-24.76193 -39.26538 2.69871 48
nan nan nan 0
-19.91765 -31.25457 4.545726 12
-9.33668 -8.317535 2.271951 107
-22.36369 -34.85216 11.08522 10
-16.98267 -27.02028 0.1835858 8
nan nan nan 0
-17.49089 -18.91096 -0.134669 12
-16.46933 -14.83117 -0.2587174 15
-24.74789 -39.42565 1.372253 46
-26.92256 -35.14647 1.026962 46
-29.9734 -32.52991 0.7559699 9
-22.1944 -20.06136 0.365044 9
nan nan nan 0
-0.1809371 -0.2815695 -0.07708719 9
-3.569654 -5.664744 -0.9247891 30
-4.625853 -7.204224 -0.8070545 29
-5.755677 -9.03514 -0.6845847 58
-6.190714 -8.018598 -0.7055867 29
-6.840823 -7.343925 -0.7551512 19
-7.381483 -6.607316 -0.8060249 13
-7.082917 -11.28495 -0.5405077 109
-7.679049 -10.04784 -0.5878828 17
nan nan nan 0
-8.841787 -7.9936 -0.6912323 10
-10.17428 -16.08383 -0.3315084 32
-10.53035 -13.67587 -0.3998059 23
-10.96779 -11.81786 -0.4689088 31
-11.12282 -9.997772 -0.5156683 43
-4.461837 -4.044351 -1.085029 34
-6.09963 -5.44774 -0.9157715 19
-35.39806 -31.64578 1.905457 15
-24.99253 -39.32616 2.708875 15
-21.38208 -18.91158 2.318566 20
-20.20894 -31.46884 4.587162 6
-9.402514 -8.317469 2.280917 95
-22.49569 -34.7901 11.0904 9
-17.11968 -27.02842 0.1840466 9
nan nan nan 0
nan nan nan 0
-16.91614 -15.12676 -0.2649149 16
-24.90941 -39.37704 1.37358 50
-27.07867 -35.09581 1.028238 40
-30.16158 -32.5057 0.7578513 7
nan nan nan 0
nan nan nan 0
nan nan nan 0
-3.592057 -5.656432 -0.9254771 30
-4.653674 -7.192214 -0.8075259 30
-5.757552 -8.968789 -0.6810642 92
-6.221728 -8.000876 -0.7059355 31
-6.876652 -7.330909 -0.7562811 21
-7.408228 -6.584818 -0.806432 13
-7.132941 -11.27705 -0.5413209 107
-7.74149 -10.0566 -0.5899791 15
nan nan nan 0
nan nan nan 0
-10.27602 -16.1199 -0.3329919 26
-10.53208 -13.57977 -0.3980651 18
-11.03969 -11.81236 -0.4702202 33
-11.22478 -10.01876 -0.5187778 42
nan nan nan 0
-6.129768 -5.436297 -0.9174488 18
-35.6204 -31.62151 1.911477 14
nan nan nan 0
-21.38056 -18.77764 2.31127 19
-20.31327 -31.38977 4.585943 6
-9.427794 -8.281353 2.28002 101
-22.63809 -34.74375 11.10075 11
-17.25426 -27.03173 0.1844785 9
nan nan nan 0
-19.56549 -20.85965 -0.1495391 8
-16.76318 -14.88508 -0.2616992 12
nan nan nan 0
-27.24395 -35.05634 1.029863 38
-30.33289 -32.46232 0.7593051 7
nan nan nan 0
nan nan nan 0
-0.1931899 -0.2966864 -0.08214208 9
-3.614446 -5.648033 -0.9261653 30
-4.684183 -7.184268 -0.8084687 30
-5.786116 -8.944447 -0.6807442 65
-6.249619 -7.97911 -0.7059355 32
-6.909049 -7.314108 -0.7570344 19
-7.438645 -6.56551 -0.8072461 13
nan nan nan 0
-7.776547 -10.02952 -0.5899791 15
-8.355482 -8.928321 -0.6387603 14
-8.852648 -7.89184 -0.6877471 9
-10.16208 -15.81889 -0.3274944 33
-10.6471 -13.62959 -0.4006183 18
-11.02947 -11.71916 -0.4680345 37
-11.23724 -9.959634 -0.5177413 43
-4.500976 -4.022929 -1.087706 35
-6.148707 -5.414867 -0.9174488 21
-35.79803 -31.55643 1.915089 13
nan nan nan 0
-21.48354 -18.73565 2.315323 26
-20.47964 -31.40598 4.59874 7
-9.53823 -8.31949 2.299745 49
-22.77513 -34.68874 11.10851 10
-17.39449 -27.04283 0.1849681 9
nan nan nan 0
-19.65192 -20.80577 -0.1496439 12
-16.60498 -14.64136 -0.258425 14
nan nan nan 0
-27.38464 -34.98464 1.030559 41
-30.49741 -32.41085 0.7605878 8
nan nan nan 0
nan nan nan 0
-0.1812886 -0.2755715 -0.07582346 9
-3.636819 -5.639545 -0.9268533 31
-4.709232 -7.167874 -0.8084687 28
-5.81458 -8.920014 -0.6804241 73
-6.280521 -7.961163 -0.7062843 27
-6.944848 -7.300781 -0.7581643 20
-7.469017 -6.546069 -0.8080603 13
nan nan nan 0
-7.823803 -10.01806 -0.5909107 16
-8.383172 -8.895467 -0.6384987 15
-8.88388 -7.864197 -0.6880375 9
-10.20637 -15.76653 -0.3271453 25
-10.72552 -13.63163 -0.4017788 22
-11.15971 -11.7749 -0.4718231 26
-11.26818 -9.917049 -0.5175686 39
-4.562862 -4.049605 -1.099306 35
-6.163828 -5.390103 -0.9168897 19
-36.00948 -31.52012 1.920507 10
nan nan nan 0
-21.59025 -18.69642 2.319782 20
-20.6845 -31.47948 4.620067 10
-9.522574 -8.247519 2.288986 40
-22.92271 -34.64931 11.12145 15
-17.55131 -27.07845 0.1856305 8
-16.10153 -20.36317 0 26
-19.81748 -20.83485 -0.1503507 11
-16.63718 -14.56685 -0.2581327 15
nan nan nan 0
-27.52826 -34.91632 1.031372 46
-30.63443 -32.32959 0.7611864 9
-22.54746 -19.81552 0.3662657 4
nan nan nan 0
-0.2030607 -0.3075665 -0.08593326 9
-3.659178 -5.630971 -0.9275414 30
-4.739715 -7.159697 -0.8094116 30
-5.842944 -8.895491 -0.6801041 63
-6.311376 -7.943096 -0.706633 29
-6.97719 -7.283694 -0.7589176 21
-7.499343 -6.526496 -0.8088745 13
nan nan nan 0
-7.864899 -9.998539 -0.5913765 16
-8.383231 -8.833559 -0.6361435 14
-8.945032 -7.862783 -0.6906514 10
-10.28865 -15.77269 -0.328018 29
-10.80718 -13.63721 -0.4030554 24
-11.10412 -11.63465 -0.4677431 38
-11.26885 -9.848073 -0.5160138 38
-4.554807 -4.014156 -1.093952 33
-6.205129 -5.388085 -0.9202442 14
-36.17585 -31.44339 1.923517 9
nan nan nan 0
-21.6705 -18.63393 2.321404 8
-20.86547 -31.51468 4.63591 7
nan nan nan 0
-23.04621 -34.5731 11.12275 11
-17.69493 -27.09238 0.1861488 9
-16.22857 -20.37725 0 16
-19.87625 -20.75111 -0.150246 10
nan nan nan 0
nan nan nan 0
-27.67483 -34.85133 1.0323 44
nan nan nan 0
nan nan nan 0
nan nan nan 0
-0.1936705 -0.2905775 -0.08087836 9
-3.681522 -5.62231 -0.9282295 33
-4.767437 -7.14725 -0.809883 30
-5.868455 -8.866715 -0.6794639 66
-6.345295 -7.928807 -0.7073306 25
-7.009497 -7.266471 -0.7596709 19
-7.529624 -6.506792 -0.8096886 13
-7.442438 -11.41076 -0.5527042 98
-7.905955 -9.978855 -0.5918424 17
-8.407115 -8.797024 -0.6356202 14
-9.002521 -7.857757 -0.6929749 10
-10.37932 -15.791 -0.3291523 30
-10.89837 -13.6541 -0.4046802 21
-11.15159 -11.60302 -0.4680345 34
-11.34847 -9.847961 -0.5180869 35
-4.553971 -3.985285 -1.090383 35
nan nan nan 0
-36.35347 -31.37567 1.927129 10
nan nan nan 0
nan nan nan 0
-21.09651 -31.62332 4.662721 6
-9.5425 -8.148912 2.28002 25
-23.18021 -34.51249 11.12922 10
-17.8416 -27.10982 0.186696 9
-16.30273 -20.32437 0 15
-19.94509 -20.678 -0.1502198 12
nan nan nan 0
nan nan nan 0
-27.82442 -34.78965 1.033345 41
-22.67052 -23.59355 0.5590243 9
-22.77594 -19.73619 0.3677317 5
nan nan nan 0
nan nan nan 0
-3.701124 -5.609425 -0.9282295 31
-4.795132 -7.134699 -0.8103544 29
-5.888305 -8.829566 -0.6781837 79
-6.376062 -7.910492 -0.7076793 26
-7.038293 -7.245534 -0.7600475 20
-7.559859 -6.486955 -0.8105028 13
-7.484966 -11.38888 -0.5529075 99
-7.950083 -9.962911 -0.5925412 17
-8.489715 -8.821581 -0.6395453 14
-9.041214 -7.836087 -0.6938462 10
-10.41782 -15.72966 -0.3286288 23
-10.96476 -13.63935 -0.4053765 21
-11.16769 -11.53889 -0.4670145 30
-11.40549 -9.827851 -0.5191234 34
nan nan nan 0
-6.242593 -5.344635 -0.9202442 15
-36.53485 -31.31034 1.930941 10
-25.8908 -38.91466 2.717298 18
-36.73019 -31.1349 3.913188 5
-19.53216 -29.05741 4.294066 17
-10.67433 -9.050346 2.543617 37
-23.31677 -34.45537 11.13698 9
-17.99414 -27.13489 0.1873007 9
nan nan nan 0
-19.99973 -20.59032 -0.1500889 14
-17.05078 -14.61628 -0.2621669 16
nan nan nan 0
-27.97704 -34.73124 1.034505 41
-20.20791 -20.88454 0.496426 33
-22.87123 -19.67939 0.3681593 6
nan nan nan 0
-0.1904064 -0.2811159 -0.07835092 9
-3.723421 -5.600598 -0.9289176 32
-4.822795 -7.122039 -0.8108257 27
-5.91631 -8.804816 -0.6778637 67
-6.406779 -7.892061 -0.7080281 20
-7.070516 -7.228048 -0.7608007 23
-7.593842 -6.470215 -0.811724 12
-7.444732 -11.24186 -0.5470126 106
-7.987941 -9.938993 -0.592774 17
-8.576062 -8.849255 -0.6437322 14
-9.098792 -7.830514 -0.6961697 11
-10.49763 -15.73063 -0.3294142 24
-11.02488 -13.61654 -0.4058407 23
-11.25674 -11.54994 -0.4690545 36
-11.45492 -9.800969 -0.5198144 40
-4.44749 -3.837809 -1.05826 49
-6.272575 -5.332458 -0.9219214 19
-36.70861 -31.23765 1.934352 9
-19.60154 -29.23745 2.045815 17
-36.92253 -31.07709 3.922106 7
-19.60565 -28.94796 4.287972 18
-10.72091 -9.025696 2.547203 19
-6.672135 -9.779096 3.161475 132
-18.1554 -27.1717 0.1879919 9
nan nan nan 0
-20.09945 -20.54898 -0.1502983 22
nan nan nan 0
-25.95835 -38.89805 1.378594 33
-28.1296 -34.67219 1.035666 36
-20.36093 -20.89622 0.4983929 16
-23.04243 -19.6871 0.3698086 5
nan nan nan 0
-0.2046771 -0.3006594 -0.08466953 8
-3.742948 -5.587567 -0.9289176 29
-4.85043 -7.109275 -0.8112972 30
-5.910669 -8.730377 -0.6737031 71
-6.440601 -7.877374 -0.7087258 19
-7.102703 -7.210426 -0.761554 20
-7.623992 -6.450102 -0.8125382 13
-7.564293 -11.33635 -0.5529075 104
-7.981741 -9.860575 -0.5897462 17
-8.547606 -8.758525 -0.6392837 14
-9.129867 -7.801947 -0.6964601 10
nan nan nan 0
-11.05023 -13.55085 -0.4050283 26
nan nan nan 0
-11.50811 -9.777094 -0.5206782 39
-4.606671 -3.946972 -1.09306 37
-6.29115 -5.31053 -0.9219214 19
-36.90139 -31.18025 1.938767 10
-19.73421 -29.21435 2.04901 25
-37.08815 -30.99594 3.928186 9
-7.286755 -10.67257 1.581864 10
-10.74103 -8.978758 2.544513 24
-6.698027 -9.743802 3.157592 22
-18.2613 -27.12475 0.1881071 9
nan nan nan 0
-20.27632 -20.58555 -0.1510837 29
-17.43121 -14.73242 -0.266435 14
-19.734 -29.34614 1.04224 11
-28.28208 -34.6125 1.036826 37
nan nan nan 0
-33.32619 -28.26965 0.5334554 9
nan nan nan 0
-0.2164141 -0.3160737 -0.08972443 8
-3.765196 -5.578574 -0.9296057 31
-4.88085 -7.100509 -0.81224 29
-5.957966 -8.734434 -0.6756233 81
-6.47123 -7.858695 -0.7090745 17
-7.134852 -7.192667 -0.7623073 20
-7.654097 -6.429857 -0.8133524 13
-7.587104 -11.285 -0.5516878 113
-8.082375 -9.913957 -0.5946374 16
-8.602628 -8.753559 -0.6411154 14
-9.16466 -7.776485 -0.697041 9
-10.53152 -15.54519 -0.3270581 27
-11.10064 -13.51606 -0.4051444 25
-11.32656 -11.46041 -0.4686174 41
-11.56127 -9.752966 -0.5215419 34
-4.63167 -3.940421 -1.095737 36
-6.31346 -5.291728 -0.9224805 18
-37.05594 -31.08978 1.941175 11
nan nan nan 0
-14.5363 -12.06711 1.533415 20
-7.270557 -10.56936 1.570286 34
-10.78745 -8.953771 2.5481 40
-6.731998 -9.720363 3.157592 39
-18.4148 -27.14775 0.1887118 9
-16.54036 -20.04078 0 14
-20.35158 -20.51819 -0.1511099 36
-17.33314 -14.54617 -0.2641548 22
nan nan nan 0
-28.43449 -34.55216 1.037987 31
nan nan nan 0
-33.40937 -28.14027 0.533211 31
nan nan nan 0
-0.2094573 -0.3032465 -0.08593326 8
-3.787428 -5.569494 -0.9302937 31
-4.908438 -7.087522 -0.8127114 29
-6.047724 -8.799971 -0.6823444 53
-6.501806 -7.839898 -0.7094233 17
-7.166965 -7.174772 -0.7630606 23
-7.687981 -6.41267 -0.8145737 14
nan nan nan 0
-8.145452 -9.920429 -0.5967336 15
-8.636645 -8.727026 -0.6413772 13
-9.195566 -7.747662 -0.6973314 11
-10.74066 -15.73548 -0.3318575 25
-11.23376 -13.58123 -0.4082779 24
-11.37707 -11.43143 -0.4690545 35
-11.61824 -9.731795 -0.5225784 34
-3.671298 -3.1028 -0.8646327 10
-6.335714 -5.272833 -0.9230396 18
-37.24485 -31.02739 1.945389 9
nan nan nan 0
nan nan nan 0
-7.355435 -10.61327 1.580645 8
-10.89458 -8.978598 2.566031 30
-6.787982 -9.728499 3.167945 43
-18.53765 -27.12458 0.1889998 9
nan nan nan 0
-20.49022 -20.51424 -0.1516073 37
-17.4568 -14.54638 -0.2652657 15
nan nan nan 0
-28.58682 -34.49118 1.039147 35
nan nan nan 0
-33.76054 -28.23514 0.5372426 8
nan nan nan 0
-0.2078143 -0.2984996 -0.08466953 8
-3.806846 -5.55624 -0.9302937 30
-4.935994 -7.07443 -0.8131828 28
-6.075567 -8.774702 -0.6820243 68
-6.535526 -7.824811 -0.7101208 18
-7.199039 -7.156739 -0.7638138 22
-7.717998 -6.392148 -0.8153878 12
nan nan nan 0
-8.202307 -9.918882 -0.5983641 17
-8.649429 -8.679144 -0.6400687 14
-9.237876 -7.728321 -0.6984931 11
-10.76438 -15.65257 -0.3308976 29
-11.16594 -13.40366 -0.4040999 22
-11.38152 -11.35635 -0.4675974 32
-11.67519 -9.710343 -0.5236149 35
-3.697194 -3.102599 -0.8682019 14
-6.361745 -5.25701 -0.9241577 19
-37.42608 -30.95769 1.949201 8
-26.74471 -38.71563 2.735595 20
-14.51604 -11.88014 1.522471 80
nan nan nan 0
-10.90301 -8.921833 2.560652 32
-6.838554 -9.72846 3.175709 12
-18.6634 -27.10501 0.1893166 9
-20.25498 -24.19606 0 9
-20.61843 -20.49899 -0.1520262 26
-17.72708 -14.66697 -0.2685983 14
nan nan nan 0
-28.73908 -34.42957 1.040308 37
nan nan nan 0
-23.71127 -19.6924 0.3761004 7
nan nan nan 0
-0.2034264 -0.2897634 -0.08214208 8
-3.829028 -5.546996 -0.9309819 28
-4.963518 -7.06123 -0.8136542 28
-6.114717 -8.765722 -0.6829845 66
-6.57564 -7.817221 -0.711516 17
-7.231074 -7.13857 -0.7645671 19
-7.744114 -6.36833 -0.8157949 13
nan nan nan 0
-8.281622 -9.943929 -0.6016249 16
-8.630148 -8.599565 -0.6364052 14
-9.28016 -7.708779 -0.6996549 10
-10.75634 -15.52448 -0.3289779 26
-11.23193 -13.38758 -0.4047962 16
-11.40689 -11.30248 -0.4670145 36
-11.7437 -9.698155 -0.5251697 36
-4.740775 -3.948318 -1.111798 35
-6.3839 -5.23792 -0.9247168 19
-23.45631 -19.2675 1.217599 29
-26.7514 -38.43766 2.722526 48
-14.67734 -11.92679 1.535037 37
nan nan nan 0
-14.04272 -11.40734 3.290473 37
-7.589362 -10.71778 3.508292 26
-18.80064 -27.10133 0.1897485 9
-20.39088 -24.18637 0 11
nan nan nan 0
nan nan nan 0
-26.71864 -38.56234 1.383017 43
-28.89125 -34.3673 1.041468 32
-22.03285 -21.83618 0.5299486 5
-34.16515 -28.17049 0.5405412 9
nan nan nan 0
-0.2017084 -0.2850566 -0.08087836 8
-3.851192 -5.537664 -0.93167 30
-4.99101 -7.047926 -0.8141257 29
-6.096539 -8.674899 -0.6775436 79
-6.615781 -7.809445 -0.7129111 27
-7.26307 -7.120265 -0.7653204 25
-7.77402 -6.347559 -0.8166091 12
-7.8406 -11.31763 -0.5585992 107
-8.329118 -9.930268 -0.6025566 16
-8.763056 -8.671222 -0.6439939 13
-9.326273 -7.692209 -0.701107 10
-10.87339 -15.57704 -0.3308976 23
-11.35278 -13.43612 -0.4074655 22
-11.41777 -11.23455 -0.4658488 32
-11.78522 -9.663438 -0.5255153 31
nan nan nan 0
-6.405999 -5.21874 -0.9252759 18
-23.57376 -19.22654 1.220207 8
-26.82524 -38.25821 2.716427 6
-13.74125 -11.0872 1.43289 7
nan nan nan 0
nan nan nan 0
-7.660368 -10.73842 3.523821 43
-18.93809 -27.09702 0.1901805 10
-20.48812 -24.1303 0 11
nan nan nan 0
-17.51904 -14.29011 -0.2639209 6
nan nan nan 0
-29.06594 -34.3311 1.043441 31
-22.03054 -21.682 0.5280672 6
-34.27876 -28.06372 0.5407856 5
nan nan nan 0
-0.2136709 -0.3002924 -0.08593326 8
-3.873337 -5.528245 -0.932358 29
-5.01847 -7.034514 -0.814597 27
-6.103733 -8.620975 -0.6749833 84
-6.655947 -7.801484 -0.7143062 18
-7.295027 -7.101823 -0.7660736 21
-7.800004 -6.32352 -0.8170162 14
-7.874342 -11.282 -0.5581927 110
-8.354063 -9.889686 -0.6018578 15
-8.679288 -8.528607 -0.6356202 14
-9.36852 -7.672252 -0.7022688 10
-10.96219 -15.58807 -0.3319448 28
-11.38342 -13.37737 -0.4068852 20
-11.48552 -11.22257 -0.4670145 30
-11.83051 -9.631701 -0.5260335 35
-4.730174 -3.883937 -1.102875 43
-6.416446 -5.190103 -0.9241577 19
-23.71063 -19.20071 1.223819 7
nan nan nan 0
-14.60074 -11.69634 1.518418 7
-7.087913 -9.927749 1.492899 13
-13.48449 -10.79882 3.14164 47
-7.545691 -10.49977 3.45394 72
-19.10738 -27.13705 0.1909292 8
-16.87136 -19.73006 0 12
nan nan nan 0
nan nan nan 0
nan nan nan 0
-29.20506 -34.25225 1.044138 28
-22.03816 -21.53858 0.5264424 6
-23.60967 -19.19392 0.3712747 8
nan nan nan 0
nan nan nan 0
-3.89261 -5.514691 -0.932358 31
-5.0488 -7.025042 -0.8155398 30
-6.087462 -8.534595 -0.6698625 84
-6.699389 -7.797122 -0.7160501 21
-7.330528 -7.08671 -0.7672035 20
-7.825913 -6.299377 -0.8174232 13
-7.907932 -11.24626 -0.5577861 106
-8.385298 -9.85666 -0.6016249 16
-8.826952 -8.613319 -0.6442556 14
-9.41074 -7.652092 -0.7034305 9
-10.90098 -15.38651 -0.3284543 31
-11.46257 -13.37552 -0.4080457 22
-11.51386 -11.17197 -0.4665774 34
-11.80963 -9.546386 -0.5236149 31
nan nan nan 0
-5.709702 -4.586358 -0.8196099 16
-38.15062 -30.66998 1.964451 10
-26.1744 -36.78069 2.624359 5
-14.17333 -11.27318 1.469776 34
-7.128316 -9.911007 1.494118 40
-13.57217 -10.79146 3.153296 47
-6.905784 -9.538115 3.144651 40
-19.28297 -27.18439 0.1917356 9
-20.83552 -24.19507 0 8
nan nan nan 0
nan nan nan 0
nan nan nan 0
-29.38631 -34.22216 1.046342 28
-21.9697 -21.32226 0.5230218 6
-34.68396 -27.99327 0.5440841 12
nan nan nan 0
-0.2129922 -0.2948272 -0.08466953 8
-3.914703 -5.505108 -0.9330461 29
-5.076208 -7.011409 -0.8160113 28
-6.111397 -8.505188 -0.6692224 88
-6.736354 -7.785006 -0.7170965 21
-7.362415 -7.067982 -0.7679568 20
-7.855644 -6.27824 -0.8182374 14
-7.903848 -11.15742 -0.554737 108
-8.357922 -9.755255 -0.5971995 16
-8.817516 -8.54424 -0.6413772 14
-9.452935 -7.631732 -0.7045923 10
-10.95753 -15.35243 -0.3285415 23
-11.50266 -13.32785 -0.4078136 22
-11.56359 -11.14211 -0.4670145 35
-11.82339 -9.489473 -0.5227512 31
nan nan nan 0
-6.471959 -5.160657 -0.9269531 21
-38.35507 -30.61453 1.969468 7
-25.81411 -36.00751 2.575567 9
-14.34561 -11.32861 1.483558 43
nan nan nan 0
-13.47073 -10.63434 3.121018 33
-6.927659 -9.498338 3.139475 47
-19.47365 -27.25118 0.1926859 9
-8.875167 -10.23213 0 9
-22.30762 -21.41717 -0.1617128 7
-17.82795 -14.23373 -0.2663181 13
-26.06423 -36.51753 1.322559 5
nan nan nan 0
-21.9252 -21.13096 0.5201997 7
-34.85169 -27.9283 0.5451837 11
nan nan nan 0
-0.2001013 -0.2742996 -0.07835092 9
-3.936777 -5.495439 -0.9337342 31
-5.106513 -7.001694 -0.8169541 29
-6.15859 -8.508064 -0.6711426 85
-6.776593 -7.776488 -0.7184917 20
-7.390651 -7.045679 -0.7683334 22
-7.885321 -6.25697 -0.8190516 14
-7.928245 -11.10943 -0.5537206 103
-8.421283 -9.760058 -0.5992957 16
-8.865278 -8.530717 -0.6426855 13
-9.491205 -7.608048 -0.7054635 9
-11.04023 -15.35469 -0.3294142 26
-8.95234 -10.29932 -0.3158989 10
-11.60602 -11.10513 -0.4671602 35
-11.78608 -9.392114 -0.5196416 33
-4.793611 -3.852663 -1.108229 37
nan nan nan 0
-38.54002 -30.54251 1.973481 8
-25.56271 -35.39512 2.5381 36
-13.36906 -10.48239 1.378574 43
-7.25289 -9.937188 1.505696 38
-13.53874 -10.61152 3.128191 41
-6.815022 -9.275537 3.073476 39
-19.64166 -27.28449 0.1934058 9
-8.900964 -10.18979 0 34
-22.33881 -21.29777 -0.1613986 12
-17.52092 -13.88887 -0.2609976 15
-25.7598 -35.82573 1.300735 10
-8.904097 -10.22203 0.3138099 29
-21.86519 -20.92641 0.5170355 7
-35.06244 -27.89673 0.5469552 10
nan nan nan 0
-0.2038551 -0.2775462 -0.07961464 8
-3.95883 -5.485682 -0.9344223 30
-5.133868 -6.98784 -0.8174255 29
-6.120682 -8.393752 -0.6637815 88
-6.813565 -7.764034 -0.719538 22
-7.422443 -7.026692 -0.7690867 20
-7.914947 -6.235571 -0.8198657 14
-7.952403 -11.0614 -0.5527042 106
-8.494605 -9.77585 -0.6020907 16
-8.884171 -8.489371 -0.6419005 15
-9.533333 -7.587298 -0.7066253 9
nan nan nan 0
-8.965193 -10.24168 -0.3150865 23
-11.66283 -11.08177 -0.4678888 32
-11.93639 -9.443889 -0.5248242 34
-4.822422 -3.848168 -1.111798 35
-6.449203 -5.069331 -0.9185669 29
-38.721 -30.46648 1.977293 8
-25.78593 -35.44292 2.547975 48
-13.41343 -10.44178 1.379385 100
-7.184703 -9.771823 1.484368 34
nan nan nan 0
-6.884686 -9.302175 3.090299 34
-19.81015 -27.31697 0.1941258 9
-8.9728 -10.19996 0 35
nan nan nan 0
nan nan nan 0
-25.63261 -35.38746 1.288054 44
-8.956203 -10.20967 0.3143902 37
-21.7859 -20.70532 0.5134438 7
-35.24592 -27.84234 0.548299 9
nan nan nan 0
-0.207634 -0.2807698 -0.08087836 8
-3.980863 -5.475837 -0.9351104 33
-5.164145 -6.977882 -0.8183683 28
-6.146992 -8.368311 -0.6634615 94
-6.850533 -7.751418 -0.7205843 23
-7.454192 -7.007568 -0.7698399 23
-7.956299 -6.223245 -0.8219011 13
-8.011468 -11.0619 -0.5541272 105
-8.446464 -9.652162 -0.5962678 17
nan nan nan 0
-9.563677 -7.557068 -0.7069157 9
-11.29443 -15.47921 -0.3337772 22
-8.987668 -10.19532 -0.3146223 32
-11.63964 -10.98269 -0.4654116 34
-11.98501 -9.414507 -0.5255153 34
-4.650604 -3.684823 -1.068968 63
nan nan nan 0
-38.88618 -30.37726 1.980303 9
-25.94489 -35.40101 2.551461 53
nan nan nan 0
-7.227625 -9.758654 1.486197 48
-13.62807 -10.52877 3.131778 36
-7.000779 -9.390412 3.127828 38
-19.95552 -27.31629 0.1946154 9
-9.024925 -10.18729 0 27
nan nan nan 0
nan nan nan 0
-25.90619 -35.5037 1.295574 60
-8.988479 -10.1746 0.3142741 35
-21.7526 -20.52964 0.5109639 7
-35.40584 -27.7685 0.5492764 8
nan nan nan 0
-0.2086128 -0.2800434 -0.08087836 8
-4.002876 -5.465906 -0.9357985 29
-5.191443 -6.963805 -0.8188397 28
-6.214723 -8.398968 -0.6676221 89
-6.884179 -7.73491 -0.7212819 21
-7.485898 -6.988309 -0.7705932 21
-7.993724 -6.207652 -0.8235295 14
-8.064745 -11.05406 -0.5551435 98
-8.483406 -9.626367 -0.5965008 16
nan nan nan 0
-9.597854 -7.529797 -0.7074966 8
-11.24777 -15.3027 -0.3308103 21
-9.019884 -10.16015 -0.3145062 20
-11.70344 -10.96591 -0.4664316 35
-12.06115 -9.406402 -0.5274155 32
nan nan nan 0
-6.126831 -4.747496 -0.8676907 66
-39.08673 -30.31481 1.985119 10
-25.74521 -34.87247 2.519803 28
-13.5651 -10.40853 1.387492 17
-7.291304 -9.773153 1.49229 39
-13.83261 -10.60981 3.170331 16
-6.992937 -9.311832 3.109711 37
-20.09519 -27.30688 0.1950473 10
-9.04379 -10.13707 0 8
-21.46779 -20.04253 -0.1535708 13
nan nan nan 0
-25.80801 -35.11099 1.284515 32
-9.02394 -10.14316 0.3142741 9
-21.76211 -20.39547 0.50951 7
-35.55384 -27.68466 0.5500705 8
nan nan nan 0
-0.2124277 -0.2832307 -0.08214208 8
-4.021931 -5.4519 -0.9357985 31
-5.218707 -6.949624 -0.8193111 32
-6.258902 -8.397234 -0.6692224 86
-6.921122 -7.721978 -0.7223282 20
-7.517561 -6.968914 -0.7713465 19
-8.035086 -6.194914 -0.8255649 13
-8.11511 -11.04195 -0.5559566 102
-8.490438 -9.566806 -0.5946374 16
-8.892363 -8.32083 -0.6361435 15
-9.612263 -7.487052 -0.7066253 11
-11.34869 -15.32764 -0.3322065 23
-11.74017 -13.13253 -0.4080457 18
-11.75628 -10.9386 -0.4670145 36
-12.13344 -9.394822 -0.529143 33
-4.334778 -3.386081 -0.9904461 117
nan nan nan 0
-39.2794 -30.24524 1.989534 9
-25.83105 -34.73433 2.516318 41
-13.61325 -10.37017 1.388708 47
nan nan nan 0
-14.15532 -10.77891 3.235782 23
nan nan nan 0
-20.27076 -27.34503 0.1958249 9
nan nan nan 0
-21.47528 -19.90969 -0.1531258 23
nan nan nan 0
-25.80849 -34.856 1.278469 53
nan nan nan 0
-21.74168 -20.23424 0.5073721 8
-35.7729 -27.65517 0.5519641 7
nan nan nan 0
-0.2134151 -0.2824874 -0.08214208 8
-4.043888 -5.441805 -0.9364865 29
-5.245935 -6.935338 -0.8197826 30
-6.297157 -8.38731 -0.6701825 71
-6.958058 -7.70888 -0.7233746 20
-7.552847 -6.952758 -0.7724764 20
-8.076456 -6.181963 -0.8276004 6
-8.07933 -10.91314 -0.5508748 115
nan nan nan 0
-8.90672 -8.276146 -0.6350968 14
-9.673888 -7.480919 -0.7092392 11
-11.3364 -15.19975 -0.3302868 27
-11.71572 -13.01345 -0.4056086 28
nan nan nan 0
-12.17408 -9.3585 -0.5294886 32
-4.770637 -3.699157 -1.087706 48
nan nan nan 0
-39.47206 -30.17468 1.993948 10
-26.36206 -35.19131 2.556107 45
-13.59768 -10.28353 1.383438 37
-7.416233 -9.797219 1.503868 47
-13.54919 -10.24316 3.088742 23
-7.174789 -9.416501 3.161475 13
-20.40198 -27.32219 0.1961704 7
nan nan nan 0
-21.60351 -19.88879 -0.1535446 13
nan nan nan 0
nan nan nan 0
nan nan nan 0
-21.81218 -20.15823 0.5073721 9
-35.92078 -27.5697 0.5527582 8
nan nan nan 0
-0.2058019 -0.2700488 -0.07835092 7
-4.062859 -5.427656 -0.9364865 30
-5.27614 -6.924905 -0.8207254 30
-6.329404 -8.369259 -0.6705025 65
-6.991634 -7.691929 -0.7240722 19
-7.588112 -6.93644 -0.7736063 21
-8.094016 -6.15072 -0.8271933 11
-8.171104 -10.95698 -0.5545337 105
-8.613813 -9.570418 -0.598597 16
-9.001616 -8.305945 -0.639807 14
-9.719746 -7.462295 -0.7106913 11
nan nan nan 0
-11.67043 -12.87247 -0.4024752 37
-10.83426 -9.940705 -0.4275259 7
-12.24641 -9.34625 -0.5312161 33
-4.877144 -3.754426 -1.109121 43
-6.64761 -5.039982 -0.9342211 18
-39.68064 -30.11523 1.999165 7
-26.55388 -35.19073 2.562787 52
-13.62153 -10.22703 1.382222 43
-7.474445 -9.802854 1.508742 38
-13.60847 -10.21351 3.094121 81
-7.228186 -9.418227 3.170533 16
-17.38722 -23.11468 0.1663647 30
nan nan nan 0
-21.70602 -19.84361 -0.1537803 21
nan nan nan 0
-26.50143 -35.27439 1.300588 39
nan nan nan 0
-21.86031 -20.06169 0.5068591 7
-36.14804 -27.54412 0.554774 9
nan nan nan 0
-0.2009841 -0.2615542 -0.07582346 8
-4.084759 -5.417398 -0.9371747 31
-5.303309 -6.910397 -0.8211968 29
-6.358579 -8.347115 -0.6705025 71
-7.028543 -7.678515 -0.7251185 23
-7.619664 -6.916612 -0.7743596 23
-8.147277 -6.146422 -0.8304499 8
-8.12833 -10.82051 -0.5490453 109
-8.65052 -9.543993 -0.5988299 14
-9.030556 -8.274472 -0.639807 14
-9.773533 -7.44949 -0.7127244 10
-11.38494 -15.04448 -0.3286288 22
-11.80291 -12.92765 -0.4054925 20
-10.90953 -9.939846 -0.4291288 14
-12.28693 -9.309477 -0.5315616 25
-4.905865 -3.749315 -1.11269 38
-6.673106 -5.022717 -0.9353393 18
-37.73042 -28.42847 1.895826 47
-26.70072 -35.12962 2.565111 54
-13.64515 -10.17049 1.381006 46
-7.360583 -9.58378 1.478884 43
-13.51778 -10.07194 3.06543 40
-7.774686 -10.05803 3.395706 46
nan nan nan 0
-17.49895 -19.07397 0 12
-21.82698 -19.81477 -0.1541468 24
nan nan nan 0
nan nan nan 0
nan nan nan 0
-21.90434 -19.96169 0.5062604 7
-36.37157 -27.51428 0.5567287 11
nan nan nan 0
nan nan nan 0
-4.103644 -5.403107 -0.9371747 29
-5.333482 -6.899723 -0.8221397 30
-6.424103 -8.372391 -0.6743432 69
-7.065443 -7.664938 -0.7261649 19
-7.654874 -6.899984 -0.7754895 19
-8.14873 -6.10302 -0.8284145 13
-8.193168 -10.82794 -0.5508748 114
-8.673684 -9.502671 -0.5981312 15
-9.088932 -8.269778 -0.6419005 14
-9.835312 -7.44242 -0.7153383 9
-11.64945 -15.28302 -0.3347372 26
-11.81752 -12.85325 -0.4044481 27
nan nan nan 0
-12.29938 -9.251519 -0.5306978 31
nan nan nan 0
-6.634847 -4.957793 -0.9275122 24
-37.83742 -28.30258 1.896227 27
-26.85048 -35.07187 2.567725 55
nan nan nan 0
-7.372747 -9.530542 1.474619 40
-13.52913 -10.00715 3.060051 40
-7.791955 -10.00795 3.387941 41
-17.27219 -22.63099 0.1637442 17
nan nan nan 0
-21.93316 -19.77194 -0.1544086 18
nan nan nan 0
-26.79248 -35.14815 1.3028 47
nan nan nan 0
-21.98871 -19.89852 0.5066025 7
-36.61132 -27.49522 0.5589278 12
nan nan nan 0
nan nan nan 0
-4.125485 -5.392685 -0.9378628 28
-5.36059 -6.884993 -0.822611 29
-6.431944 -8.322268 -0.6721028 89
-7.098941 -7.647542 -0.7268624 18
-7.686343 -6.87987 -0.7762427 21
-8.165983 -6.071567 -0.8280074 13
nan nan nan 0
-8.683146 -9.446592 -0.5965008 16
-9.091807 -8.214574 -0.6400687 14
-9.845263 -7.396059 -0.7141766 10
-11.72098 -15.26606 -0.3352607 24
-11.88608 -12.8376 -0.4052604 18
-11.84501 -10.64159 -0.4630802 30
-12.33159 -9.20853 -0.5306978 30
-4.73138 -3.564185 -1.067183 82
nan nan nan 0
-38.00819 -28.22393 1.899839 17
-27.00017 -35.01352 2.570339 52
-14.11355 -10.36692 1.421135 47
-7.44865 -9.559573 1.48315 48
nan nan nan 0
nan nan nan 0
nan nan nan 0
-21.7081 -23.33347 0 12
-22.0691 -19.75528 -0.1548798 16
-14.41592 -10.70908 -0.2095464 18
-26.95761 -35.10992 1.304864 56
-31.1135 -33.53794 1.061197 14
-22.08778 -19.84838 0.5072866 6
-36.7632 -27.40909 0.559783 13
nan nan nan 0
-0.2183127 -0.2787198 -0.08214208 8
-4.144284 -5.378251 -0.9378628 28
-5.390729 -6.874076 -0.8235539 32
-6.442576 -8.276133 -0.6701825 91
-7.132403 -7.630002 -0.7275599 20
-7.717766 -6.859621 -0.776996 21
-8.195148 -6.048939 -0.8288215 13
nan nan nan 0
-8.709283 -9.408894 -0.5960349 15
-9.090689 -8.156115 -0.6379753 14
-9.875023 -7.36463 -0.714467 12
-11.70389 -15.13408 -0.3332537 24
-11.95468 -12.82162 -0.4060728 26
-11.90073 -10.61681 -0.4638088 39
-12.35563 -9.15948 -0.5303523 29
-4.759562 -3.55942 -1.070753 59
nan nan nan 0
-37.71637 -27.80358 1.880375 12
-27.15284 -34.95848 2.573243 48
-14.13757 -10.30879 1.419919 45
-7.267621 -9.26014 1.440496 47
-13.24082 -9.651801 2.979358 46
-7.969344 -10.0898 3.434529 64
-16.61571 -21.45811 0.1560839 8
-21.86461 -23.33783 0 11
-22.16782 -19.70469 -0.1550892 16
-14.44517 -10.65276 -0.2094295 34
-27.11974 -35.067 1.306781 52
-31.28157 -33.48392 1.062938 14
-22.20543 -19.81442 0.5083983 6
-36.95108 -27.34899 0.5611879 10
nan nan nan 0
-0.20755 -0.2625693 -0.07708719 8
-4.166066 -5.367667 -0.9385508 28
-5.417774 -6.859126 -0.8240253 30
-6.449889 -8.226095 -0.6679422 97
-7.16583 -7.612325 -0.7282575 23
-7.75288 -6.842535 -0.7781259 22
-8.228278 -6.029126 -0.8300428 13
-8.315269 -10.75341 -0.5514846 100
-8.759098 -9.396705 -0.5971995 16
-9.167578 -8.167506 -0.6413772 14
-9.904682 -7.333082 -0.7147574 10
-11.5816 -14.86828 -0.3282797 22
-11.91041 -12.68506 -0.4030554 33
-11.93023 -10.56858 -0.4635174 60
-12.44791 -9.1607 -0.5329436 38
-4.835201 -3.58965 -1.085029 43
nan nan nan 0
-14.41108 -10.55027 0.7157505 41
-27.30238 -34.89887 2.575857 56
-14.2946 -10.347 1.432079 47
-7.207627 -9.117876 1.422215 62
-13.29038 -9.617053 2.982944 45
-7.538711 -9.475901 3.233944 40
-17.52667 -22.47254 0.1639169 17
nan nan nan 0
-22.30769 -19.69006 -0.1555867 18
-14.47823 -10.59932 -0.209371 31
-27.2512 -34.98396 1.307224 50
-31.42223 -33.40001 1.063751 13
-22.2782 -19.7401 0.5084838 6
-14.40546 -10.58847 0.2179513 40
nan nan nan 0
-0.2202532 -0.2771889 -0.08214208 9
-4.187824 -5.356997 -0.9392389 30
-5.447877 -6.847967 -0.8249681 29
-6.540374 -8.28188 -0.6743432 74
-7.195789 -7.590885 -0.7286063 18
-7.784218 -6.822002 -0.7788792 22
-8.257337 -6.006225 -0.830857 13
-8.365028 -10.74009 -0.5522977 100
-8.79868 -9.373356 -0.5976654 16
-9.169849 -8.1123 -0.6395453 14
-9.962405 -7.322099 -0.7170809 9
-11.78458 -15.02053 -0.3325556 23
-12.04733 -12.74148 -0.4061889 35
-11.97831 -10.53677 -0.4639545 41
-12.54439 -9.164335 -0.5357077 34
-4.998294 -3.683532 -1.118936 39
-6.779864 -4.920068 -0.9381347 19
-14.48016 -10.52339 0.7173558 17
-27.45492 -34.84257 2.578761 54
-14.22943 -10.22437 1.421946 68
-7.196159 -9.038286 1.413684 58
nan nan nan 0
-7.632109 -9.524932 3.259826 83
-17.45988 -22.22639 0.1625634 8
-22.34382 -23.51813 0 9
-22.37253 -19.60877 -0.1555605 18
-14.53132 -10.56047 -0.2096049 11
-27.404 -34.92794 1.308698 51
-31.61082 -33.36633 1.066188 11
-22.4333 -19.73817 0.5104507 6
-14.49081 -10.57347 0.2186843 35
nan nan nan 0
-0.2241797 -0.2802445 -0.08340581 8
-4.209558 -5.346239 -0.939927 32
-5.474858 -6.832795 -0.8254395 29
-6.516473 -8.192587 -0.6689023 76
-7.229129 -7.572938 -0.7293039 20
-7.815507 -6.801332 -0.7796324 20
-8.286337 -5.983195 -0.8316712 12
-8.396303 -10.70296 -0.5518911 101
-8.827916 -9.338956 -0.5974324 16
-9.265642 -8.139548 -0.6442556 14
-10.02017 -7.310801 -0.7194043 9
-11.9175 -15.08131 -0.3348244 25
-12.23649 -12.85141 -0.4110631 22
-11.92091 -10.41271 -0.4603117 46
-12.73816 -9.237781 -0.5426178 36
-4.836305 -3.538398 -1.079675 69
-6.805064 -4.902175 -0.9392529 18
-37.97709 -27.38664 1.878971 32
-27.6074 -34.78562 2.581666 49
-14.24069 -10.15728 1.419514 42
-7.174915 -8.947269 1.403325 38
-13.46535 -9.601103 3.007152 37
-7.713816 -9.558389 3.280531 45
nan nan nan 0
nan nan nan 0
-22.4069 -19.50102 -0.1553249 21
nan nan nan 0
-27.55053 -34.86344 1.309878 50
-31.7616 -33.29195 1.067348 12
-22.55101 -19.7025 0.5115625 6
nan nan nan 0
nan nan nan 0
-0.2251566 -0.2794603 -0.08340581 8
-4.228195 -5.331512 -0.939927 27
-5.504924 -6.821393 -0.8263823 28
-6.56062 -8.189268 -0.6705025 78
-7.258977 -7.551254 -0.7296527 19
-7.85052 -6.783787 -0.7807624 19
-8.315274 -5.960036 -0.8324853 13
-8.396464 -10.62653 -0.5494518 111
-8.853575 -9.300848 -0.5969666 16
-9.324103 -8.13341 -0.646349 14
-10.06585 -7.290412 -0.7208565 12
-11.94206 -15.0044 -0.334039 25
-12.25014 -12.77615 -0.4100187 22
-11.99872 -10.40705 -0.4619145 37
-12.80683 -9.219522 -0.5441726 37
nan nan nan 0
-6.805961 -4.866842 -0.9370165 21
-38.10902 -27.28008 1.880776 25
-27.76294 -34.73193 2.58486 46
-13.82448 -9.788015 1.374521 52
-7.224802 -8.945344 1.406982 46
-13.49076 -9.54836 3.005359 38
-7.798892 -9.595138 3.302531 37
-16.21276 -20.3441 0.1496044 39
-20.22493 -20.99215 0 29
-22.54671 -19.4848 -0.1558223 17
nan nan nan 0
-27.69385 -34.79443 1.31091 51
nan nan nan 0
-22.65741 -19.65642 0.5124176 5
nan nan nan 0
nan nan nan 0
-0.2141828 -0.2634512 -0.07835092 8
-4.249867 -5.320593 -0.9406151 28
-5.531838 -6.806 -0.8268537 25
-6.617347 -8.201282 -0.673383 76
-7.292227 -7.533037 -0.7303502 18
-7.881721 -6.762836 -0.7815157 21
-8.344153 -5.936748 -0.8332995 12
-8.414851 -10.57369 -0.5482322 103
-8.913632 -9.298736 -0.5988299 15
-9.390184 -8.133499 -0.6489658 15
-10.09529 -7.258142 -0.721147 11
-12.00061 -14.97043 -0.3342136 30
-12.40576 -12.84839 -0.4137324 18
-12.02361 -10.35532 -0.4614774 36
-12.7332 -9.09926 -0.539681 35
nan nan nan 0
-6.790479 -4.820068 -0.9325439 28
-38.54206 -27.38704 1.897431 20
-27.91217 -34.6698 2.587474 46
-13.87487 -9.751156 1.376142 48
-7.459424 -9.170405 1.446589 71
-13.57231 -9.535126 3.016118 42
-8.012741 -9.788424 3.378882 38
-16.26803 -20.26788 0.1494604 15
-20.28068 -20.90348 0 32
-22.73222 -19.50691 -0.1566339 19
nan nan nan 0
-27.83701 -34.72485 1.311942 54
-20.23913 -20.9189 0.6748538 37
nan nan nan 0
nan nan nan 0
nan nan nan 0
nan nan nan 0
-4.268414 -5.305726 -0.9406151 32
-5.558712 -6.790503 -0.8273251 31
-6.680529 -8.220747 -0.6769035 74
-7.32544 -7.514681 -0.7310478 19
-7.912871 -6.741747 -0.7822689 23
-8.377041 -5.916202 -0.8345208 13
-8.432971 -10.52086 -0.5470126 110
-8.963378 -9.285535 -0.5999945 16
-9.433663 -8.113693 -0.6500126 14
-10.12057 -7.222859 -0.721147 11
-12.11244 -15.00237 -0.3358715 31
-12.42266 -12.77633 -0.412804 31
-12.04069 -10.29705 -0.4607488 40
-12.73635 -9.03453 -0.5384718 14
-5.069253 -3.627684 -1.123398 38
-6.677227 -4.704844 -0.9146533 38
-38.9314 -27.45963 1.911879 9
-28.07389 -34.62257 2.59125 44
-13.86794 -9.674165 1.372088 40
-7.485103 -9.13663 1.44537 36
-13.76695 -9.600183 3.051981 77
-7.773566 -9.428627 3.263708 42
nan nan nan 0
nan nan nan 0
-22.91055 -19.52147 -0.1573931 20
nan nan nan 0
-28.00828 -34.68969 1.314301 48
nan nan nan 0
nan nan nan 0
nan nan nan 0
nan nan nan 0
-0.2220438 -0.2695183 -0.08087836 8
-4.290023 -5.294644 -0.9413031 32
-5.588711 -6.778743 -0.8282679 30
-6.702867 -8.189651 -0.6762635 62
-7.362107 -7.499745 -0.7320942 18
-7.943969 -6.720522 -0.7830221 22
-8.405807 -5.892643 -0.835335 12
-8.485327 -10.5108 -0.5480289 101
-9.009659 -9.268517 -0.6009262 16
-9.465725 -8.083955 -0.6502743 14
-10.11312 -7.164418 -0.7188235 11
-12.22149 -15.02983 -0.3374422 23
-12.3483 -12.61145 -0.4088581 32
-12.11466 -10.2873 -0.4622059 35
-10.45877 -7.365386 -0.4408661 8
-5.069845 -3.60143 -1.120721 31
-6.685463 -4.675817 -0.9135352 43
-10.64233 -7.455784 0.5203087 44
-28.20404 -34.53596 2.592121 41
nan nan nan 0
nan nan nan 0
-13.71946 -9.496105 3.03405 43
-7.883523 -9.494359 3.29606 43
nan nan nan 0
nan nan nan 0
-23.06253 -19.51242 -0.157969 17
-10.62153 -7.44115 -0.1511962 14
-28.17019 -34.64213 1.316218 47
nan nan nan 0
-36.22171 -30.76397 0.8122401 14
-10.52133 -7.401028 0.156683 40
nan nan nan 0
-0.2199565 -0.2649677 -0.07961464 9
-4.314734 -5.287316 -0.9426793 27
-5.615516 -6.763025 -0.8287394 28
-6.77582 -8.22013 -0.6807442 73
-7.395255 -7.481097 -0.7327917 18
-7.975017 -6.699164 -0.7837754 20
-8.434509 -5.868953 -0.836149 13
-8.531416 -10.49275 -0.5486388 98
-9.052438 -9.247721 -0.6016249 17
-9.47865 -8.037949 -0.6492275 14
-10.2075 -7.177855 -0.7237609 10
-12.09023 -14.7627 -0.3323811 29
-12.41681 -12.59318 -0.4096705 31
-12.18106 -10.27072 -0.4633716 30
-10.5008 -7.340279 -0.4415572 6
-5.090432 -3.589375 -1.122506 35
-6.640492 -4.609992 -0.9051491 52
-10.64367 -7.401485 0.5191047 46
-28.37515 -34.49899 2.596768 43
nan nan nan 0
-7.678678 -9.240705 1.470353 91
-13.77686 -9.46486 3.039429 42
-7.95997 -9.518669 3.314178 41
-22.07364 -26.92154 0.2002885 6
nan nan nan 0
-23.14581 -19.44466 -0.1580737 20
-10.6228 -7.386912 -0.1508454 15
-28.3226 -34.58226 1.317693 50
nan nan nan 0
-36.41295 -30.70825 0.8141215 17
-10.56761 -7.37856 0.1569885 44
nan nan nan 0
-0.2148004 -0.2566718 -0.07708719 8
-4.32374 -5.260736 -0.9406151 31
-5.642281 -6.747203 -0.8292108 30
-6.778989 -8.165702 -0.6781837 76
-7.431877 -7.465843 -0.733838 17
-8.006011 -6.677671 -0.7845287 22
-8.46725 -5.847965 -0.8373703 13
-8.561662 -10.45517 -0.5482322 97
-9.102191 -9.233852 -0.6027895 16
-9.563949 -8.053046 -0.6531527 14
-10.24887 -7.1536 -0.7249226 11
nan nan nan 0
-12.60507 -12.69521 -0.4144287 30
-12.20534 -10.21852 -0.4629345 31
-13.02739 -9.037311 -0.5467639 43
-5.074699 -3.55186 -1.116259 38
nan nan nan 0
-10.67767 -7.36996 0.519506 43
-28.53042 -34.44202 2.599963 39
-15.36857 -10.48277 1.509905 34
-7.663137 -9.156734 1.461213 117
-13.76916 -9.389014 3.030463 35
-8.036682 -9.542561 3.332295 40
-22.24069 -26.93301 0.2009509 7
-23.49087 -23.54573 0 9
-23.19051 -19.34454 -0.1579167 17
-10.65675 -7.355464 -0.1509623 12
-28.46858 -34.51403 1.318873 42
nan nan nan 0
-36.53142 -30.59059 0.814378 14
-10.58097 -7.333089 0.1568052 47
nan nan nan 0
-0.2370658 -0.282189 -0.08593326 7
nan nan nan 0
-5.672206 -6.735084 -0.8301535 26
-6.781862 -8.111352 -0.6756233 78
-7.464954 -7.446902 -0.7345356 19
-8.040793 -6.659223 -0.7856585 23
-8.495835 -5.824003 -0.8381845 13
-8.569511 -10.39052 -0.5464027 101
-9.151958 -9.219749 -0.6039541 16
-9.614987 -8.038826 -0.6547228 14
-10.29841 -7.134827 -0.7266652 12
