# .PCD v0.7 - Point Cloud Data file format
VERSION 0.7
FIELDS x y z intensity
SIZE 4 4 4 4
TYPE F F F F
COUNT 1 1 1 1
WIDTH 1477
HEIGHT 1
VIEWPOINT 0 0 0 1 0 0 0
POINTS 1477
DATA ascii
-3.840037 0.2233025 0.1529021 34
-77.49484 -16.9902 4.613831 7
-3.839252 0.2439062 0.3096826 97
nan nan nan 0
-16.15948 1.047778 2.944391 24
nan nan nan 0
nan nan nan 0
-3.870501 -0.4781834 0 75
-3.85785 -0.1250669 -0.02000138 40
-3.842846 0.2235322 -0.044552 7
-3.870295 -0.8515539 0.1157553 41
-3.868804 -0.4833742 0.08959366 82
-3.862102 -0.132521 0.06542047 32
-3.853235 0.2168395 0.04666894 43
nan nan nan 0
-0.3228142 -0.06779537 -0.07582346 9
-3.962119 -0.8676568 -0.5580387 10
-4.608107 -0.9683108 -0.4421829 15
-3.898616 -0.8324839 -0.2531587 111
-3.877087 -0.4701904 -0.2703063 106
-3.872392 -0.1114997 -0.2896316 88
-3.88939 0.2390914 -0.3150825 74
nan nan nan 0
-3.879952 -0.4895668 -0.1805108 95
-3.862521 -0.1292235 -0.2004467 43
-3.866972 0.2182672 -0.2230531 52
-3.830212 -0.8294985 -0.06771533 53
-3.869967 -0.47401 -0.08959366 83
-3.846499 -0.1180191 -0.1110343 69
-3.850574 0.2280323 -0.1319834 7
-3.841571 0.2135319 -0.6906354 8
-4.135541 0.2596988 -0.4617994 10
-3.839234 0.2367054 0.1529021 29
-3.928723 -0.8416613 0.2314757 39
-3.843349 0.2576469 0.3100879 97
-3.934432 -0.8236914 0.488696 45
-16.16554 1.104853 2.946184 23
-3.960152 -0.8162428 1.072805 33
-3.889941 -0.8395932 0.02269264 84
-3.872147 -0.4646699 0 49
-3.858263 -0.1115998 -0.02000138 42
-3.842042 0.2369448 -0.044552 7
-3.887894 -0.8412303 0.1161976 69
-3.865506 -0.4692618 0.08947761 42
-3.86254 -0.119039 0.06542047 33
-3.857445 0.2305937 0.04673003 30
nan nan nan 0
-0.3466482 -0.07197347 -0.08214208 9
-3.989324 -0.8590667 -0.5614791 13
-4.58709 -0.9471598 -0.4398258 17
-3.867325 -0.8116499 -0.2509184 115
-3.878705 -0.456654 -0.2703063 104
-3.872758 -0.09798183 -0.2896316 82
-3.888532 0.2526664 -0.3150825 72
-3.905615 -0.8465327 -0.1609937 159
-3.881637 -0.4760203 -0.1805108 95
-3.862949 -0.11574 -0.2004467 43
-3.866187 0.2317641 -0.2230531 58
-3.872189 -0.8245069 -0.06841343 68
-3.871598 -0.4604984 -0.08959366 71
-3.846888 -0.1045916 -0.1110343 41
-3.854741 0.2417918 -0.1321562 8
-3.845713 0.227237 -0.6915277 7
-4.144524 0.2748036 -0.4629175 9
-3.833399 0.2497734 0.1527015 24
-3.95117 -0.8320833 0.2326374 43
-3.842426 0.2710611 0.3100879 97
-3.917845 -0.8059272 0.4862587 59
-16.17631 1.162337 2.948874 32
nan nan nan 0
-3.87818 -0.8228757 0.02260625 96
-3.873745 -0.4511507 0 29
-3.858629 -0.09813123 -0.02000138 48
-3.841192 0.2503546 -0.044552 8
-3.88592 -0.8266072 0.1160502 85
-3.867121 -0.4557658 0.08947761 16
-3.86793 -0.1056898 0.06550599 37
-3.866595 0.2447026 0.0468522 12
nan nan nan 0
nan nan nan 0
nan nan nan 0
-4.585491 -0.930147 -0.4393544 17
-3.855478 -0.7951022 -0.2499582 117
-3.880275 -0.443112 -0.2703063 106
-3.873077 -0.08446279 -0.2896316 91
-3.887626 0.2662383 -0.3150825 71
-3.898777 -0.8307983 -0.1605871 163
-3.878316 -0.4618748 -0.1802779 97
-3.858338 -0.1021252 -0.200185 40
-3.870336 0.2455812 -0.2233436 59
-3.875044 -0.8109855 -0.06841343 73
-3.873182 -0.4469811 -0.08959366 46
-3.84723 -0.09116285 -0.1110343 41
-3.853874 0.2552458 -0.1321562 7
-3.849806 0.2409738 -0.69242 9
-4.113803 0.2871531 -0.459563 8
-3.832504 0.2631529 0.1527015 16
-3.934503 -0.8142132 0.2314757 48
-3.841457 0.284472 0.3100879 96
-3.920635 -0.7922464 0.4862587 78
-16.17215 1.218796 2.948874 30
-3.984696 -0.792368 1.077981 68
-3.866349 -0.8062506 0.02251986 97
-3.870328 -0.4370627 0 16
-3.858948 -0.08466151 -0.02000138 92
-3.845282 0.264111 -0.04461047 6
-3.869219 -0.8089188 0.1154604 88
-3.868688 -0.4422643 0.08947761 16
-3.868276 -0.09218757 0.06550599 42
-3.875694 0.2588782 0.04697437 8
nan nan nan 0
-0.3376879 -0.0674955 -0.07961464 10
nan nan nan 0
-4.583829 -0.913157 -0.438883 15
-3.843562 -0.7786471 -0.2489981 118
-3.881798 -0.4295646 -0.2703063 106
-3.873348 -0.07094272 -0.2896316 88
-3.886673 0.2798071 -0.3150825 73
-3.872323 -0.8109977 -0.1593675 166
-3.879905 -0.4483342 -0.1802779 91
-3.858671 -0.08865651 -0.200185 46
-3.869455 0.2590897 -0.2233436 55
-3.872956 -0.7964403 -0.06832617 84
-3.874718 -0.4334585 -0.08959366 23
-3.847524 -0.07773296 -0.1110343 47
-3.847975 0.2683422 -0.1319834 7
-3.85385 0.2547418 -0.6933123 8
-4.092956 0.3000314 -0.4573267 4
-3.831563 0.2765293 0.1527015 14
-3.927541 -0.7984721 0.2308948 54
-3.845409 0.2982722 0.3104933 96
-3.90391 -0.7746662 0.4838213 92
-16.18251 1.276405 2.951564 28
-4.015872 -0.7840428 1.085746 96
-3.859346 -0.7907286 0.02246226 99
-3.87183 -0.4235501 0 16
-3.859221 -0.07119074 -0.02000138 119
-3.844337 0.2775319 -0.04461047 7
-3.862231 -0.7933825 0.1151654 95
-3.86524 -0.4282044 0.08936156 15
-3.873572 -0.07878365 0.06559151 88
-3.904687 0.2745501 0.04734088 3
nan nan nan 0
-0.3331907 -0.06530474 -0.07835092 9
-4.032056 -0.8242326 -0.5662957 11
-4.020432 -0.785689 -0.3841994 8
-3.836472 -0.7632653 -0.248358 119
-3.878315 -0.4154785 -0.2699575 106
-3.873572 -0.05742178 -0.2896316 88
-3.885673 0.2933724 -0.3150825 68
-3.865347 -0.795448 -0.1589609 168
-3.876483 -0.4342296 -0.1800449 94
-3.863949 -0.07528167 -0.2004467 41
-3.873506 0.2729528 -0.223634 52
-3.861015 -0.7799262 -0.06806438 88
-3.876208 -0.4199306 -0.08959366 15
-3.85277 -0.06438324 -0.1111801 44
-3.847015 0.2817725 -0.1319834 7
-3.857844 0.268541 -0.6942046 8
-4.072069 0.3127677 -0.4550903 7
-3.835555 0.2902864 0.1529021 14
-3.915623 -0.7818053 0.2300235 71
-3.844344 0.3116934 0.3104933 96
-3.90172 -0.7600788 0.4832119 96
-16.18286 1.333291 2.95246 29
-4.0091 -0.7681901 1.083158 98
-3.852282 -0.7752653 0.02240467 100
-3.868313 -0.4095035 0 16
-3.859446 -0.05771912 -0.02000138 128
-3.848329 0.2913339 -0.04466894 5
-3.850284 -0.7769094 0.114723 91
-3.866711 -0.4147097 0.08936156 17
-3.873823 -0.06526189 0.06559151 123
-3.888748 0.2870537 0.04715762 3
nan nan nan 0
nan nan nan 0
-4.010638 -0.805246 -0.5628552 45
-4.018263 -0.7707064 -0.383728 8
-3.829321 -0.7479424 -0.2477179 119
-3.879741 -0.4019381 -0.2699575 105
-3.873749 -0.04390014 -0.2896316 95
-3.889593 0.3073338 -0.3154896 70
-3.863204 -0.7809537 -0.1587576 167
-3.873009 -0.4201543 -0.179812 88
-3.874174 -0.06194863 -0.2009701 44
-3.872529 0.2864722 -0.223634 55
-3.853909 -0.7644848 -0.06788985 90
-3.87765 -0.4063975 -0.08959366 16
-3.852971 -0.05093417 -0.1111801 42
-3.841026 0.2948099 -0.1318107 7
-3.866696 0.2827367 -0.6959891 8
-4.070952 0.32698 -0.4550903 8
-3.834518 0.3036732 0.1529021 15
-3.903638 -0.7652317 0.2291522 63
-3.848198 0.3255381 0.3108986 96
-3.88973 -0.7436394 0.4813839 97
-5.401335 0.4601917 0.9808659 16
nan nan nan 0
-3.845157 -0.759861 0.02234707 101
-3.869719 -0.3959981 0 16
-3.859624 -0.04424679 -0.02000138 96
-3.852272 0.3051671 -0.0447274 6
-3.84317 -0.7615077 0.1144281 94
-3.863164 -0.4006916 0.08924551 17
-3.869029 -0.05167476 0.06550599 106
-3.877754 0.2998417 0.04703545 5
nan nan nan 0
-0.3383762 -0.06395559 -0.07961464 9
-4.027997 -0.7941349 -0.5649195 81
-3.991585 -0.7511149 -0.3808995 9
-3.817211 -0.7317328 -0.2467578 120
-3.881121 -0.3883928 -0.2699575 107
-3.873878 -0.03037797 -0.2896316 84
-3.888496 0.3209092 -0.3154896 65
-3.856109 -0.7655044 -0.1583511 168
-3.869486 -0.4061086 -0.1795791 27
-3.884351 -0.04854513 -0.2014934 99
-3.871505 0.2999881 -0.223634 56
-3.851649 -0.7500651 -0.06780259 88
-3.879045 -0.3928595 -0.08959366 16
-3.858123 -0.03753071 -0.1113258 35
-3.844954 0.3086226 -0.1319834 6
-3.875495 0.2969974 -0.6977738 8
-4.099491 0.3437191 -0.4584448 12
-3.833435 0.3170563 0.1529021 16
-3.896485 -0.749701 0.2285714 80
-3.847038 0.3389689 0.3108986 96
-3.882549 -0.7282144 0.4801652 95
-5.404595 0.4794829 0.9817625 15
nan nan nan 0
-3.837972 -0.744516 0.02228948 100
-3.866102 -0.3819939 0 16
-3.854755 -0.03073639 -0.0199752 45
-3.856166 0.3190315 -0.04478587 8
-3.850709 -0.7490493 0.1145756 96
-3.864539 -0.3872042 0.08924551 17
-3.864187 -0.0381219 0.06542047 50
-3.866719 0.3125564 0.04691328 5
nan nan nan 0
-0.3291153 -0.06085007 -0.07708719 9
-4.030745 -0.7800696 -0.5649195 24
-3.984395 -0.7353577 -0.3799567 10
-3.814839 -0.7174748 -0.2464377 121
-3.877488 -0.3743613 -0.2696088 105
-3.87396 -0.01685542 -0.2896316 88
-3.892317 0.3349149 -0.3158966 64
-3.848953 -0.750114 -0.1579445 170
-3.865911 -0.3920927 -0.1793462 16
-3.88949 -0.03502861 -0.2017551 46
-3.870435 0.3135003 -0.223634 52
-3.854244 -0.7366158 -0.06780259 88
-3.875418 -0.3788281 -0.08947761 16
-3.863228 -0.02409191 -0.1114715 24
-3.843853 0.3220421 -0.1319834 7
-3.879338 0.3109233 -0.698666 8
-4.113114 0.3593442 -0.4601221 15
-3.832305 0.3304355 0.1529021 16
-3.889271 -0.7342296 0.2279905 74
-3.845831 0.3523955 0.3108986 96
-3.875308 -0.7128485 0.4789465 97
-5.397991 0.4978886 0.9808659 15
nan nan nan 0
-3.830727 -0.7292305 0.02223188 101
-3.867412 -0.3684963 0 16
-3.854838 -0.0172806 -0.0199752 32
-3.860009 0.3329266 -0.04484434 6
-3.858208 -0.7365474 0.114723 93
-3.860892 -0.3732286 0.08912945 17
-3.859297 -0.02460348 0.06533496 37
-3.860623 0.3256248 0.0468522 14
nan nan nan 0
-0.3530475 -0.06442805 -0.08340581 10
-4.01885 -0.7632033 -0.5628552 58
-3.977143 -0.7196599 -0.3790139 9
-3.807509 -0.7023304 -0.2457976 120
-3.878772 -0.360824 -0.2696088 103
-3.873996 -0.003332676 -0.2896316 93
-3.891124 0.3484996 -0.3158966 65
-3.836831 -0.7338375 -0.1573347 169
-3.862286 -0.3781067 -0.1791133 17
-3.889589 -0.02145154 -0.2017551 46
-3.869317 0.3270087 -0.223634 54
-3.856791 -0.7231575 -0.06780259 91
-3.876717 -0.365298 -0.08947761 16
-3.868287 -0.01061792 -0.1116172 22
-3.847683 0.3358993 -0.1321562 7
-3.888033 0.3252964 -0.7004507 9
-4.141521 0.3764377 -0.4634766 13
-3.836103 0.3442644 0.1531028 21
-3.886903 -0.7197334 0.2277001 44
-3.844578 0.3658178 0.3108986 96
-3.882656 -0.7002042 0.4795558 82
-5.406012 0.5176761 0.9826591 15
nan nan nan 0
-3.857818 -0.7204786 0.02237587 100
-3.863696 -0.354535 0 18
-3.849875 -0.00382198 -0.01994902 33
-3.863802 0.3468526 -0.04490281 6
-3.870578 -0.7249293 0.115018 96
-3.862171 -0.3597494 0.08912945 17
-3.859359 -0.01113187 0.06533496 31
-3.859462 0.3390989 0.0468522 19
nan nan nan 0
-0.3295321 -0.05855095 -0.07708719 9
-4.00202 -0.7455161 -0.5601029 98
-3.974731 -0.7048972 -0.3785425 8
-3.814847 -0.6899302 -0.2461177 119
-3.87504 -0.3468356 -0.26926 107
-3.873984 0.01019011 -0.2896316 93
-3.894845 0.362549 -0.3163037 68
-3.83937 -0.7204399 -0.1573347 170
-3.85861 -0.3641507 -0.1788803 17
-3.884647 -0.007866371 -0.2014934 41
-3.868152 0.3405132 -0.223634 56
-3.869123 -0.7115124 -0.06797712 88
-3.87299 -0.3513097 -0.08936156 17
-3.8683 0.002884987 -0.1116172 16
-3.851463 0.3497872 -0.132329 8
-3.891774 0.3393001 -0.7013429 10
-4.135235 0.3904184 -0.4629175 12
-3.834878 0.3576528 0.1531028 14
-3.879571 -0.7043642 0.2271192 66
-3.848236 0.3797324 0.311304 96
-3.889962 -0.6875173 0.4801652 71
-5.404172 0.5365434 0.9826591 15
-4.397733 -0.7638339 1.185391 4
-3.870142 -0.7088234 0.02243347 101
-3.86491 -0.3410461 0 18
-3.849865 0.009616617 -0.01994902 38
-3.867545 0.360809 -0.04496127 6
-3.873085 -0.7114141 0.115018 86
-3.858424 -0.3458169 0.08901339 18
-3.864374 0.002345114 0.06542047 28
-3.858255 0.3525689 0.0468522 15
nan nan nan 0
-0.3534887 -0.06196176 -0.08340581 10
-3.994857 -0.7297488 -0.5587267 102
-3.967361 -0.6893018 -0.3775997 10
-3.822143 -0.6774873 -0.2464377 118
-3.876227 -0.333307 -0.26926 104
-3.873925 0.02371278 -0.2896316 86
-3.893556 0.3761423 -0.3163037 60
-3.861509 -0.7106787 -0.1581478 172
-3.854883 -0.350225 -0.1786474 18
-3.869671 0.005664866 -0.2007084 35
-3.86694 0.3540135 -0.223634 55
-3.876502 -0.6988962 -0.06806438 84
-3.874193 -0.3377883 -0.08936156 17
-3.868267 0.01638786 -0.1116172 13
-3.850219 0.3632292 -0.132329 7
-3.900365 0.3537849 -0.7031275 11
-4.133847 0.4048507 -0.4629175 8
-3.838578 0.3715253 0.1533034 11
-3.877094 -0.6899363 0.2268288 77
-3.846887 0.3931629 0.311304 93
-3.882561 -0.672228 0.4789465 7
-5.402267 0.5554043 0.9826591 14
-4.414653 -0.7509245 1.189273 6
-3.877513 -0.6962004 0.02246226 88
-3.861094 -0.3271284 0 18
-3.849808 0.0230551 -0.01994902 39
-3.866262 0.3743071 -0.04496127 7
-3.870627 -0.6969975 0.1148705 97
-3.854628 -0.3319151 0.08889734 18
-3.869341 0.01585697 0.06550599 25
-3.857001 0.3660345 0.0468522 10
nan nan nan 0
-0.3299328 -0.05624897 -0.07708719 9
-3.963264 -0.7096428 -0.5539101 95
-3.964837 -0.6746076 -0.3771283 11
-3.8294 -0.6650019 -0.2467578 119
-3.872396 -0.3193623 -0.2689112 105
-3.878804 0.03728563 -0.2900082 90
-3.892219 0.3897311 -0.3163037 64
-3.873797 -0.6989834 -0.1585544 169
-3.856082 -0.3367668 -0.1786474 18
-3.869627 0.0191725 -0.2007084 33
-3.86568 0.3675095 -0.223634 56
-3.88384 -0.6862372 -0.06815165 74
-3.870368 -0.3238436 -0.08924551 17
-3.868186 0.02989053 -0.1116172 12
-3.848927 0.3766667 -0.132329 7
-3.908901 0.3683338 -0.7049121 9
-4.132409 0.419278 -0.4629175 15
-3.837258 0.3849222 0.1533034 11
-3.874562 -0.6755344 0.2265383 72
-3.850447 0.4071199 0.3117093 93
nan nan nan 0
nan nan nan 0
-4.583957 -0.7634673 1.234567 41
-3.874997 -0.6817877 0.02243347 99
-3.862213 -0.3136487 0 19
-3.849704 0.03649329 -0.01994902 40
-3.864932 0.3878006 -0.04496127 7
-3.868116 -0.6826066 0.114723 96
-3.850782 -0.318044 0.08878128 18
-3.869262 0.02936339 0.06550599 26
-3.860675 0.3799923 0.04691328 4
nan nan nan 0
-0.32537 -0.05421784 -0.07582346 9
-3.912073 -0.6863163 -0.5463412 25
-3.962258 -0.6599395 -0.3766569 11
-3.841534 -0.6533173 -0.2473979 119
-3.873487 -0.3058432 -0.2689112 106
-3.87865 0.05082495 -0.2900082 91
-3.890835 0.4033151 -0.3163037 61
-3.88605 -0.6872111 -0.1589609 154
-3.857234 -0.3233045 -0.1786474 18
-3.904488 0.03299102 -0.2025401 42
-3.869341 0.3814976 -0.2239244 54
-3.881287 -0.6718163 -0.06806438 89
-3.866492 -0.3099297 -0.08912945 17
-3.868058 0.04339283 -0.1116172 9
-3.85256 0.3906107 -0.1325017 7
-3.912487 0.3824614 -0.7058044 7
-4.13092 0.4337002 -0.4629175 13
-3.840859 0.3988374 0.1535041 13
-3.871977 -0.6611584 0.2262479 85
-3.849002 0.420558 0.3117093 96
nan nan nan 0
-16.27132 1.799266 2.976668 21
-4.886843 -0.7967371 1.316095 14
-3.872427 -0.6674011 0.02240467 101
-3.863284 -0.3001652 0 20
-3.854553 0.04999824 -0.0199752 21
-3.868527 0.4018128 -0.04501974 7
-3.860628 -0.6673834 0.1144281 95
-3.851869 -0.3046003 0.08878128 19
-3.874135 0.04292705 0.06559151 27
-3.864298 0.3939802 0.04697437 3
nan nan nan 0
-3.843314 -0.690464 -1.009716 3
-3.899806 -0.6701199 -0.5442769 7
-3.959626 -0.6452976 -0.3761854 12
-3.83887 -0.6390777 -0.2470778 121
-3.869558 -0.2919429 -0.2685624 106
-3.878449 0.06436365 -0.2900082 93
-3.894357 0.4174324 -0.3167108 66
-3.878582 -0.6719225 -0.1585544 172
-3.853361 -0.309436 -0.1784145 21
-3.929313 0.04692939 -0.2038485 44
-3.867986 0.3950018 -0.2239244 53
-3.878681 -0.6574217 -0.06797712 90
-3.86755 -0.2964313 -0.08912945 17
-3.867883 0.05689461 -0.1116172 9
-3.851173 0.4040563 -0.1325017 7
-3.920916 0.3971208 -0.707589 8
-4.13432 0.4486599 -0.4634766 8
-3.839444 0.4122421 0.1535041 11
-3.874262 -0.6476388 0.2262479 73
-3.852462 0.4345568 0.3121147 96
nan nan nan 0
-16.28449 1.85829 2.980254 33
-5.018345 -0.8003426 1.351035 12
-3.864875 -0.6522017 0.02234707 101
-3.864309 -0.286678 0 20
-3.854355 0.06345283 -0.0199752 36
-3.901893 0.4190998 -0.04542901 6
-3.858008 -0.653062 0.1142807 97
-3.847924 -0.2907738 0.08866523 20
-3.873962 0.05645004 0.06559151 27
-3.86787 0.407998 0.04703545 4
nan nan nan 0
-3.845701 -0.6770442 -1.009716 3
-3.941182 -0.6631307 -0.5497816 5
-3.961854 -0.6314721 -0.3761854 13
-3.841077 -0.6256737 -0.2470778 121
-3.870553 -0.2784338 -0.2685624 106
-3.878201 0.07790157 -0.2900082 93
-3.892877 0.4310237 -0.3167108 62
-3.87598 -0.657537 -0.1583511 170
-3.854417 -0.2959834 -0.1784145 20
-3.944103 0.06088287 -0.2046336 46
-3.871546 0.4090325 -0.2242149 56
-3.876021 -0.6430534 -0.06788985 90
-3.863576 -0.2825623 -0.08901339 18
-3.867661 0.07039569 -0.1116172 7
-3.849739 0.4174969 -0.1325017 7
-3.929291 0.4118437 -0.7093736 9
-4.127791 0.4625287 -0.4629175 4
-3.842946 0.4261995 0.1537048 11
-3.871574 -0.6332984 0.2259575 70
-3.850921 0.4480018 0.3121147 96
-3.93077 -0.6242327 0.4838213 5
-16.29256 1.916851 2.982944 30
-5.087906 -0.7933046 1.369153 12
-3.862196 -0.637885 0.02231828 101
-3.865286 -0.2731873 0 20
-3.85411 0.07690666 -0.0199752 26
-3.910343 0.4338338 -0.04554595 7
-3.855334 -0.638767 0.1141332 93
-3.848916 -0.2773403 0.08866523 21
-3.873741 0.06997234 0.06559151 26
-3.871392 0.4220455 0.04709654 13
nan nan nan 0
-0.3640484 -0.05744158 -0.08593326 9
-3.933702 -0.6477466 -0.5484054 27
-3.964035 -0.6176388 -0.3761854 14
-3.838311 -0.6114703 -0.2467578 121
-3.871501 -0.2649214 -0.2685624 104
-3.877905 0.09143855 -0.2900082 86
-3.891349 0.4446097 -0.3167108 61
-3.873324 -0.6431778 -0.1581478 172
-3.855427 -0.2825271 -0.1784145 21
-3.943866 0.07464998 -0.2046336 44
-3.870095 0.4225442 -0.2242149 54
-3.868375 -0.6279039 -0.06771533 93
-3.864539 -0.2690741 -0.08901339 19
-3.867391 0.08389591 -0.1116172 7
-3.848258 0.4309325 -0.1325017 7
-3.9425 0.4271663 -0.7120505 7
-4.131087 0.4775117 -0.4634766 7
-3.846398 0.4401864 0.1539054 10
-3.868833 -0.6189848 0.225667 79
-3.854281 0.4620417 0.31252 96
-3.898604 -0.6051334 0.4795558 6
-16.31018 1.976679 2.987427 24
-5.138382 -0.7828615 1.382094 12
-3.859464 -0.623595 0.02228948 101
-3.861228 -0.2593558 0 22
-3.853818 0.09035954 -0.0199752 33
-4.003167 0.4584156 -0.04665682 9
-3.852608 -0.6244987 0.1139858 95
-3.84986 -0.2639033 0.08866523 23
-3.873473 0.0834938 0.06559151 21
-3.874863 0.4361226 0.04715762 10
nan nan nan 0
-0.345171 -0.05292008 -0.08087836 10
-3.940827 -0.6348058 -0.5490935 100
-3.966166 -0.6037979 -0.3761854 14
-3.835493 -0.5972937 -0.2464377 121
-3.872403 -0.2514057 -0.2685624 104
-3.877562 0.1049744 -0.2900082 84
-3.894721 0.4587805 -0.3171179 57
-3.870616 -0.6288453 -0.1579445 171
-3.861372 -0.2694176 -0.1786474 22
-3.958557 0.08875865 -0.2054186 43
-3.873556 0.4366167 -0.2245053 55
-3.865607 -0.6136063 -0.06762807 89
-3.860467 -0.2552506 -0.08889734 22
-3.867075 0.09739513 -0.1116172 6
-3.84673 0.4443628 -0.1325017 7
-3.955651 0.4425861 -0.7147274 12
-4.119528 0.4907403 -0.4623584 18
-3.849799 0.4542026 0.1541061 10
-3.87097 -0.6054763 0.225667 66
-3.85759 0.4761106 0.3129254 95
-3.890882 -0.5900198 0.4783372 7
-16.30806 2.03421 2.988323 18
-5.169742 -0.7692137 1.389858 14
-3.85668 -0.6093318 0.02226068 101
-3.862109 -0.245876 0 25
-3.853479 0.1038113 -0.0199752 36
-3.912184 0.4617152 -0.04560441 6
-3.84983 -0.6102571 0.1138383 95
-3.850758 -0.2504632 0.08866523 20
-3.873158 0.09701424 0.06559151 18
-3.873317 0.4496458 0.04715762 7
nan nan nan 0
-3.819178 -0.631164 -1.00087 3
-3.928346 -0.618714 -0.5470293 104
-3.963327 -0.5892114 -0.375714 15
-3.832623 -0.5831444 -0.2461177 122
-3.873257 -0.2378869 -0.2685624 103
-3.877172 0.118509 -0.2900082 88
-3.898042 0.4729801 -0.317525 59
-3.867854 -0.6145394 -0.1577413 172
-3.862289 -0.2559372 -0.1786474 23
-3.918292 0.1015234 -0.2033252 42
-3.876966 0.4507185 -0.2247957 48
-3.862786 -0.5993356 -0.06754081 88
-3.861335 -0.2417735 -0.08889734 26
-3.866711 0.1108931 -0.1116172 5
-3.845156 0.4577877 -0.1325017 9
-3.963855 0.4575324 -0.7165119 11
-4.137514 0.5075634 -0.4645947 28
-3.84819 0.4676381 0.1541061 8
-3.868127 -0.5911993 0.2253766 77
-3.855905 0.4895732 0.3129254 96
-3.917459 -0.5801021 0.4813839 6
nan nan nan 0
-5.19151 -0.7539586 1.395035 13
-3.853843 -0.5950957 0.02223188 101
-3.862944 -0.2323932 0 28
-3.858091 0.1174163 -0.02000138 34
-3.930398 0.4778091 -0.04583828 6
-3.851936 -0.596815 0.1138383 96
-3.851609 -0.23702 0.08866523 20
-3.872796 0.1105335 0.06559151 17
-3.871724 0.4631634 0.04715762 14
nan nan nan 0
-0.3741789 -0.05518477 -0.08846071 9
-3.954951 -0.6087987 -0.5504697 65
-3.96536 -0.5753732 -0.375714 13
-3.834635 -0.5697625 -0.2461177 121
-3.874063 -0.2243653 -0.2685624 104
-3.876735 0.1320421 -0.2900082 90
-3.901312 0.4872085 -0.317932 57
-3.86504 -0.6002607 -0.157538 168
-3.863159 -0.2424538 -0.1786474 24
-3.882977 0.1141572 -0.2014934 29
-3.875369 0.4642489 -0.2247957 53
-3.859913 -0.5850921 -0.06745355 86
-3.862155 -0.2282934 -0.08889734 23
-3.871296 0.1245529 -0.1117629 5
-3.843535 0.471207 -0.1325017 6
-3.991541 0.4748918 -0.7218657 11
-4.116003 0.5194878 -0.4623584 8
-3.851491 0.481695 0.1543067 9
-3.870167 -0.5776935 0.2253766 89
-3.859113 0.5036821 0.3133307 96
-3.894906 -0.5628421 0.4783372 7
nan nan nan 0
-5.208454 -0.7378788 1.398917 11
-3.850955 -0.5808868 0.02220308 100
-3.863732 -0.2189076 0 30
-3.857657 0.1308828 -0.02000138 34
-3.998147 0.5003107 -0.04665682 9
-3.849056 -0.5826106 0.1136908 97
-3.847422 -0.2232819 0.08854917 23
-3.872386 0.1240514 0.06559151 16
-3.870083 0.4766754 0.04715762 4
nan nan nan 0
-3.852154 -0.6090617 -1.008452 3
-3.927673 -0.590531 -0.5463412 103
-3.962416 -0.5608242 -0.3752426 15
-3.831664 -0.5556507 -0.2457976 121
-3.874823 -0.2108409 -0.2685624 104
-3.881233 0.1457633 -0.2903849 91
-3.899587 0.5008237 -0.317932 59
-3.862174 -0.586009 -0.1573347 170
-3.863982 -0.2289674 -0.1786474 27
-3.877565 0.1275442 -0.2012317 27
-3.878678 0.4783914 -0.2250862 58
-3.856987 -0.5708759 -0.06736629 93
-3.862929 -0.2148106 -0.08889734 25
-3.870837 0.1380655 -0.1117629 5
-3.846823 0.4852529 -0.1326745 7
-3.965446 0.4857986 -0.7174042 6
-3.912179 0.5073678 -0.4394361 4
-3.859694 0.4964249 0.1547081 7
-3.87216 -0.5641805 0.2253766 38
-3.857332 0.5171497 0.3133307 96
-16.2929 -2.313463 2.015719 8
nan nan nan 0
-5.210998 -0.7196934 1.398917 9
-3.848013 -0.5667053 0.02217429 101
-3.864472 -0.2054193 0 32
-3.857177 0.1443478 -0.02000138 16
-3.94184 0.507171 -0.04601368 6
-3.846123 -0.5684335 0.1135434 97
-3.848178 -0.2098505 0.08854917 25
-3.87193 0.1375678 0.06559151 16
-3.868396 0.4901817 0.04715762 4
nan nan nan 0
-0.3458763 -0.04809558 -0.08087836 10
-3.939508 -0.5782692 -0.5477173 93
-3.96435 -0.5469893 -0.3752426 16
-3.83358 -0.5422724 -0.2457976 121
-3.875535 -0.197314 -0.2685624 104
-3.8807 0.1593104 -0.2903849 93
-3.902755 0.5150917 -0.3183391 53
-3.854314 -0.5710453 -0.1569282 172
-3.864757 -0.2154782 -0.1786474 28
-3.897055 0.141814 -0.2022785 34
-3.881935 0.4925628 -0.2253766 54
-3.85401 -0.5566875 -0.06727903 88
-3.863655 -0.2013252 -0.08889734 27
-3.870332 0.1515764 -0.1117629 5
-3.845106 0.4986779 -0.1326745 7
-4.03205 0.5083416 -0.7298963 12
-3.90546 0.5203577 -0.4388771 9
-3.857938 0.5098947 0.1547081 7
-3.869165 -0.5499514 0.2250862 8
-3.860439 0.5312979 0.3137361 96
-16.20748 -2.243616 2.004141 11
-4.088533 0.5637641 0.7450635 3
-5.213479 -0.7014992 1.398917 9
-3.84502 -0.5525515 0.02214549 101
-3.865166 -0.1919286 0 30
-3.861645 0.1580177 -0.02002756 17
-3.9004 0.5156307 -0.04554595 6
-3.843138 -0.5542839 0.1133959 98
-3.848887 -0.1964166 0.08854917 27
-3.871426 0.1510825 0.06559151 18
-3.871619 0.5043344 0.04721871 6
nan nan nan 0
-0.3508244 -0.04761719 -0.08214208 10
-3.887587 -0.5567161 -0.5401484 20
-3.961303 -0.5324782 -0.3747712 16
-3.835449 -0.5288874 -0.2457976 121
-3.8762 -0.1837846 -0.2685624 103
-3.880121 0.1728556 -0.2903849 86
-3.900933 0.5287118 -0.3183391 49
-3.851341 -0.5568658 -0.1567249 174
-3.865486 -0.2019863 -0.1786474 29
-3.901525 0.1556177 -0.2025401 30
-3.885141 0.5067626 -0.225667 51
-3.85098 -0.5425267 -0.06719176 96
-3.864334 -0.1878373 -0.08889734 29
-3.869779 0.1650854 -0.1117629 7
-3.853247 0.5134306 -0.13302 7
-4.098545 0.5313556 -0.7423884 9
-3.918385 0.5360281 -0.4405543 7
-64.19212 8.799089 2.600741 97
-3.871061 -0.536442 0.2250862 46
-3.863494 0.5454741 0.3141414 96
-16.13653 -2.176389 1.994392 11
-4.057323 0.5738585 0.7396841 6
-5.220684 -0.6839286 1.400211 10
-3.841974 -0.5384255 0.02211669 102
-3.860817 -0.1782025 0 31
-3.86107 0.1714964 -0.02002756 34
-3.87381 0.5258455 -0.04525361 5
-3.84505 -0.5408655 0.1133959 97
-3.84955 -0.1829803 0.08854917 31
-3.870875 0.1645954 0.06559151 16
-3.874789 0.5185158 0.04727979 6
nan nan nan 0
-0.3366338 -0.04425466 -0.07835092 10
-3.850276 -0.537608 -0.5346437 6
-3.958203 -0.5179952 -0.3742998 16
-3.832328 -0.5148248 -0.2454775 122
-3.876818 -0.1702531 -0.2685624 104
-3.879493 0.1863987 -0.2903849 93
-3.903999 0.543019 -0.3187462 54
-3.853261 -0.5434186 -0.1567249 173
-3.866167 -0.188492 -0.1786474 30
-3.905947 0.1694543 -0.2028018 31
-3.888295 0.5209909 -0.2259575 50
-3.847899 -0.5283938 -0.0671045 93
-3.864966 -0.1743471 -0.08889734 31
-3.869179 0.1785925 -0.1117629 16
-3.856381 0.527562 -0.1331927 6
-4.096665 0.5456589 -0.7423884 6
-3.911571 0.5490051 -0.4399952 8
-64.26986 9.038423 2.605155 123
-3.867964 -0.5222515 0.2247957 79
-3.861567 0.5589568 0.3141414 93
-16.02594 -2.104502 1.979767 10
-4.089365 0.5930061 0.7459602 9
-5.223039 -0.6657009 1.400211 11
-3.838877 -0.5243274 0.02208789 102
-3.861416 -0.1647247 0 30
-3.860448 0.184973 -0.02002756 32
-3.862049 0.5379711 -0.04513668 8
-3.841963 -0.5267544 0.1132485 97
-3.850165 -0.1695417 0.08854917 32
-3.870277 0.1781062 0.06559151 15
-3.877907 0.5327253 0.04734088 6
nan nan nan 0
-0.3511482 -0.04516683 -0.08214208 9
-3.827598 -0.5207914 -0.5312033 8
-3.955049 -0.5035403 -0.3738284 15
-3.834101 -0.5014443 -0.2454775 122
-3.872406 -0.1565158 -0.2682136 103
-3.878819 0.1999396 -0.2903849 91
-3.90208 0.5566432 -0.3187462 50
-3.850186 -0.5292774 -0.1565216 171
-3.866802 -0.1749954 -0.1786474 29
-3.910319 0.1833236 -0.2030635 33
-3.886452 0.5345604 -0.2259575 49
-3.84972 -0.5149589 -0.0671045 95
-3.865551 -0.1608548 -0.08889734 37
-3.868533 0.1920974 -0.1117629 21
-3.859463 0.5417216 -0.1333655 7
-4.216574 0.5767754 -0.7646958 9
-3.914547 0.5633703 -0.4405543 11
-3.827663 0.5466991 0.1537048 5
-3.864815 -0.5080889 0.2245053 72
-3.864521 0.5731711 0.3145467 96
-15.97412 -2.040981 1.972455 9
-4.087271 0.607277 0.7459602 12
-5.230124 -0.6480637 1.401505 10
-3.840684 -0.510924 0.02208789 101
-3.861967 -0.1512448 0 32
-3.864772 0.1987064 -0.02005374 27
-3.850251 0.5500209 -0.04501974 12
-3.843779 -0.5133402 0.1132485 98
-3.850733 -0.1561011 0.08854917 35
-3.864639 0.1913655 0.06550599 15
-3.876024 0.5462585 0.04734088 8
nan nan nan 0
nan nan nan 0
-3.819575 -0.5061122 -0.5298271 8
-3.951844 -0.4891136 -0.373357 17
-3.835828 -0.4880578 -0.2454775 121
-3.872928 -0.1429976 -0.2682136 103
-3.878098 0.213478 -0.2903849 81
-3.905042 0.5709885 -0.3191533 57
-3.85201 -0.5158346 -0.1565216 171
-3.867389 -0.1614967 -0.1786474 29
-3.909655 0.1969721 -0.2030635 28
-3.889504 0.5488275 -0.2262479 50
-3.846537 -0.5008652 -0.06701723 93
-3.866089 -0.1473605 -0.08889734 38
-3.872829 0.2058676 -0.1119086 18
-3.862494 0.5559092 -0.1335382 7
-4.078143 0.5721762 -0.7397116 5
-3.912557 0.5770312 -0.4405543 7
-3.850443 0.5637103 0.1547081 4
-3.866565 -0.4945952 0.2245053 73
-3.867422 0.5874129 0.3149521 171
-15.9122 -1.976621 1.963924 14
-4.070539 0.6193008 0.7432705 14
-5.232354 -0.6298032 1.401505 10
-3.837487 -0.4968653 0.02205909 103
-3.862472 -0.1377631 0 36
-3.864055 0.2121958 -0.02005374 22
-3.858199 0.5649199 -0.04513668 6
-3.845547 -0.4999198 0.1132485 98
-3.851255 -0.1426586 0.08854917 33
-3.863947 0.2048545 0.06550599 15
-3.879041 0.5605067 0.04740196 7
nan nan nan 0
-0.351455 -0.04271427 -0.08214208 9
-3.82623 -0.4934167 -0.5305152 11
-3.953527 -0.4753161 -0.373357 16
-3.832557 -0.4740459 -0.2451575 123
-3.873404 -0.1294777 -0.2682136 103
-3.882306 0.2273077 -0.2907615 86
-3.907953 0.5853614 -0.3195604 52
-3.848834 -0.5017324 -0.1563183 172
-3.862939 -0.1478025 -0.1784145 27
-3.903958 0.2103472 -0.2028018 28
-3.887565 0.5624012 -0.2262479 52
-3.848262 -0.4874353 -0.06701723 91
-3.861584 -0.1336891 -0.08878128 46
-3.872087 0.219385 -0.1119086 13
-3.86053 0.5693883 -0.1335382 7
-4.017696 0.5779264 -0.7290041 5
-3.915431 0.5914341 -0.4411134 9
-3.848452 0.5771474 0.1547081 8
-3.863316 -0.4804723 0.2242149 70
-3.870271 0.6016818 0.3153574 155
-15.83525 -1.91093 1.953565 15
-4.068353 0.6335059 0.7432705 9
-5.239317 -0.6121002 1.402799 11
-3.839198 -0.483467 0.02205909 103
-3.862929 -0.1242797 0 38
-3.868282 0.2259765 -0.02007992 32
-3.861147 0.5791326 -0.04519514 5
-3.842311 -0.4858591 0.113101 96
-3.851729 -0.1292143 0.08854917 38
-3.863209 0.2183409 0.06550599 14
-3.882005 0.5747827 0.04746305 7
nan nan nan 0
-0.3468076 -0.04084154 -0.08087836 10
-3.827929 -0.4800577 -0.5305152 11
-3.945275 -0.4603461 -0.3724141 7
-3.834189 -0.4606649 -0.2451575 124
-3.873832 -0.1159562 -0.2682136 104
-3.881489 0.2408581 -0.2907615 91
-3.91081 0.5997615 -0.3199674 54
-3.850562 -0.4882944 -0.1563183 170
-3.863431 -0.1343175 -0.1784145 31
-3.9032 0.2239733 -0.2028018 30
-3.885578 0.5759679 -0.2262479 56
-3.84994 -0.4739993 -0.06701723 88
-3.862027 -0.1202088 -0.08878128 38
-3.876286 0.2332023 -0.1120543 13
-3.858519 0.5828607 -0.1335382 7
-4.001055 0.5897759 -0.7263271 5
-3.913342 0.6050979 -0.4411134 8
-3.861224 0.5928729 0.15531 6
-3.864969 -0.4669839 0.2242149 79
-3.873068 0.6159778 0.3157628 120
-15.83196 -1.854485 1.952347 15
-5.241423 0.836588 0.9602444 20
-5.241422 -0.5938079 1.402799 10
-3.840862 -0.4700627 0.02205909 102
-3.868337 -0.1109405 0 41
-3.867469 0.2394779 -0.02007992 35
-3.864043 0.5933727 -0.04525361 8
-3.843984 -0.4724439 0.113101 80
-3.852157 -0.1157685 0.08854917 39
-3.867413 0.2321264 0.06559151 13
-3.879976 0.5883299 0.04746305 6
nan nan nan 0
-0.3805243 -0.04403322 -0.08972443 8
-3.829581 -0.4666928 -0.5305152 11
-3.932022 -0.4448735 -0.3709999 8
-3.835773 -0.4472783 -0.2451575 122
-3.874213 -0.1024333 -0.2682136 105
-3.8856 0.2547342 -0.2911381 88
-3.913615 0.6141887 -0.3203745 49
-3.852243 -0.4748505 -0.1563183 173
-3.858884 -0.1206721 -0.1781816 42
-3.892427 0.2369853 -0.2022785 27
-3.883544 0.5895275 -0.2262479 46
-3.851571 -0.4605576 -0.06701723 96
-3.857427 -0.1065867 -0.08866523 20
-3.875448 0.2467316 -0.1120543 14
-3.856461 0.5963259 -0.1335382 6
-4.081654 0.6163317 -0.7414961 5
-3.911206 0.6187543 -0.4411134 7
-3.854197 0.6055652 0.1551094 4
-3.861619 -0.4529014 0.2239244 62
-3.875812 0.6303008 0.3161681 135
-15.79396 -1.794153 1.946863 12
-5.253033 0.8572713 0.9629342 14
-5.248262 -0.5760398 1.404093 11
-3.84248 -0.4566528 0.02205909 47
-3.868701 -0.09743686 0 40
-3.86661 0.2529764 -0.02007992 22
-3.876762 0.6092061 -0.04542901 5
-3.865457 -0.4614214 0.1136908 5
-3.857534 -0.1024565 0.08866523 42
-3.866579 0.2456248 0.06559151 13
-3.872959 0.6010965 0.04740196 6
nan nan nan 0
-0.3278892 -0.03597066 -0.07582346 10
-3.831187 -0.4533222 -0.5305152 11
-3.918708 -0.429499 -0.3695857 13
-3.832354 -0.4333188 -0.2448374 122
-3.874547 -0.08890913 -0.2682136 103
-3.884687 0.2682959 -0.2911381 88
-3.916367 0.6286428 -0.3207816 47
-3.853877 -0.4614007 -0.1563183 171
-3.85429 -0.1070602 -0.1779487 31
-3.901541 0.2512171 -0.2028018 25
-3.876531 0.602307 -0.2259575 39
-3.853156 -0.4471103 -0.06701723 42
-3.872766 -0.09349008 -0.08901339 15
-3.869577 0.2599206 -0.1119086 18
-3.854356 0.6097838 -0.1335382 6
-3.943369 0.6093588 -0.7165119 7
-3.913926 0.6332036 -0.4416724 5
-3.85206 0.6190152 0.1551094 5
-3.863177 -0.439419 0.2239244 72
-3.883418 0.6454744 0.3169788 175
-15.78533 -1.737378 1.945035 8
nan nan nan 0
-5.255044 -0.5582314 1.405387 11
-3.84405 -0.4432372 0.02205909 11
-3.869018 -0.08393198 0 85
-3.870692 0.266818 -0.0201061 30
-3.849936 0.6187338 -0.04513668 4
nan nan nan 0
-3.857869 -0.08899052 0.08866523 44
-3.870686 0.2594567 0.06567702 13
-3.8659 0.6138212 0.04734088 4
nan nan nan 0
-0.3424154 -0.03661218 -0.07961464 9
-3.827826 -0.4393743 -0.5298271 15
-3.905336 -0.4142229 -0.3681715 9
-3.833843 -0.4199387 -0.2448374 122
-3.874834 -0.07538389 -0.2682136 103
-3.888699 0.2822178 -0.2915147 90
-3.923981 0.6439375 -0.3215958 45
-3.855464 -0.4479454 -0.1563183 170
-3.85464 -0.09360555 -0.1779487 17
-3.915585 0.2658559 -0.2035869 25
-3.874405 0.6158349 -0.2259575 42
-3.849725 -0.4330916 -0.06692997 8
-3.878067 -0.0800766 -0.08912945 12
-3.863661 0.2730717 -0.1117629 17
-3.886726 0.6288689 -0.1347475 6
-3.892635 0.615373 -0.707589 5
-3.892088 0.6435919 -0.4394361 6
-3.849876 0.6324576 0.1551094 4
-3.859726 -0.4253775 0.223634 70
-3.886053 0.6598676 0.3173842 206
nan nan nan 0
nan nan nan 0
-5.261764 -0.5403826 1.406682 11
-3.845574 -0.4298162 0.02205909 10
-3.869287 -0.07042607 0 186
-3.869736 0.2803277 -0.0201061 32
-3.832956 0.6297165 -0.04496127 3
nan nan nan 0
-3.858156 -0.0755235 0.08866523 99
-3.869757 0.2729664 0.06567702 13
-3.873602 0.6289279 0.04746305 3
nan nan nan 0
-0.3377382 -0.03483804 -0.07835092 10
-3.829337 -0.42601 -0.5298271 14
-3.882003 -0.3980169 -0.3658144 11
-3.830325 -0.4060207 -0.2445174 122
-3.875074 -0.06185774 -0.2682136 103
-3.88769 0.2957902 -0.2915147 91
-3.916796 0.6567997 -0.3211887 44
-3.857005 -0.4344846 -0.1563183 152
-3.859936 -0.08025612 -0.1781816 15
-3.924594 0.280238 -0.2041102 27
-3.872232 0.6293553 -0.2259575 30
-3.851214 -0.4196509 -0.06692997 7
-3.918306 -0.06724402 -0.09005788 9
-3.862684 0.2865567 -0.1117629 10
-3.850005 0.6366772 -0.1335382 3
-3.812773 0.6162906 -0.6933123 6
-3.924105 0.6630161 -0.4433497 6
-3.847645 0.6458923 0.1551094 9
-3.861187 -0.411902 0.223634 70
-3.888635 0.6742868 0.3177895 246
-3.875567 -0.3951657 0.4734624 8
-4.298941 0.7468244 0.7880998 35
-5.268424 -0.5224937 1.407976 12
-3.847051 -0.4163901 0.02205909 6
-3.869509 -0.05691931 0 141
-3.868734 0.2938339 -0.0201061 31
-3.884959 0.6522733 -0.04560441 3
-3.830335 -0.4165373 0.1125112 6
-3.853398 -0.0619727 0.08854917 102
-3.873766 0.286844 0.06576254 13
-3.876314 0.6432706 0.04752413 2
nan nan nan 0
-0.3378578 -0.0336589 -0.07835092 9
-3.830801 -0.4126406 -0.5298271 14
-3.883368 -0.3844638 -0.3658144 15
-3.831719 -0.392648 -0.2445174 123
-3.875266 -0.04833083 -0.2682136 104
-3.891604 0.3097571 -0.2918914 91
-3.899748 0.6679232 -0.3199674 34
-3.858498 -0.4210185 -0.1563183 62
-3.850205 -0.06660412 -0.1777158 13
-3.953466 0.2961871 -0.2056803 43
-3.870011 0.6428681 -0.2259575 27
-3.852655 -0.4062051 -0.06692997 7
-3.973496 -0.05434348 -0.09133447 28
-3.871626 0.3008173 -0.1120543 4
nan nan nan 0
-3.79604 0.62717 -0.6906354 22
-3.921766 0.6767097 -0.4433497 5
-3.845366 0.6593191 0.1551094 13
-3.857638 -0.3979023 0.2233436 75
-3.891164 0.6887323 0.3181948 255
-3.871985 -0.3811421 0.472853 7
-4.310834 0.7644214 0.7907895 16
-5.270216 -0.5041002 1.407976 13
-3.843509 -0.402431 0.0220303 7
-3.864685 -0.04335339 0 44
-3.872669 0.3077348 -0.02013228 15
-3.700376 0.6343119 -0.04344113 17
-3.846674 -0.404755 0.1129535 7
-3.848593 -0.04845602 0.08843312 71
-3.872741 0.3003643 0.06576254 12
-3.824763 0.6483737 0.04691328 9
nan nan nan 0
-0.3379732 -0.03247935 -0.07835092 9
-3.827293 -0.3987458 -0.529139 11
-3.889642 -0.3713856 -0.3662858 15
-3.828101 -0.3787721 -0.2441974 122
-3.875411 -0.03480333 -0.2682136 105
-3.890499 0.3233395 -0.2918914 86
-3.917023 0.6849932 -0.3215958 12
-3.854976 -0.4070155 -0.1561151 50
nan nan nan 0
-3.937475 0.3088076 -0.2048953 39
-3.867743 0.656373 -0.2259575 14
-3.85405 -0.3927544 -0.06692997 7
-3.953668 -0.04026019 -0.09087025 28
-3.875533 0.3147368 -0.1122001 3
nan nan nan 0
-3.682278 0.6214295 -0.6701127 20
-3.934057 0.6930015 -0.445027 2
-3.843042 0.672738 0.1551094 14
-3.859003 -0.3844342 0.2233436 87
-3.888736 0.7023109 0.3181948 230
-3.873292 -0.367624 0.472853 7
-4.322658 0.7821106 0.7934793 12
-5.271943 -0.4857007 1.407976 13
-3.84489 -0.3890122 0.0220303 7
-3.864813 -0.02986285 0 38
-3.871572 0.3212512 -0.02013228 9
-3.693215 0.6463557 -0.04338266 13
-3.823206 -0.3887608 0.1122162 8
-3.848738 -0.03502163 0.08843312 34
-3.871669 0.3138808 0.06576254 13
-3.714123 0.64281 0.04556941 18
nan nan nan 0
-0.3428932 -0.03182775 -0.07961464 9
-3.828661 -0.3853837 -0.529139 12
-3.890914 -0.357806 -0.3662858 15
-3.8294 -0.3654073 -0.2441974 122
-3.875509 -0.02127541 -0.2682136 105
-3.889346 0.3369178 -0.2918914 90
nan nan nan 0
-3.856374 -0.3935566 -0.1561151 57
-4.200176 -0.04350638 -0.19402 32
-3.931397 0.3221401 -0.2046336 28
-3.865429 0.66987 -0.2259575 8
-3.855397 -0.3792988 -0.06692997 8
-3.958783 -0.02649483 -0.0909863 28
-3.884371 0.3291116 -0.1124915 4
-3.705365 0.6524942 -0.1287011 13
-3.651004 0.6292245 -0.6647589 7
-3.750719 0.6739534 -0.424341 2
-3.845587 0.6870341 0.15531 14
-3.860321 -0.3709614 0.2233436 73
-3.886261 0.7158808 0.3181948 163
-3.859727 -0.3527262 0.471025 11
-4.324737 0.7980936 0.7943758 4
-5.273607 -0.4672952 1.407976 13
-3.846225 -0.3755887 0.0220303 6
-3.864893 -0.01637196 0 32
-3.870427 0.3347635 -0.02013228 24
-3.695857 0.6601297 -0.04344113 20
-3.829514 -0.3759085 0.1123637 8
-3.853836 -0.02161735 0.08854917 16
-3.87055 0.3273935 0.06576254 12
-3.711857 0.6557708 0.04556941 28
nan nan nan 0
-0.3478128 -0.03114218 -0.08087836 10
-3.829983 -0.3720168 -0.529139 12
-3.892139 -0.344222 -0.3662858 16
-3.830652 -0.3520379 -0.2441974 121
-3.87556 -0.007747233 -0.2682136 105
-3.888147 0.3504921 -0.2918914 90
nan nan nan 0
-3.852752 -0.3795959 -0.1559118 78
-4.200302 -0.02884477 -0.19402 32
-3.930248 0.3358613 -0.2046336 34
-3.863067 0.6833588 -0.2259575 7
-3.856698 -0.3658387 -0.06692997 8
-4.008838 -0.01285915 -0.09214685 36
-3.883198 0.3426686 -0.1124915 5
-3.668646 0.659188 -0.1274919 20
nan nan nan 0
nan nan nan 0
-3.852992 0.702259 0.1557114 8
-3.856623 -0.3570169 0.2230531 81
-3.883738 0.7294419 0.3181948 127
-3.82139 -0.3357218 0.4661502 8
-4.321925 0.8131849 0.7943758 4
-5.275206 -0.448884 1.407976 13
-3.842535 -0.3616848 0.0220015 8
-3.864927 -0.002880866 0 42
-3.874214 0.3487223 -0.02015846 28
-3.698447 0.67393 -0.0434996 29
-3.825827 -0.3620605 0.1122162 8
-3.863885 -0.008190989 0.08878128 11
-3.869384 0.3409023 0.06576254 12
-3.901388 0.7035874 0.04795173 5
nan nan nan 0
-0.3479194 -0.0299279 -0.08087836 9
-3.831259 -0.3586454 -0.529139 13
-3.893317 -0.3306338 -0.3662858 16
-3.826888 -0.3382182 -0.2438773 121
-3.875563 0.005781041 -0.2682136 105
-3.8869 0.3640622 -0.2918914 96
-3.909635 0.7259738 -0.3215958 5
-3.854054 -0.366145 -0.1559118 82
-4.210366 -0.01422115 -0.1944858 33
-3.924079 0.3491336 -0.2043719 38
-3.87048 0.6986259 -0.2265383 8
-3.862929 -0.3528358 -0.06701723 8
-3.973868 0.001140494 -0.09133447 30
-3.877002 0.3557624 -0.1123458 6
-3.695806 0.6774383 -0.1285284 27
nan nan nan 0
nan nan nan 0
-3.855428 0.7166241 0.155912 6
-3.857846 -0.3435526 0.2230531 75
-3.881168 0.7429943 0.3181948 102
-3.876929 -0.3270436 0.472853 7
-4.294911 0.8236029 0.7898929 5
-5.276741 -0.4304674 1.407976 13
-3.843774 -0.3482696 0.0220015 8
-3.864913 0.01061026 0 45
-3.872973 0.3622437 -0.02015846 27
-3.666588 0.6813126 -0.04314879 29
-3.827068 -0.3487037 0.1122162 9
-3.868889 0.005300897 0.08889734 28
-3.86817 0.3544069 0.06576254 12
-3.884161 0.7144681 0.04776847 3
nan nan nan 0
-0.3528357 -0.0291912 -0.08214208 9
-3.832487 -0.3452696 -0.529139 14
-3.894448 -0.3170415 -0.3662858 16
-3.828045 -0.3248578 -0.2438773 121
-3.875519 0.01930925 -0.2682136 106
-3.885605 0.3776278 -0.2918914 96
-3.907077 0.7396166 -0.3215958 9
-3.855309 -0.3526895 -0.1559118 91
-4.205396 0.0004775975 -0.1942529 32
-3.927808 0.3632911 -0.2046336 32
-3.877834 0.7139531 -0.2271192 14
-3.864137 -0.3393496 -0.06701723 8
-3.97384 0.01501187 -0.09133447 37
-3.865787 0.3683406 -0.1120543 7
-3.663955 0.6847837 -0.1274919 29
nan nan nan 0
-3.79713 0.7235 -0.4304909 4
-3.887254 0.7366366 0.1573166 3
-3.859021 -0.3300841 0.2230531 70
-3.883441 0.7574987 0.3186001 101
-3.927507 -0.3175749 0.4789465 6
-4.277532 0.8357412 0.7872032 6
-5.278211 -0.4120455 1.407976 13
-3.844967 -0.3348503 0.0220015 8
-3.864853 0.02410126 0 46
-3.876662 0.376246 -0.02018464 17
-3.757495 0.7119235 -0.04425967 23
-3.828262 -0.3353426 0.1122162 9
-3.873845 0.01882762 0.08901339 31
-3.86691 0.3679072 0.06576254 11
-3.852167 0.7224525 0.04740196 19
nan nan nan 0
-0.3433042 -0.02703711 -0.07961464 9
-3.833669 -0.3318896 -0.529139 13
-3.895531 -0.3034455 -0.3662858 16
-3.829156 -0.3114935 -0.2438773 120
-3.880416 0.03287726 -0.2685624 103
-3.884263 0.3911888 -0.2918914 96
-3.919147 0.756103 -0.3228171 15
-3.856516 -0.3392299 -0.1559118 101
-4.165413 0.01503164 -0.1923895 31
-3.931486 0.377479 -0.2048953 31
-3.880222 0.7284127 -0.2274096 17
-3.865299 -0.3258592 -0.06701723 9
-3.973763 0.02888307 -0.09133447 36
-3.86945 0.3823263 -0.1122001 7
-3.803856 0.724897 -0.1325017 10
nan nan nan 0
-3.779953 0.733888 -0.4288136 8
-3.879755 0.7492471 0.157116 2
-3.855176 -0.3161966 0.2227627 52
-3.88566 0.7720281 0.3190055 123
-3.903855 -0.3019166 0.4758998 9
-4.255295 0.846802 0.7836168 6
-5.279617 -0.3936186 1.407976 13
-3.84113 -0.3210031 0.0219727 8
-3.864745 0.03759197 0 40
-3.880299 0.3902784 -0.02021082 9
-3.691188 0.7126224 -0.0434996 19
-3.82443 -0.3215514 0.1120688 9
-3.878754 0.03238901 0.08912945 31
-3.870576 0.381896 0.06584806 12
-3.825074 0.7311676 0.04709654 7
nan nan nan 0
-0.3385793 -0.02539425 -0.07835092 10
-3.829869 -0.3180886 -0.5284509 13
-3.896566 -0.2898457 -0.3662858 16
-3.83022 -0.2981253 -0.2438773 123
-3.880277 0.04642224 -0.2685624 105
-3.882874 0.404745 -0.2918914 96
-3.926261 0.7717147 -0.3236312 17
-3.862655 -0.3261937 -0.1561151 103
-4.090417 0.02907467 -0.1888958 27
-3.935112 0.391697 -0.2051569 32
-3.887459 0.7438422 -0.2279905 23
-3.86143 -0.3119551 -0.06692997 9
-3.973638 0.04275392 -0.09133447 30
-3.873064 0.396342 -0.1123458 7
-3.884671 0.7544816 -0.1354385 6
nan nan nan 0
-3.743259 0.7402809 -0.4249001 9
-3.685991 0.7249069 0.1492903 3
-3.856256 -0.3027376 0.2227627 73
-3.892708 0.7875774 0.3198162 48
-3.894987 -0.2875436 0.4746811 8
-4.266773 0.8646002 0.7863066 26
-5.280959 -0.3751869 1.407976 13
-3.837244 -0.307187 0.0219439 10
-3.86459 0.05108222 0 40
-3.883886 0.4043409 -0.020237 8
nan nan nan 0
-3.825528 -0.3081997 0.1120688 10
-3.878617 0.04592818 0.08912945 30
-3.86922 0.3954045 0.06584806 11
nan nan nan 0
nan nan nan 0
-0.353122 -0.02549478 -0.08214208 9
-3.830956 -0.3047179 -0.5284509 13
-3.892589 -0.2758839 -0.3658144 17
-3.831237 -0.2847535 -0.2438773 122
-3.885079 0.06004151 -0.2689112 104
-3.886395 0.418833 -0.292268 86
-3.913773 0.7834452 -0.3228171 29
-3.86377 -0.3127085 -0.1561151 108
-4.010382 0.04254378 -0.1851691 20
-3.938688 0.4059448 -0.2054186 29
-3.884839 0.7574074 -0.2279905 32
-3.857512 -0.2980821 -0.06684271 10
-3.998455 0.05696884 -0.09191474 37
-3.876627 0.4103876 -0.1124915 8
-3.798702 0.751435 -0.1325017 2
nan nan nan 0
-3.730913 0.7513667 -0.4237819 10
-3.600185 0.7209671 0.1458791 30
-3.857289 -0.2892749 0.2227627 54
-3.894814 0.802173 0.3202215 81
-3.895967 -0.2739458 0.4746811 7
-4.297442 0.886489 0.7925828 27
-5.282236 -0.3567506 1.407976 14
-3.838293 -0.2937906 0.0219439 11
-3.864388 0.06457184 0 41
-3.882451 0.4178957 -0.020237 20
nan nan nan 0
-3.826581 -0.2948442 0.1120688 11
-3.883432 0.05954096 0.08924551 31
-3.872787 0.409436 0.06593358 11
nan nan nan 0
nan nan nan 0
nan nan nan 0
-3.831996 -0.2913435 -0.5284509 14
-3.893528 -0.2622945 -0.3658144 16
-3.827231 -0.2710189 -0.2435572 121
-3.884845 0.0736026 -0.2689112 103
-3.884909 0.4323965 -0.292268 86
-3.92566 0.8001082 -0.3240383 9
-3.864838 -0.2992195 -0.1561151 110
-3.995227 0.05633839 -0.1844704 22
-3.937247 0.4196909 -0.2054186 29
-3.90175 0.7748792 -0.2291522 32
-3.853543 -0.2842402 -0.06675545 10
-3.968245 0.07040751 -0.09121841 32
-3.880139 0.4244629 -0.1126372 7
nan nan nan 0
nan nan nan 0
-3.752597 0.7694106 -0.4265773 6
-3.68084 0.750622 0.1492903 14
-3.853297 -0.2754457 0.2224723 89
-3.896867 0.8167929 0.3206269 80
-3.891949 -0.2600071 0.4740717 9
-4.299134 0.9025013 0.7934793 7
-5.28345 -0.33831 1.407976 13
-3.839295 -0.2803907 0.0219439 10
-3.86414 0.07806069 0 40
-3.880969 0.4314454 -0.020237 27
nan nan nan 0
-3.827587 -0.2814852 0.1120688 7
-3.8832 0.07309631 0.08924551 31
-3.876304 0.4234972 0.0660191 10
-3.743719 0.7562314 0.04618026 13
nan nan nan 0
-0.3532914 -0.02302893 -0.08214208 9
-3.828051 -0.2776003 -0.5277628 13
-3.89442 -0.2487019 -0.3658144 16
-3.828153 -0.2576577 -0.2435572 122
-3.884565 0.08716279 -0.2689112 105
-3.888329 0.4465261 -0.2926446 81
-3.927721 0.8148255 -0.3244454 3
-3.865859 -0.2857269 -0.1561151 108
-3.990012 0.07019857 -0.1842375 30
-3.935758 0.4334319 -0.2054186 27
-3.879456 0.78451 -0.2279905 28
-3.854512 -0.2707871 -0.06675545 11
-3.962978 0.08415504 -0.09110236 30
-3.8836 0.4385677 -0.1127829 7
nan nan nan 0
nan nan nan 0
-3.749888 0.7825049 -0.4265773 4
-3.741771 0.7767586 0.1518988 15
-3.854235 -0.2619935 0.2224723 48
-3.898864 0.8314369 0.3210322 96
-3.892833 -0.2464201 0.4740717 8
-4.300767 0.9185361 0.7943758 6
-5.279778 -0.3195688 1.406682 14
-3.84025 -0.2669873 0.0219439 10
-3.863843 0.09154857 0 38
-3.879439 0.4449899 -0.020237 26
-3.783648 0.7855785 -0.0447274 21
-3.828546 -0.2681227 0.1120688 10
-3.882921 0.08665076 0.08924551 30
-3.87977 0.4375879 0.06610461 10
nan nan nan 0
nan nan nan 0
-0.3533696 -0.02179557 -0.08214208 10
-3.828997 -0.2642362 -0.5277628 13
-3.895265 -0.2351064 -0.3658144 18
-3.82903 -0.2442934 -0.2435572 121
-3.889223 0.100849 -0.26926 104
-3.886746 0.4600961 -0.2926446 96
nan nan nan 0
-3.866832 -0.2722308 -0.1561151 110
-3.984749 0.08402302 -0.1840045 26
-3.934221 0.4471676 -0.2054186 30
-3.891357 0.8010862 -0.2288618 16
-3.850446 -0.2569907 -0.06666819 12
-3.947668 0.09762412 -0.0907542 29
-3.887009 0.4527018 -0.1129286 7
nan nan nan 0
nan nan nan 0
-3.76171 0.7987065 -0.4282546 3
-3.836769 0.8106067 0.155912 16
-3.850145 -0.2482099 0.2221818 50
-3.895938 0.8450413 0.3210322 95
-3.903576 -0.233436 0.4752904 8
nan nan nan 0
-5.280861 -0.3011369 1.406682 14
-3.841159 -0.2535807 0.0219439 10
-3.863501 0.1050353 0 38
-3.877862 0.458529 -0.020237 20
nan nan nan 0
-3.829459 -0.2547569 0.1120688 9
-3.882596 0.1002042 0.08924551 31
-3.878219 0.4511281 0.06610461 10
-3.894898 0.815339 0.04813498 8
nan nan nan 0
-0.3534436 -0.02056194 -0.08214208 9
-3.829895 -0.2508689 -0.5277628 12
-3.896061 -0.2215079 -0.3658144 17
-3.824879 -0.2306189 -0.2432372 124
-3.888847 0.1144243 -0.26926 105
-3.885117 0.4736606 -0.2926446 98
-3.931679 0.8443323 -0.3252595 2
-3.867759 -0.2587314 -0.1561151 117
-3.964459 0.09745075 -0.1830729 26
-3.927677 0.4603145 -0.2051569 29
nan nan nan 0
-3.85132 -0.2435485 -0.06666819 13
-3.947303 0.1114035 -0.0907542 26
-3.890367 0.4668651 -0.1130743 8
-3.719429 0.7897713 -0.1300832 18
nan nan nan 0
-3.7589 0.8118325 -0.4282546 2
-3.868096 0.8313909 0.1573166 14
-3.850988 -0.2347689 0.2221818 50
-3.89783 0.8597159 0.3214376 96
-3.904367 -0.2198085 0.4752904 9
nan nan nan 0
-5.28188 -0.2827015 1.406682 14
-3.842021 -0.240171 0.0219439 9
-3.868108 0.1186718 0 36
-3.8812 0.4726692 -0.02026318 13
-3.885576 0.835237 -0.04601368 7
-3.835312 -0.2417097 0.1122162 8
-3.882222 0.1137563 0.08924551 30
-3.881584 0.46526 0.06619013 10
-3.901806 0.8310258 0.04825715 9
nan nan nan 0
-0.3583386 -0.01967143 -0.08340581 9
-3.830748 -0.2374985 -0.5277628 13
-3.896811 -0.2079068 -0.3658144 18
-3.82566 -0.2172662 -0.2432372 123
-3.888424 0.1279982 -0.26926 103
-3.88344 0.4872193 -0.2926446 97
-3.904372 0.8527008 -0.3232241 5
-3.863653 -0.2449055 -0.1559118 116
-3.939131 0.1106001 -0.1819083 25
-3.92109 0.4734211 -0.2048953 26
nan nan nan 0
-3.852146 -0.2301034 -0.06666819 14
-3.941894 0.1250253 -0.09063815 26
-3.893673 0.4810573 -0.1132201 8
-3.721532 0.8038117 -0.1302559 26
nan nan nan 0
nan nan nan 0
-3.87005 0.8459617 0.1575173 12
-3.851784 -0.221325 0.2221818 56
-3.899666 0.874414 0.3218429 95
-3.900155 -0.2059101 0.4746811 9
-5.188147 1.166217 0.9620376 15
-5.282835 -0.2642626 1.406682 14
-3.842835 -0.2267584 0.0219439 10
-3.86767 0.1321733 0 32
-3.879527 0.4862142 -0.02026318 8
-3.882637 0.8487951 -0.04601368 8
-3.836133 -0.2283205 0.1122162 9
-3.881801 0.1273071 0.08924551 31
-3.884897 0.4794209 0.06627565 10
-3.898881 0.8446406 0.04825715 8
nan nan nan 0
-0.3535785 -0.01809396 -0.08214208 10
-3.831554 -0.2241253 -0.5277628 12
-3.897513 -0.1943031 -0.3658144 17
-3.826396 -0.2039108 -0.2432372 121
-3.887954 0.1415706 -0.26926 106
-3.88666 0.5014125 -0.2930213 96
-3.911098 0.8684985 -0.3240383 18
-3.864485 -0.2314174 -0.1559118 118
-3.948706 0.1246599 -0.1823741 26
-3.914458 0.4864873 -0.2046336 26
-3.907139 0.8471129 -0.230314 6
-3.852926 -0.2166555 -0.06666819 13
-3.941434 0.1387843 -0.09063815 25
-3.901886 0.4959107 -0.1135115 6
-3.713825 0.8157183 -0.1300832 35
nan nan nan 0
nan nan nan 0
-3.891451 0.8649189 0.1585206 9
-3.84755 -0.2076024 0.2218914 68
-3.901448 0.8891352 0.3222483 95
-15.64746 -0.7873523 1.918833 23
-5.174456 1.182118 0.9602444 8
