# .PCD v0.7 - Point Cloud Data file format
VERSION 0.7
FIELDS x y z intensity
SIZE 4 4 4 4
TYPE F F F F
COUNT 1 1 1 1
WIDTH 1654
HEIGHT 1
VIEWPOINT 0 0 0 1 0 0 0
POINTS 1654
DATA ascii
-2.457096 4.046343 -0.3834725 16
-2.639838 2.442753 -0.1447317 119
-2.198434 2.442802 -0.1513961 20
nan nan nan 0
-2.556993 4.16399 -0.2820112 19
-2.621731 2.443763 -0.06186878 17
-2.197986 2.460201 -0.07566719 29
-1.69717 2.287991 -0.08189147 10
-2.478017 4.060346 -0.163079 19
-1.471517 2.387459 -0.5014691 11
nan nan nan 0
-2.441749 4.022774 0.1874155 7
-2.666942 2.497072 0.210274 15
-2.403916 4.008727 0.3769697 8
-2.665374 2.519014 0.4454324 12
-1.521845 2.534745 0.5316759 10
nan nan nan 0
-2.620312 2.445973 0.02041762 12
-2.192546 2.466225 0 24
nan nan nan 0
-2.461607 4.055697 -0.05501763 19
-2.63511 2.457232 0.1051382 10
-2.195338 2.462559 0.07566719 27
nan nan nan 0
-2.469287 4.051009 0.05748099 19
nan nan nan 0
nan nan nan 0
-2.565452 2.397349 -0.4823491 11
-2.546735 2.421359 -0.3290444 16
-2.5539 2.411457 -0.2227541 25
-2.148695 2.427841 -0.2239183 26
-1.672024 2.279507 -0.2105384 22
-2.435257 4.04208 -0.3822512 16
-2.623974 2.445153 -0.1443251 122
-2.186563 2.446738 -0.1511632 23
-1.785982 2.41153 -0.1551761 21
nan nan nan 0
-2.605884 2.446068 -0.06169425 17
-2.182746 2.460384 -0.07543508 29
-1.766157 2.398587 -0.08568004 8
-2.461245 4.064693 -0.1629063 19
-1.460615 2.388379 -0.5005768 12
nan nan nan 0
-2.422547 4.022707 0.1870141 25
-2.647299 2.496109 0.2094027 16
-2.394994 4.025665 0.3777803 8
-2.645765 2.518054 0.4436044 12
-1.512988 2.540042 0.5316759 13
nan nan nan 0
-2.600813 2.444848 0.02033123 11
-2.180613 2.470117 0 25
-1.747879 2.382496 -0.01526283 9
-2.437138 4.047121 -0.05478376 19
-2.615571 2.456169 0.1046958 9
-2.180098 2.462725 0.07543508 26
-1.72844 2.346675 0.04917225 11
-2.447384 4.046761 0.05729774 17
nan nan nan 0
-0.2454254 0.2346214 -0.07835092 11
-2.546233 2.396125 -0.4802848 10
-2.527465 2.419923 -0.3276302 14
-2.538224 2.413491 -0.222114 22
-2.136912 2.431582 -0.2235695 27
-1.661125 2.281297 -0.2101618 22
-2.410926 4.033434 -0.3806229 12
-2.604478 2.444058 -0.1437153 123
-2.174692 2.450622 -0.1509303 21
-1.765732 2.401651 -0.1541294 20
-2.522706 4.173191 -0.2814303 19
-2.586416 2.444863 -0.06143247 17
-2.167532 2.46049 -0.07520297 28
-1.772508 2.424921 -0.08640862 10
-2.439336 4.060401 -0.162388 19
-1.449725 2.389252 -0.4996845 11
nan nan nan 0
-2.403376 4.022555 0.1866128 25
-2.63132 2.498472 0.2088219 16
-2.385983 4.042591 0.3785911 8
-2.629784 2.520416 0.4423857 12
-1.501618 2.541068 0.5307794 11
nan nan nan 0
-2.58499 2.447048 0.02027363 13
-2.165382 2.470197 0 27
-1.721907 2.364323 -0.01510576 9
-2.415318 4.042718 -0.05460836 19
-2.592434 2.451571 0.104106 9
-2.164883 2.462815 0.07520297 26
-1.705497 2.332508 0.04874467 10
-2.428109 4.046699 0.05717556 18
nan nan nan 0
-0.2375207 0.2288867 -0.07582346 9
-2.527053 2.394796 -0.4782205 12
-2.511826 2.421831 -0.3266874 15
-2.526174 2.418891 -0.2217939 22
-2.121849 2.431514 -0.2228719 29
-1.644398 2.274953 -0.2090319 21
-2.391758 4.033247 -0.3798087 12
-2.588658 2.446283 -0.1433087 118
-2.16282 2.454453 -0.1506974 24
-1.789691 2.452184 -0.1570079 19
nan nan nan 0
-2.570613 2.446994 -0.06125794 17
-2.152343 2.46052 -0.07497086 25
-1.766965 2.435141 -0.08655433 10
-2.420042 4.060301 -0.1620425 19
-1.438847 2.390078 -0.4987922 12
nan nan nan 0
-2.386777 4.026618 0.1864122 26
-2.615356 2.500754 0.208241 16
-2.376882 4.059502 0.3794017 7
-2.610242 2.519257 0.4405577 11
-1.49026 2.542046 0.5298828 13
nan nan nan 0
-2.569184 2.449168 0.02021604 11
-2.150176 2.470202 0 24
-1.696082 2.345996 -0.01494868 10
-2.380838 4.016695 -0.05414063 19
-2.576612 2.453724 0.1038111 11
-2.149694 2.462829 0.07497086 27
-1.685607 2.322257 0.0484026 10
-2.408863 4.046552 0.05705339 18
nan nan nan 0
-0.2367203 0.2297144 -0.07582346 11
-2.507914 2.393362 -0.4761563 12
-2.492627 2.420198 -0.3252731 15
-2.506924 2.417321 -0.2208338 21
-2.11008 2.435138 -0.2225231 30
-1.648062 2.296891 -0.2105384 21
-2.3701 4.028677 -0.3785875 13
-2.569229 2.44499 -0.1426989 120
-2.150948 2.458231 -0.1504645 21
-1.754777 2.42201 -0.1546527 19
nan nan nan 0
-2.554827 2.449044 -0.06108342 17
-2.137181 2.460474 -0.07473876 26
nan nan nan 0
-2.403315 4.064419 -0.1618697 19
-1.42798 2.390858 -0.4978999 12
nan nan nan 0
-2.367652 4.026307 0.1860109 25
-2.595808 2.499497 0.2073697 16
-2.3602 4.063462 0.3789964 8
-2.587177 2.514539 0.4381203 12
-1.478912 2.542975 0.5289862 14
nan nan nan 0
-2.549782 2.447751 0.02012964 12
-2.134997 2.47013 0 25
-1.687882 2.351902 -0.01494868 8
-2.384507 4.05517 -0.0545499 19
-2.560806 2.455796 0.1035162 11
-2.134532 2.462767 0.07473876 27
-1.642449 2.279433 0.0473764 10
-2.392186 4.050628 0.05699231 19
nan nan nan 0
nan nan nan 0
-2.488815 2.391824 -0.474092 11
-2.477035 2.421934 -0.3243303 15
-2.487715 2.415645 -0.2198736 22
-2.098311 2.438709 -0.2221744 28
-2.879671 4.04568 -0.3721144 9
-2.351009 4.028311 -0.3777733 14
-2.553454 2.447042 -0.1422924 120
-2.135798 2.458188 -0.1499986 22
nan nan nan 0
nan nan nan 0
-2.535456 2.447548 -0.06082163 17
-2.122046 2.460353 -0.07450665 30
-2.984297 4.176031 -0.1484829 27
-2.381543 4.059844 -0.1613515 19
-1.417126 2.39159 -0.4970076 12
nan nan nan 0
-2.351071 4.030229 0.1858102 26
-2.57989 2.501605 0.2067888 16
-2.338553 4.058712 0.3777803 7
-2.57128 2.516622 0.4369016 12
-1.467577 2.543857 0.5280896 10
nan nan nan 0
-2.530421 2.446228 0.02004325 12
-2.119844 2.469983 0 23
nan nan nan 0
-2.372851 4.06779 -0.05460836 19
-2.545016 2.457787 0.1032213 12
-2.119397 2.46263 0.07450665 27
-1.666448 2.3299 0.04831709 8
-2.372987 4.05032 0.05687014 19
nan nan nan 0
nan nan nan 0
-2.473322 2.39362 -0.4727159 11
-2.457909 2.420105 -0.3229161 16
-2.464976 2.410382 -0.2185934 23
-2.083302 2.438438 -0.2214768 29
-2.842528 4.023122 -0.3691014 10
-2.33195 4.027861 -0.3769591 16
-2.534096 2.445549 -0.1416826 118
-2.11741 2.454289 -0.1492999 22
-3.013308 4.223024 -0.2697918 25
nan nan nan 0
-2.519717 2.449425 -0.06064711 18
-2.106937 2.460155 -0.07427453 27
-2.981262 4.202733 -0.1490658 21
-2.372373 4.076777 -0.161697 20
-1.406284 2.392277 -0.4961154 12
nan nan nan 0
-2.331994 4.029757 0.1854089 8
-2.560412 2.500149 0.2059175 16
-2.316968 4.053862 0.3765643 7
-2.551861 2.515147 0.4350735 12
-1.453818 2.540416 0.5262964 14
nan nan nan 0
-2.51469 2.448082 0.01998566 11
-2.101474 2.465956 0 24
nan nan nan 0
-2.35364 4.067387 -0.05449143 19
-2.529245 2.459699 0.1029263 11
-2.107538 2.466214 0.07439059 27
-2.8815 4.060728 0.08449076 24
-2.353819 4.049928 0.05674797 19
nan nan nan 0
nan nan nan 0
-2.454295 2.391887 -0.4706516 12
-2.442367 2.421671 -0.3219733 16
-2.445865 2.408485 -0.2176333 22
-2.065091 2.43429 -0.2204304 26
-2.774105 3.95544 -0.3619453 14
-2.312922 4.027328 -0.3761449 17
-2.514779 2.443952 -0.1410727 117
-2.099075 2.450292 -0.1486011 22
-2.99278 4.225365 -0.2692685 26
nan nan nan 0
-2.500418 2.447731 -0.06038532 17
-2.091856 2.459883 -0.07404242 30
-2.946442 4.184501 -0.1480458 22
-2.340676 4.054718 -0.1604877 19
-1.395455 2.392916 -0.495223 13
nan nan nan 0
-2.315431 4.033536 0.1852082 7
-2.54454 2.502083 0.2053366 16
-2.292994 4.044571 0.374943 8
-2.536011 2.517058 0.4338548 11
-1.440102 2.53691 0.5245032 10
-2.567116 2.563719 0.9615127 33
-2.498978 2.449856 0.01992806 14
-2.086389 2.465647 0 25
-2.960395 4.220027 -0.02678195 20
-2.331976 4.062561 -0.05431603 19
-2.513491 2.46153 0.1026314 10
-2.092444 2.465937 0.07415848 27
-2.855798 4.054409 0.08414869 20
-2.337176 4.053786 0.05668688 19
nan nan nan 0
-0.236974 0.2363534 -0.07708719 9
-2.438851 2.393513 -0.4692754 12
-2.426843 2.423158 -0.3210304 15
-2.430346 2.409992 -0.2169932 21
-2.046935 2.430044 -0.2193841 28
-2.78875 4.006031 -0.3657117 20
-2.293928 4.026711 -0.3753308 16
-2.495504 2.442249 -0.1404629 123
-2.077555 2.442394 -0.1476694 24
-2.969401 4.223529 -0.2684835 27
nan nan nan 0
-2.484727 2.449436 -0.0602108 17
-2.076802 2.459535 -0.07381032 28
-2.934679 4.198858 -0.1481915 21
-2.319074 4.049847 -0.1599695 20
-1.384638 2.393509 -0.4943308 11
nan nan nan 0
-2.296404 4.032905 0.1848069 7
-2.525134 2.50043 0.2044654 16
-2.271549 4.03951 0.3737269 7
-2.520178 2.518889 0.4326361 12
-1.426428 2.53334 0.5227101 11
-2.599075 2.613702 0.9770418 17
-2.47972 2.448043 0.01984167 12
-2.074551 2.469088 0 25
-2.937079 4.218023 -0.02670342 20
-2.310374 4.057633 -0.05414063 19
-2.494191 2.459778 0.102189 11
-2.077377 2.465584 0.07392637 25
-2.884575 4.125824 0.08543144 22
-2.31558 4.048891 0.05650363 19
nan nan nan 0
-0.2396198 0.2405476 -0.07835092 9
-2.419897 2.391585 -0.4672112 11
-2.411339 2.424567 -0.3200876 15
-2.414846 2.411421 -0.2163531 24
-2.028834 2.425702 -0.2183377 29
-2.788913 4.036256 -0.3675948 22
-2.277412 4.030352 -0.3749237 12
-2.472708 2.436941 -0.1396498 118
-2.062567 2.442004 -0.1472036 26
-2.951784 4.229773 -0.2682218 7
nan nan nan 0
-2.469054 2.451062 -0.06003627 17
-2.061777 2.459112 -0.07357821 28
-2.90292 4.184432 -0.1473172 22
-2.295071 4.040526 -0.1592785 19
-1.373834 2.394057 -0.4934385 13
nan nan nan 0
-2.27986 4.036544 0.1846062 9
-2.50577 2.498672 0.203594 16
-2.252591 4.038704 0.3729162 7
-2.504364 2.52064 0.4314175 12
-1.415186 2.534004 0.5218135 12
-2.593334 2.62619 0.978336 18
-2.464056 2.449645 0.01978407 10
-2.05951 2.46864 0 27
-2.922338 4.22825 -0.02670342 21
-2.291289 4.056962 -0.05402369 20
-2.474934 2.457921 0.1017467 11
-2.065548 2.468989 0.07381032 26
-2.91004 4.193382 0.08662868 22
-2.296509 4.048246 0.05638146 19
nan nan nan 0
-0.2387787 0.2413826 -0.07835092 10
-2.400986 2.389554 -0.4651469 12
-2.392351 2.42236 -0.3186734 16
-2.399366 2.41277 -0.215713 21
-2.013977 2.425098 -0.2176402 30
-2.738169 3.992499 -0.3626986 24
-2.268191 4.046977 -0.3757379 9
-2.453532 2.435017 -0.13904 120
-2.050818 2.445364 -0.1469707 25
-2.925634 4.223629 -0.267175 7
nan nan nan 0
-2.44986 2.449079 -0.05977449 17
-2.04678 2.458615 -0.07334611 30
-2.876965 4.17807 -0.1467344 21
-2.266267 4.022373 -0.1582419 19
-1.363043 2.394557 -0.4925462 14
nan nan nan 0
-2.260883 4.035754 0.1842049 7
-2.489978 2.50034 0.2030132 16
-2.236073 4.042179 0.3725109 7
-2.485078 2.518784 0.4295894 12
-1.406332 2.538929 0.5218135 10
-2.604469 2.655888 0.9861006 16
-2.448412 2.451168 0.01972648 12
-2.047688 2.471965 0 26
-2.904734 4.234302 -0.02667724 20
-2.272237 4.056205 -0.05390676 19
-2.45926 2.459488 0.1014517 10
-2.050524 2.468498 0.07357821 27
-2.895384 4.203515 0.08662868 22
-2.279917 4.051878 0.05632038 19
nan nan nan 0
-0.2310372 0.2354294 -0.07582346 10
-2.382119 2.38742 -0.4630826 12
-2.3769 2.423599 -0.3177305 16
-2.383906 2.414041 -0.2150729 19
-2.002324 2.428267 -0.2172914 31
-2.749451 4.039136 -0.3660883 11
-2.256467 4.059228 -0.3761449 10
-2.434399 2.432989 -0.1384301 123
-2.035873 2.444835 -0.1465049 23
-2.905218 4.225584 -0.2666517 6
nan nan nan 0
-2.434239 2.450533 -0.05959997 18
-2.031811 2.458042 -0.073114 28
-2.84827 4.16745 -0.1460058 21
-2.25951 4.043354 -0.1587602 19
-1.354676 2.399301 -0.4925462 12
nan nan nan 0
-2.241939 4.034882 0.1838036 8
-2.470689 2.498386 0.2021419 16
-2.221949 4.04996 0.3725109 8
-2.469314 2.520364 0.4283707 12
-1.397461 2.543822 0.5218135 16
-2.585059 2.654597 0.9822182 16
-2.42926 2.449067 0.01964008 12
-2.03269 2.471378 0 27
-2.875873 4.223745 -0.02654633 20
-2.253218 4.055366 -0.05378982 19
-2.440078 2.457436 0.1010094 12
-2.03553 2.467932 0.07334611 26
-2.875053 4.20534 0.08645765 22
-2.263328 4.055443 0.05625929 19
nan nan nan 0
-0.2370877 0.2430436 -0.07835092 9
-2.366788 2.388696 -0.4617065 12
-2.35799 2.421199 -0.3163163 16
-2.364967 2.411676 -0.2141128 24
-1.990674 2.431384 -0.2169426 29
-2.738125 4.052842 -0.3664649 12
-2.256689 4.093283 -0.3785875 11
-2.422364 2.437934 -0.1382269 116
-2.024142 2.44808 -0.1462719 24
-2.882011 4.223323 -0.2658666 6
nan nan nan 0
-2.418637 2.451909 -0.05942544 18
-2.016872 2.457396 -0.07288189 28
-2.81688 4.152545 -0.1451315 21
-2.245382 4.051217 -0.1587602 19
-1.343897 2.399718 -0.4916539 14
nan nan nan 0
-2.223029 4.033926 0.1834023 8
-2.454947 2.499883 0.201561 16
-2.210175 4.062071 0.3729162 8
-2.450103 2.518313 0.4265427 12
-1.388573 2.548685 0.5218135 14
-2.569053 2.65667 0.9796301 15
-2.413668 2.450419 0.01958249 13
-2.020886 2.474588 0 26
-2.852718 4.221327 -0.0264678 21
-2.239048 4.063206 -0.05378982 19
-2.424455 2.458832 0.1007145 12
-2.020564 2.467291 0.073114 28
-2.85194 4.202937 0.0862011 22
-2.246742 4.058941 0.0561982 19
nan nan nan 0
-0.2362379 0.2438698 -0.07835092 10
-2.347998 2.38637 -0.4596422 12
-2.342592 2.42227 -0.3153735 16
-2.349561 2.412779 -0.2134727 22
-1.975878 2.430581 -0.2162451 28
-2.729511 4.070659 -0.3672182 12
-2.208989 4.03988 -0.3728883 14
-2.403296 2.435724 -0.1376171 118
-2.006069 2.443555 -0.1455732 24
-2.861655 4.225088 -0.2653433 6
nan nan nan 0
-2.399552 2.449639 -0.05916365 17
-2.005122 2.460547 -0.07276583 28
-2.810737 4.174793 -0.1455686 21
-2.233629 4.063412 -0.1589329 19
-1.333132 2.400089 -0.4907616 12
nan nan nan 0
-2.206544 4.037274 0.1832016 7
-2.435734 2.497733 0.2006897 17
-2.19126 4.060984 0.3721055 7
-2.430937 2.516158 0.4247146 12
-1.377338 2.549184 0.5209169 13
-2.553063 2.658664 0.9770418 16
-2.394594 2.448123 0.01949609 12
-2.005933 2.473863 0 26
-2.829614 4.218799 -0.02638926 20
-2.224851 4.070997 -0.05378982 19
-2.405351 2.456584 0.1002721 10
-2.005627 2.466576 0.07288189 28
-2.828878 4.200424 0.08594455 22
-2.23256 4.066759 0.0561982 19
nan nan nan 0
-0.2319722 0.2412644 -0.07708719 10
-2.33272 2.387479 -0.458266 13
-2.323762 2.419677 -0.3139593 16
-2.334176 2.413802 -0.2128326 20
-1.961112 2.429704 -0.2155475 29
-2.720806 4.088466 -0.3679715 14
-2.197244 4.05195 -0.3732954 14
-2.391276 2.440535 -0.1374138 117
-1.991211 2.442804 -0.1451074 23
-2.841321 4.226761 -0.2648199 8
nan nan nan 0
-2.384003 2.450845 -0.05898913 18
-1.990228 2.459764 -0.07253373 30
-2.796148 4.184579 -0.1455686 22
-2.217044 4.066793 -0.1587602 19
-1.32238 2.400414 -0.4898693 11
nan nan nan 0
-2.187687 4.036161 0.1828003 7
-2.420044 2.499059 0.2001088 15
-2.170034 4.055418 0.3708895 7
-2.411815 2.513901 0.4228866 11
-1.363802 2.545296 0.5191237 12
-2.537092 2.660578 0.9744537 16
-2.379055 2.449306 0.0194385 13
-1.99101 2.473065 0 27
-2.806563 4.216162 -0.02631072 21
-2.20825 4.07434 -0.05373135 19
-2.389781 2.45781 0.09997716 11
-1.99072 2.465787 0.07264978 27
-2.808645 4.201959 0.08577351 22
-2.213579 4.065741 0.05607603 20
nan nan nan 0
-0.2311286 0.2420727 -0.07708719 9
-2.317463 2.38851 -0.4568898 12
-2.30842 2.42058 -0.3130165 16
-2.318812 2.414748 -0.2121924 22
-1.946376 2.428754 -0.2148499 31
-2.71201 4.106261 -0.3687247 15
-2.168957 4.033244 -0.3708529 10
-2.375763 2.441718 -0.1370072 120
-1.966949 2.430337 -0.1439428 24
-2.82101 4.228344 -0.2642966 6
nan nan nan 0
-2.368475 2.451971 -0.0588146 17
-1.975364 2.458905 -0.07230163 29
-2.778763 4.190147 -0.1454229 21
-2.202835 4.074508 -0.1587602 19
-1.311643 2.400693 -0.488977 13
nan nan nan 0
-2.168865 4.034967 0.182399 7
-2.40091 2.496714 0.1992375 17
-2.137221 4.027727 0.3676468 9
-2.396168 2.515128 0.4216679 13
-1.35031 2.541344 0.5173306 13
-2.521137 2.662415 0.9718655 14
-2.363537 2.450409 0.0193809 12
-1.976117 2.472192 0 26
-2.783565 4.213414 -0.02623218 21
-2.191653 4.077617 -0.05367288 18
-2.370755 2.455368 0.09953479 11
-1.978972 2.468823 0.07253373 27
-2.791198 4.20757 0.08568799 23
-2.194633 4.064638 0.05595386 19
nan nan nan 0
-0.2268932 0.2394257 -0.07582346 10
-2.305669 2.393023 -0.4562017 12
-2.2931 2.421406 -0.3120736 16
-2.303471 2.415616 -0.2115524 22
-1.925455 2.419928 -0.2134548 18
-2.705854 4.128216 -0.3698546 17
nan nan nan 0
-2.360271 2.442822 -0.1366007 118
-1.961585 2.44108 -0.1441757 26
-2.797967 4.225674 -0.2635115 7
nan nan nan 0
-2.352969 2.45302 -0.05864008 18
-1.963649 2.46188 -0.07218557 29
-2.761373 4.195646 -0.1452772 21
-2.179175 4.064546 -0.1580692 18
-1.303255 2.405257 -0.488977 11
nan nan nan 0
-2.150077 4.03369 0.1819977 7
-2.385274 2.497871 0.1986567 17
-2.130094 4.048401 0.3688628 8
-2.377126 2.512678 0.4198399 13
-1.339147 2.541685 0.516434 11
-2.501889 2.660657 0.9679832 15
-2.34804 2.451434 0.01932331 12
-1.961254 2.471245 0 28
-2.763361 4.21474 -0.02617982 21
-2.172714 4.076413 -0.05355595 18
-2.35524 2.456425 0.09923986 11
-1.960997 2.463988 0.07218557 28
-2.773746 4.213111 0.08560248 23
-2.175722 4.063453 0.05583169 19
nan nan nan 0
-0.2328099 0.2471444 -0.07835092 10
-2.290442 2.393912 -0.4548256 13
-2.277802 2.422153 -0.3111308 15
-2.288152 2.416407 -0.2109123 19
-1.916996 2.426634 -0.2134548 7
-2.696862 4.145997 -0.3706079 19
nan nan nan 0
-2.3448 2.443847 -0.1361941 113
-1.956169 2.451815 -0.1444086 25
-2.780459 4.23124 -0.2632498 6
nan nan nan 0
-2.337484 2.453989 -0.05846556 19
-1.948833 2.460885 -0.07195346 29
-2.741248 4.196889 -0.1449858 22
-2.160293 4.063297 -0.1577237 19
-1.292531 2.405454 -0.4880847 15
nan nan nan 0
-2.133655 4.036751 0.181797 8
-2.369659 2.498948 0.1980758 15
-2.118249 4.060234 0.3692681 8
-2.361533 2.513737 0.4186212 12
-1.327997 2.54198 0.5155374 12
-2.485983 2.662324 0.965395 14
-2.329113 2.448764 0.01923691 12
-1.949519 2.474151 0 26
-2.743181 4.215977 -0.02612746 21
-2.151478 4.070703 -0.05338055 18
-2.336294 2.45379 0.09879749 11
-1.955485 2.474738 0.07230163 28
-2.756289 4.218582 0.08551696 23
-2.159185 4.066605 0.05577061 19
nan nan nan 0
nan nan nan 0
-2.275238 2.394723 -0.4534494 11
-2.26593 2.426457 -0.3106594 14
-2.276279 2.42075 -0.2105922 18
-1.917755 2.44508 -0.2145012 40
-2.682373 4.155385 -0.3706079 21
nan nan nan 0
-2.32935 2.444795 -0.1357876 117
-1.938288 2.446889 -0.1437099 25
-2.76022 4.232554 -0.2627265 7
nan nan nan 0
-2.31858 2.451255 -0.05820378 28
-1.934047 2.459818 -0.07172135 17
-2.723864 4.202236 -0.1448401 22
-2.132146 4.044275 -0.1566872 18
-1.284126 2.40995 -0.4880847 13
nan nan nan 0
-2.117237 4.039746 0.1815964 8
-2.354066 2.499948 0.1974949 17
-2.104063 4.067604 0.3692681 7
-2.342572 2.511094 0.4167931 13
-1.316862 2.542228 0.5146408 12
-2.466808 2.660375 0.9615127 14
-2.313673 2.449621 0.01917932 11
-1.931622 2.469132 0 15
-2.725737 4.221325 -0.02610128 21
-2.132624 4.069326 -0.05326362 17
-2.320835 2.454678 0.09850257 11
-1.934484 2.465826 0.07183741 28
-2.741547 4.228177 0.08551696 24
-2.140329 4.065263 0.05564844 19
nan nan nan 0
-0.2411367 0.2592263 -0.08214208 9
-2.260056 2.395458 -0.4520732 12
-2.250666 2.427062 -0.3097166 12
-2.260992 2.421397 -0.2099521 23
nan nan nan 0
-2.670539 4.168923 -0.3709845 20
-2.133074 4.102953 -0.3745166 11
-2.313923 2.445664 -0.135381 121
-1.954455 2.485031 -0.1455732 6
-2.740006 4.233778 -0.2622031 7
nan nan nan 0
-2.303153 2.452056 -0.05802925 17
-1.925449 2.466554 -0.07172135 7
-2.703775 4.20331 -0.1445486 22
-2.134183 4.082711 -0.1578964 18
-1.273416 2.410064 -0.4871924 12
nan nan nan 0
-2.098526 4.03824 0.181195 8
-2.33508 2.497228 0.1966236 16
-2.089852 4.074923 0.3692681 7
-2.323658 2.508349 0.4149651 13
-1.305742 2.542429 0.5137442 14
-2.447677 2.658325 0.9576304 15
-2.294828 2.446759 0.01909292 12
-1.913783 2.464019 0 6
-2.70829 4.226604 -0.0260751 21
-2.106906 4.05455 -0.05297128 14
-2.301972 2.451851 0.09806019 11
-1.925865 2.472563 0.07183741 16
-2.721364 4.229311 0.08534592 23
-2.121508 4.063841 0.05552627 18
nan nan nan 0
-0.2368899 0.2565672 -0.08087836 9
-2.244896 2.396115 -0.450697 11
-2.242181 2.434904 -0.3097166 13
-2.238932 2.414662 -0.2086719 17
nan nan nan 0
-2.655971 4.178219 -0.3709845 20
-2.12785 4.128103 -0.3761449 16
-2.298518 2.446456 -0.1349745 119
-1.918082 2.456426 -0.1434769 27
-2.717121 4.23071 -0.2614181 7
nan nan nan 0
-2.287748 2.45278 -0.05785472 25
-1.90457 2.457463 -0.07125714 30
-2.683711 4.204295 -0.1442572 22
-2.108448 4.06794 -0.1570327 14
-1.264996 2.414494 -0.4871924 11
nan nan nan 0
-2.082134 4.041097 0.1809944 8
-2.319545 2.498059 0.1960428 16
-2.071109 4.073303 0.3684575 8
-2.304791 2.505504 0.413137 13
-1.292413 2.538196 0.511951 15
-2.428591 2.656174 0.9537482 15
-2.276032 2.443795 0.01900653 12
-1.90517 2.470684 0 17
-2.688157 4.227591 -0.02602274 21
-2.097309 4.070774 -0.05308821 14
-2.286571 2.452572 0.09776527 11
nan nan nan 0
-2.701206 4.230356 0.0851749 22
-2.102723 4.062335 0.0554041 19
nan nan nan 0
-0.2359929 0.2573926 -0.08087836 10
-2.229759 2.396697 -0.4493209 12
-2.226938 2.43538 -0.3087738 11
-2.220333 2.411466 -0.2077118 16
nan nan nan 0
-2.64137 4.187465 -0.3709845 19
-2.111165 4.131065 -0.3757379 10
-2.283137 2.44717 -0.1345679 120
-1.912559 2.467052 -0.1437099 14
-2.699654 4.235956 -0.2611564 7
-2.158197 4.17151 -0.2709747 23
-2.268963 2.449765 -0.05759294 16
-1.892929 2.460137 -0.07114108 7
-2.663673 4.205191 -0.1439658 22
-2.107908 4.101958 -0.1580692 13
-1.2543 2.414525 -0.4863001 12
nan nan nan 0
-2.065748 4.043889 0.1807937 7
-2.304032 2.498812 0.1954619 16
-2.052402 4.071602 0.3676468 7
-2.289325 2.506216 0.4119183 12
-1.279129 2.5339 0.5101579 11
-2.409549 2.653922 0.9498659 15
-2.257285 2.44073 0.01892014 12
nan nan nan 0
-2.670717 4.232719 -0.02599656 21
-2.080818 4.073615 -0.05302975 12
-2.271193 2.453215 0.09747035 12
nan nan nan 0
-2.6784 4.227087 0.08491834 22
-2.083976 4.06075 0.05528193 18
nan nan nan 0
nan nan nan 0
-2.211279 2.393569 -0.4472566 11
-2.201663 2.424738 -0.3064167 8
-2.181545 2.386109 -0.2048313 20
nan nan nan 0
-2.624093 4.192432 -0.3706079 19
nan nan nan 0
-2.267777 2.447807 -0.1341614 117
nan nan nan 0
-2.67685 4.232691 -0.2603714 6
-2.139076 4.17013 -0.2703938 24
-2.253617 2.450322 -0.05741841 25
nan nan nan 0
-2.643662 4.205998 -0.1436744 21
-2.08226 4.087016 -0.1572054 11
-1.241376 2.410133 -0.4845155 13
nan nan nan 0
-2.047116 4.042156 0.1803924 7
-2.285165 2.495811 0.1945906 15
-2.033733 4.06982 0.3668361 7
-2.277223 2.510521 0.411309 11
-1.265891 2.529544 0.5083647 13
-2.393792 2.655152 0.9472777 15
-2.241975 2.44124 0.01886254 11
nan nan nan 0
-2.650622 4.233538 -0.0259442 21
-2.064332 4.076391 -0.05297128 12
-2.25245 2.450107 0.09702798 12
nan nan nan 0
-2.65565 4.223712 0.08466179 23
-2.065264 4.059082 0.05515976 18
nan nan nan 0
-0.2374938 0.2625678 -0.08214208 9
-2.196203 2.393986 -0.4458804 12
-2.203203 2.443483 -0.3078309 8
-2.183283 2.404776 -0.2057915 23
nan nan nan 0
-2.606814 4.19733 -0.3702313 19
nan nan nan 0
-2.249053 2.444695 -0.1335516 120
nan nan nan 0
-2.656753 4.233548 -0.259848 6
-2.110961 4.150861 -0.2686512 24
-2.234918 2.447116 -0.05715663 18
nan nan nan 0
-2.621034 4.202476 -0.1432372 23
nan nan nan 0
-1.228498 2.40568 -0.482731 14
nan nan nan 0
-2.030758 4.044809 0.1801917 7
-2.269711 2.496397 0.1940097 15
-2.015101 4.067957 0.3660254 7
-2.265119 2.514772 0.4106997 14
-1.254877 2.529536 0.5074681 12
-2.37483 2.652711 0.9433954 15
-2.226689 2.441674 0.01880495 13
nan nan nan 0
-2.630554 4.234268 -0.02589184 21
-2.06128 4.105926 -0.05326362 9
-2.237132 2.450584 0.09673306 10
nan nan nan 0
-2.635601 4.224471 0.08449076 23
-2.048836 4.0618 0.05509867 16
nan nan nan 0
-0.2299933 0.2563042 -0.07961464 9
-2.177809 2.390672 -0.4438162 10
nan nan nan 0
-2.174875 2.412382 -0.2057915 21
-1.79119 2.385041 -0.2057816 10
-2.586919 4.197912 -0.369478 19
nan nan nan 0
-2.233754 2.445165 -0.133145 123
nan nan nan 0
-2.636683 4.234318 -0.2593246 6
-2.078523 4.122526 -0.2663277 22
-2.219633 2.447507 -0.0569821 18
nan nan nan 0
-2.601092 4.203098 -0.1429458 22
nan nan nan 0
-1.215666 2.401166 -0.4809464 12
nan nan nan 0
-2.012185 4.042922 0.1797904 8
-2.257632 2.500606 0.1937193 16
-1.996507 4.066015 0.3652147 8
-2.253013 2.51897 0.4100903 13
-1.246039 2.533901 0.5074681 12
-2.359127 2.653775 0.9408072 16
-2.211428 2.442031 0.01874735 11
nan nan nan 0
-2.610514 4.234911 -0.02583948 20
-2.046935 4.113096 -0.05326362 8
-2.221838 2.450984 0.09643815 11
nan nan nan 0
-2.615579 4.225142 0.08431973 23
-2.036876 4.0734 0.05515976 14
nan nan nan 0
nan nan nan 0
-2.162793 2.390925 -0.44244 10
nan nan nan 0
-2.163107 2.416247 -0.2054714 17
-1.794788 2.407267 -0.2071767 9
-2.564452 4.194152 -0.3683481 18
nan nan nan 0
-2.21848 2.445558 -0.1327385 117
nan nan nan 0
-2.619264 4.239247 -0.259063 6
-2.088611 4.178899 -0.2695225 21
-2.204373 2.447822 -0.05680758 18
nan nan nan 0
-2.578564 4.199371 -0.1425086 22
nan nan nan 0
-1.20288 2.396592 -0.4791618 12
nan nan nan 0
-1.99365 4.040956 0.1793891 6
-2.242213 2.501049 0.1931384 15
-1.980127 4.068475 0.3648094 8
-2.237603 2.519408 0.4088717 13
-1.237187 2.538235 0.5074681 17
-2.343447 2.654761 0.938219 14
-2.196191 2.442311 0.01868976 12
nan nan nan 0
-2.5905 4.235464 -0.02578712 21
-2.030359 4.115729 -0.05320515 7
-2.206569 2.451307 0.09614323 10
-1.846744 2.476306 0.07079292 12
-2.592969 4.221464 0.08406317 23
-2.02486 4.084969 0.05522085 13
nan nan nan 0
-0.2216656 0.2507668 -0.07708719 9
-2.147803 2.391103 -0.4410638 12
nan nan nan 0
-2.151338 2.420059 -0.2051514 19
-1.786374 2.413518 -0.2071767 22
-2.554965 4.211607 -0.3691014 13
nan nan nan 0
-2.20323 2.445875 -0.1323319 114
nan nan nan 0
-2.599234 4.239849 -0.2585396 5
nan nan nan 0
-2.189137 2.44806 -0.05663306 26
-1.816914 2.448661 -0.06986449 11
-2.558692 4.199809 -0.1422172 22
-1.952369 3.967642 -0.1515045 26
-1.192324 2.396367 -0.4782695 14
nan nan nan 0
-1.972965 4.034418 0.1787871 25
-2.230145 2.505137 0.192848 15
-1.961594 4.06638 0.3639987 7
-2.21893 2.516053 0.4070436 12
-1.228319 2.542538 0.5074681 13
-2.327788 2.655671 0.9356309 16
-2.184316 2.446238 0.01866096 11
-1.784654 2.417562 0 11
-2.567923 4.231655 -0.02570858 21
nan nan nan 0
-2.191325 2.451553 0.09584831 13
-1.826181 2.466675 0.07032871 11
-2.573017 4.22195 0.08389214 23
-2.012788 4.096502 0.05528193 11
nan nan nan 0
-0.2272968 0.2586986 -0.07961464 10
-2.132837 2.391205 -0.4396877 12
nan nan nan 0
-2.132952 2.416348 -0.2041912 18
-1.766116 2.403667 -0.2057816 22
-2.509416 4.169226 -0.3645817 12
nan nan nan 0
-2.188004 2.446115 -0.1319254 121
-1.717467 2.314148 -0.1325298 12
-2.581825 4.244628 -0.2582779 6
nan nan nan 0
-2.177253 2.451954 -0.05654579 18
-1.802422 2.446942 -0.06963238 10
-2.538849 4.200158 -0.1419258 23
-1.942878 3.983421 -0.1518501 28
-1.181785 2.396098 -0.4773772 13
nan nan nan 0
-1.952349 4.027785 0.1781852 24
-2.214762 2.505438 0.1922671 17
-1.945244 4.068703 0.3635933 8
-2.203583 2.516327 0.4058249 13
-1.217321 2.542369 0.5065715 11
-2.308975 2.652865 0.9317485 15
-2.169117 2.446377 0.01860336 12
-1.779162 2.427808 0 10
-2.547982 4.232025 -0.02565622 21
-1.975473 4.075784 -0.05250354 9
-2.17943 2.455455 0.09570085 12
-1.808671 2.460957 0.06998054 10
-2.553093 4.222348 0.08372111 22
-1.996293 4.099005 0.05522085 11
nan nan nan 0
-0.2328752 0.2666726 -0.08214208 11
-2.117898 2.391232 -0.4383115 12
-2.114384 2.429072 -0.3012312 8
-2.12121 2.420032 -0.2038712 17
-1.728298 2.369537 -0.2022938 23
-2.502511 4.190805 -0.3657117 9
nan nan nan 0
-2.172804 2.446279 -0.1315188 124
-1.730136 2.348262 -0.1341603 13
-2.561836 4.245063 -0.2577546 5
nan nan nan 0
-2.162056 2.45205 -0.05637127 29
-1.767293 2.41692 -0.06858789 10
-2.519034 4.20042 -0.1416343 22
-1.985365 4.107219 -0.1563417 23
-1.173414 2.400209 -0.4773772 13
nan nan nan 0
-1.933962 4.025564 0.1777838 24
-2.199405 2.505661 0.1916863 16
-1.928902 4.070962 0.363188 7
-2.184999 2.512784 0.4039969 13
-1.206339 2.542154 0.505675 11
-2.293374 2.65361 0.9291604 16
-2.157254 2.450187 0.01857456 12
-1.738294 2.389547 0 11
-2.525506 4.228013 -0.02557768 21
nan nan nan 0
-2.164223 2.45556 0.09540593 11
-1.785326 2.447073 0.06940027 10
-2.533198 4.222659 0.08355007 23
-1.981972 4.105949 0.05522085 11
nan nan nan 0
-0.2513161 0.2890984 -0.08972443 9
-2.102983 2.391184 -0.4369353 11
-2.089586 2.417634 -0.2988741 6
-2.102903 2.416146 -0.202911 17
-1.717089 2.371517 -0.201945 23
-2.434538 4.109412 -0.3578023 8
nan nan nan 0
-2.15763 2.446366 -0.1311123 114
-1.710123 2.338169 -0.1332286 13
-2.544439 4.249695 -0.2574929 7
nan nan nan 0
-2.146884 2.452071 -0.05619675 19
-1.782356 2.455422 -0.06951632 9
-2.499249 4.200596 -0.1413429 21
-1.927943 4.023942 -0.1528866 25
-1.162891 2.399858 -0.4764849 14
nan nan nan 0
-1.913472 4.01875 0.1771819 23
-2.184073 2.505809 0.1911054 15
-1.910454 4.068643 0.3623773 7
-2.172965 2.516645 0.4033875 11
-1.195374 2.541894 0.5047783 12
-2.277796 2.654278 0.9265721 14
-2.145391 2.453943 0.01854577 12
-1.721153 2.383445 0 11
-2.505637 4.228198 -0.02552532 21
-1.946971 4.089476 -0.05250354 10
-2.152341 2.459345 0.09525847 11
-1.741558 2.404732 0.06800762 11
-2.513333 4.222881 0.08337904 22
-1.963323 4.103816 0.05509867 11
nan nan nan 0
-0.2310078 0.2682919 -0.08214208 10
-2.088096 2.391061 -0.4355592 12
-2.094126 2.440002 -0.3007598 10
-2.087918 2.415932 -0.2022709 17
-1.708801 2.377497 -0.201945 21
-2.38736 4.061993 -0.3529061 8
nan nan nan 0
-2.14578 2.45013 -0.130909 115
-1.7137 2.360283 -0.1341603 11
-2.527041 4.254257 -0.2572312 6
nan nan nan 0
-2.131739 2.452016 -0.05602222 18
-1.712355 2.376501 -0.06707919 8
-2.479493 4.200684 -0.1410515 22
-1.930988 4.06678 -0.1542686 32
-1.154507 2.403903 -0.4764849 14
nan nan nan 0
-1.893053 4.011842 0.1765799 24
-2.168768 2.505879 0.1905245 16
-1.894144 4.070765 0.3619719 8
-2.157695 2.51669 0.4021688 11
-1.184425 2.541589 0.5038818 16
-2.262241 2.654871 0.923984 15
-2.133527 2.457647 0.01851697 12
-1.701161 2.37319 0 8
-2.485798 4.228296 -0.02547296 21
-1.924172 4.07815 -0.05226967 13
-2.140458 2.463076 0.09511101 11
-1.736074 2.414853 0.06812368 10
-2.493496 4.223017 0.083208 22
-1.944713 4.101605 0.0549765 10
nan nan nan 0
-0.2268662 0.2654718 -0.08087836 11
-2.073235 2.390863 -0.434183 12
-2.079127 2.43973 -0.299817 6
-2.076217 2.419424 -0.2019509 18
-2.923986 4.096193 -0.3491311 23
-2.330506 3.997062 -0.3465033 25
nan nan nan 0
-2.130645 2.450077 -0.1305024 116
-2.991582 4.148205 -0.2366438 17
-2.507108 4.254446 -0.2567078 5
nan nan nan 0
-2.116621 2.451884 -0.0558477 33
-2.984687 4.170579 -0.1181429 27
-2.459767 4.200686 -0.1407601 22
-1.965589 4.177548 -0.1582419 10
-1.144003 2.403472 -0.4755926 13
nan nan nan 0
-1.872706 4.004841 0.1759779 23
-2.153488 2.505874 0.1899437 15
-1.882004 4.081881 0.3623773 6
-2.148897 2.524206 0.4021688 13
-1.173493 2.541238 0.5029852 12
-2.24671 2.655387 0.9213958 14
-2.115122 2.453735 0.01843057 12
nan nan nan 0
-2.465989 4.228307 -0.0254206 21
-1.920486 4.1075 -0.05256201 12
-2.125304 2.462976 0.0948161 10
nan nan nan 0
-2.473689 4.223067 0.08303697 23
-1.924021 4.094786 0.05479325 14
nan nan nan 0
-0.2227472 0.2626261 -0.07961464 11
-2.0584 2.390591 -0.4328068 12
-2.060934 2.435589 -0.2984028 8
-2.061274 2.419072 -0.2013108 17
-2.924095 4.126718 -0.350875 17
-2.343977 4.052659 -0.3506463 17
nan nan nan 0
-2.115535 2.449948 -0.1300959 125
-2.959631 4.134262 -0.2352463 25
-2.487205 4.25455 -0.2561845 24
nan nan nan 0
-2.104789 2.455468 -0.05576044 23
-2.987489 4.205417 -0.1188393 21
-2.440072 4.200602 -0.1404686 21
-1.946782 4.175322 -0.1578964 9
-1.133517 2.402997 -0.4747003 14
nan nan nan 0
-1.854525 4.002282 0.1755766 24
-2.138235 2.505793 0.1893628 15
-1.853288 4.056677 0.3595399 7
-2.127233 2.516552 0.3997314 14
-1.162578 2.540842 0.5020886 12
-2.231203 2.655826 0.9188076 15
-2.096771 2.449725 0.01834418 13
-2.95201 4.177094 0 21
-2.44621 4.228232 -0.02536824 21
-1.876788 4.050633 -0.05174347 14
-2.113436 2.466591 0.09466864 12
nan nan nan 0
-2.453912 4.223029 0.08286593 23
-1.905506 4.092407 0.05467108 13
nan nan nan 0
-0.2218291 0.263402 -0.07961464 9
-2.046818 2.394003 -0.4321187 12
-2.046003 2.435156 -0.2974599 7
-2.046358 2.418645 -0.2006707 18
-2.941252 4.181766 -0.3547117 19
-2.362048 4.11705 -0.3555425 17
nan nan nan 0
-2.100454 2.449744 -0.1296893 123
-2.991497 4.209691 -0.238973 26
-2.472339 4.263206 -0.2561845 23
nan nan nan 0
-2.089712 2.455197 -0.05558591 29
-2.969909 4.211736 -0.1187232 22
-2.420407 4.200431 -0.1401772 22
-1.940558 4.200246 -0.1585874 7
-1.123047 2.402478 -0.473808 12
nan nan nan 0
-1.834307 3.995103 0.1749746 23
-2.123009 2.505635 0.1887819 16
-1.828871 4.040408 0.3575132 7
-2.102453 2.504982 0.3966847 12
-1.153701 2.544884 0.5020886 17
-2.212621 2.652486 0.9149253 14
-2.081718 2.449421 0.01828659 13
-2.954649 4.211927 0 22
-2.426461 4.22807 -0.02531589 20
-1.877201 4.088984 -0.05215274 17
-2.095077 2.46255 0.09422626 11
-2.948153 4.19037 0.1180269 22
-2.436661 4.227236 0.08278041 23
-1.884941 4.085407 0.05448782 15
nan nan nan 0
-0.2209084 0.2641747 -0.07961464 10
-2.035237 2.397363 -0.4314306 12
-2.0311 2.434649 -0.2965171 5
-2.034687 2.421958 -0.2003506 21
-2.903784 4.159297 -0.3519214 20
-2.377233 4.177281 -0.3600621 15
nan nan nan 0
-2.085399 2.449464 -0.1292828 120
-2.982544 4.228269 -0.2394388 26
-2.44749 4.254494 -0.2551378 23
nan nan nan 0
-2.074662 2.454851 -0.05541139 20
-2.943718 4.2057 -0.118259 22
-2.400772 4.200174 -0.1398858 21
-1.91966 4.193357 -0.1580692 6
-1.114654 2.406384 -0.473808 12
nan nan nan 0
-1.816224 3.992381 0.1745733 24
-2.10781 2.505402 0.1882011 15
-1.804589 4.024018 0.3554864 6
-2.071413 2.485655 0.3924193 14
-1.142805 2.544405 0.501192 15
-2.197176 2.652764 0.9123371 14
-2.063461 2.445226 0.01820019 12
-2.939929 4.222215 0 22
-2.406744 4.227822 -0.02526353 21
-1.831947 4.027209 -0.05127573 24
-2.080004 2.462224 0.09393134 10
-2.936372 4.204731 0.1181429 22
-2.41693 4.227035 0.08260939 23
-1.864449 4.078313 0.05430457 16
nan nan nan 0
-0.2199849 0.2649442 -0.07961464 10
-2.023658 2.400672 -0.4307425 12
-2.019408 2.437896 -0.2960457 6
-2.023018 2.425219 -0.2000306 18
-2.889248 4.169408 -0.3519214 21
-2.350392 4.163839 -0.358179 15
nan nan nan 0
-2.070373 2.44911 -0.1288762 119
-2.964901 4.234563 -0.2392059 25
-2.442516 4.280362 -0.2561845 23
nan nan nan 0
-2.05964 2.45443 -0.05523686 21
-2.951847 4.248783 -0.1191874 22
-2.38117 4.199831 -0.1395943 21
-1.900894 4.190926 -0.1577237 7
-1.104204 2.405785 -0.4729157 11
nan nan nan 0
-1.796135 3.985024 0.1739713 23
-2.095845 2.508919 0.1879106 15
-1.782462 4.012064 0.3538651 7
-2.050043 2.477597 0.3899819 13
-1.131926 2.54388 0.5002954 12
-2.178683 2.649241 0.9084548 15
-2.051696 2.448587 0.0181714 12
-2.925173 4.232452 0 22
-2.389515 4.231843 -0.02523734 21
-1.791246 3.974291 -0.05051566 33
-2.06496 2.461822 0.09363642 11
-2.924526 4.219063 0.118259 22
-2.399696 4.231096 0.08252387 23
-1.846087 4.075683 0.0541824 17
nan nan nan 0
-0.2159188 0.2620302 -0.07835092 10
-2.008895 2.400137 -0.4293664 13
-2.004549 2.437251 -0.2951029 7
-2.01454 2.432266 -0.2000306 21
-2.871848 4.17536 -0.3515726 20
-2.335843 4.172019 -0.358179 16
nan nan nan 0
-2.058593 2.452501 -0.128673 122
-2.941546 4.232586 -0.2385071 7
-2.410354 4.258438 -0.2543527 22
nan nan nan 0
-2.044646 2.453934 -0.05506234 34
-2.925642 4.242605 -0.1187232 22
-2.361599 4.199403 -0.1393029 21
-1.886253 4.197535 -0.1577237 4
-1.093772 2.405142 -0.4720234 11
nan nan nan 0
-1.774089 3.973012 0.1731687 22
-2.080688 2.508547 0.1873298 14
-1.758438 3.995442 0.3518383 8
-2.050852 2.496226 0.3918099 12
-1.121064 2.543311 0.4993988 12
-2.163301 2.649357 0.9058666 15
-2.039932 2.451895 0.0181426 12
-2.899061 4.226149 0 22
-2.374728 4.240157 -0.02523734 20
-1.834279 4.108418 -0.05215274 7
-2.049943 2.461346 0.09334151 11
-2.909781 4.229246 0.118259 22
-2.382462 4.235088 0.08243835 23
-1.825725 4.068411 0.05399914 19
nan nan nan 0
-0.2150028 0.2627823 -0.07835092 10
-1.997333 2.403332 -0.4286783 14
-1.992874 2.440383 -0.2946315 8
-1.999686 2.431587 -0.1993905 22
-2.857256 4.185359 -0.3515726 21
-2.318847 4.175786 -0.3578023 19
nan nan nan 0
-2.043609 2.452008 -0.1282664 119
-2.918241 4.230498 -0.2378084 6
-2.383261 4.245051 -0.2530443 21
nan nan nan 0
-2.029681 2.453363 -0.05488782 24
-2.899515 4.236296 -0.118259 22
-2.34206 4.19889 -0.1390115 21
nan nan nan 0
-1.083358 2.404456 -0.4711311 9
nan nan nan 0
-1.754164 3.965466 0.1725667 23
-2.06556 2.508099 0.1867489 15
-1.734553 3.978702 0.3498116 5
-2.04527 2.50721 0.3924193 12
-1.11218 2.547208 0.4993988 15
-2.144898 2.645651 0.9019843 15
-2.028169 2.455152 0.0181138 14
-2.87866 4.227978 0 22
-2.362339 4.252793 -0.02526353 19
-1.844128 4.169693 -0.05285434 7
-2.034956 2.460795 0.09304659 11
-2.889359 4.231124 0.1180269 22
-2.362796 4.234647 0.08226731 22
-1.809487 4.070188 0.05393806 17
nan nan nan 0
-0.2109701 0.2598292 -0.07708719 9
-1.982614 2.402661 -0.4273021 13
-1.981202 2.443464 -0.29416 10
-1.978536 2.423113 -0.1981103 20
-2.839829 4.191179 -0.3512238 19
-2.304257 4.183855 -0.3578023 29
nan nan nan 0
-2.028653 2.45144 -0.1278599 120
-2.894986 4.228298 -0.2371096 6
-2.336869 4.196621 -0.2496425 22
nan nan nan 0
-2.017925 2.456576 -0.05480055 28
-2.895952 4.262926 -0.1187232 22
-2.322554 4.198291 -0.1387201 20
nan nan nan 0
-1.074958 2.408223 -0.4711311 9
nan nan nan 0
-1.726316 3.939516 0.1711621 22
-2.05046 2.507576 0.186168 15
-1.708837 3.957266 0.3473796 7
-2.055285 2.537442 0.3960754 13
-1.101338 2.546556 0.4985023 12
-2.126548 2.64185 0.8981021 15
-2.013232 2.454496 0.0180562 11
-2.855482 4.225575 0 22
-2.352302 4.269773 -0.02531589 19
-1.829562 4.176105 -0.05285434 7
-2.019997 2.460169 0.09275167 11
-2.863348 4.224637 0.1175627 23
-2.343162 4.234118 0.08209628 22
-1.795268 4.076479 0.05393806 17
nan nan nan 0
-0.2100619 0.260564 -0.07708719 10
-1.971069 2.405741 -0.426614 13
-1.969533 2.446492 -0.2936887 11
-1.944874 2.39904 -0.1955499 25
-2.822397 4.196928 -0.350875 19
-2.282474 4.178744 -0.3566724 11
nan nan nan 0
-2.013727 2.450797 -0.1274533 123
-2.871782 4.225987 -0.2364109 7
-2.329443 4.217868 -0.2504275 22
nan nan nan 0
-2.003005 2.455867 -0.05462603 27
-2.850298 4.22743 -0.1174466 22
-2.300677 4.193224 -0.1382829 19
nan nan nan 0
-1.064565 2.407457 -0.4702388 11
nan nan nan 0
-1.72247 3.968445 0.1721654 19
-2.035388 2.506979 0.1855872 15
-1.693059 3.958622 0.3469742 8
-2.0246 2.517565 0.3918099 13
-1.092442 2.550385 0.4985023 12
-2.111271 2.64172 0.8955139 13
-1.998323 2.453766 0.01799861 14
-2.835141 4.227214 0 23
-2.330196 4.264792 -0.02523734 19
-1.812989 4.177877 -0.05279588 6
-2.005068 2.459469 0.09245676 11
-2.840209 4.222166 0.1172145 23
-2.32356 4.233505 0.08192525 22
-1.787008 4.096477 0.05412131 12
nan nan nan 0
-0.2091511 0.2612957 -0.07708719 10
-1.956396 2.404934 -0.4252378 13
-1.960981 2.453352 -0.2936887 15
-1.945894 2.417459 -0.1965101 20
-2.80496 4.202607 -0.3505263 19
-2.286856 4.221765 -0.3596855 9
nan nan nan 0
-1.995665 2.446215 -0.1268435 116
-2.851425 4.227707 -0.235945 6
-2.312309 4.221594 -0.2501658 22
nan nan nan 0
-1.991267 2.458965 -0.05453877 22
-2.821617 4.216587 -0.1168663 23
-2.274091 4.179276 -0.1375543 19
nan nan nan 0
-1.05419 2.406648 -0.4693465 11
nan nan nan 0
-1.696803 3.94688 0.1709614 24
-2.020347 2.506306 0.1850063 15
-1.681168 3.969099 0.3473796 7
-2.006491 2.512998 0.3899819 13
-1.083533 2.554183 0.4985023 16
-2.099029 2.645295 0.8942198 13
-1.986595 2.456844 0.01796981 14
-2.812052 4.224601 0 23
-2.301013 4.246519 -0.02508027 20
-1.798394 4.18418 -0.05279588 5
-1.990167 2.458695 0.09216183 11
-2.822677 4.227899 0.1170985 23
-2.303991 4.232807 0.08175422 21
nan nan nan 0
nan nan nan 0
-0.2051625 0.2582897 -0.07582346 10
-1.941752 2.404055 -0.4238617 14
-1.949305 2.456289 -0.2932172 24
-1.940566 2.428129 -0.1968301 20
-2.787517 4.208215 -0.3501775 19
-2.253245 4.194576 -0.3566724 7
nan nan nan 0
-1.974508 2.43766 -0.1260304 123
-2.82553 4.221037 -0.2350134 6
-2.292795 4.220863 -0.2496425 22
nan nan nan 0
-1.976393 2.458119 -0.05436425 32
-2.787513 4.19727 -0.116054 23
-2.245258 4.160792 -0.1366801 19
nan nan nan 0
-1.043833 2.405796 -0.4684543 11
nan nan nan 0
-1.696675 3.984973 0.1723661 24
-2.005335 2.50556 0.1844254 15
-1.669225 3.979541 0.3477849 8
-1.988439 2.508335 0.3881539 11
-1.072715 2.553411 0.4976056 12
-2.083793 2.645028 0.8916316 13
-1.965459 2.448191 0.01785462 13
-2.791773 4.22605 0 23
-2.26016 4.206068 -0.02479229 19
-1.783777 4.190432 -0.05279588 5
-1.978435 2.461737 0.09201437 10
-2.805139 4.23356 0.1169824 23
-2.284456 4.232023 0.08158318 22
-1.748558 4.085858 0.05381589 14
nan nan nan 0
-0.2103839 0.2664947 -0.07835092 9
-1.927138 2.403102 -0.4224855 16
-1.946893 2.470887 -0.29416 35
-1.913429 2.411468 -0.1949098 10
-2.770069 4.213753 -0.3498287 20
-2.231563 4.189212 -0.3555425 5
nan nan nan 0
-1.962849 2.44065 -0.1258271 130
-2.802483 4.218397 -0.2343146 7
-2.280414 4.233238 -0.2499042 21
nan nan nan 0
-1.961549 2.4572 -0.05418972 32
-2.775597 4.211147 -0.11617 23
-2.214226 4.137752 -0.1356601 17
nan nan nan 0
-1.033496 2.404901 -0.4675619 11
nan nan nan 0
-1.68856 4.004689 0.172968 25
-1.993464 2.508642 0.184135 16
-1.655324 3.985344 0.3477849 7
-1.973519 2.507472 0.3869351 13
-1.061915 2.552594 0.4967091 14
-2.071566 2.648486 0.8903375 12
-1.963148 2.462845 0.01791221 12
-2.768776 4.223228 0 22
-2.250164 4.222759 -0.02484465 18
-1.769139 4.196633 -0.05279588 5
-1.960458 2.456925 0.091572 11
-2.784848 4.234975 0.1167503 23
-2.267311 4.235563 0.08149766 22
-1.736231 4.096543 0.05387697 12
nan nan nan 0
-0.2246975 0.2860066 -0.08466953 9
-1.912554 2.402077 -0.4211093 25
nan nan nan 0
-1.935946 2.457274 -0.1981103 8
-2.752616 4.219219 -0.3494799 21
nan nan nan 0
nan nan nan 0
-1.960566 2.455284 -0.1262337 122
-2.776737 4.211478 -0.233383 8
-2.242113 4.197122 -0.2472874 22
nan nan nan 0
-1.943624 2.452295 -0.05392793 32
-2.758143 4.216628 -0.116054 23
-2.183383 4.114545 -0.1346401 16
nan nan nan 0
-1.025095 2.408494 -0.4675619 10
nan nan nan 0
-1.682247 4.029009 0.1737707 25
-1.972301 2.499931 0.1829733 16
-1.641402 3.991098 0.3477849 8
-1.961692 2.510439 0.3863258 14
-1.051134 2.551733 0.4958125 16
-2.056373 2.648081 0.8877493 14
-1.951429 2.465767 0.01788342 14
-2.74856 4.224486 0 23
-2.226073 4.212901 -0.02473993 18
-1.754479 4.202783 -0.05279588 5
-1.961201 2.475489 0.09201437 11
-2.778248 4.257226 0.1170985 23
-2.247828 4.234618 0.08132663 21
-1.719991 4.097966 0.05381589 11
nan nan nan 0
-0.2054824 0.2641904 -0.07708719 10
-1.901079 2.404859 -0.4204212 53
nan nan nan 0
-1.896547 2.424767 -0.1949098 59
-2.732448 4.220431 -0.3487824 20
nan nan nan 0
nan nan nan 0
-1.93332 2.438657 -0.125014 121
-2.767492 4.229502 -0.2338488 6
-2.204092 4.16079 -0.2446706 21
nan nan nan 0
-1.931953 2.455141 -0.05384067 10
-2.743407 4.226229 -0.116054 23
-2.150402 4.086751 -0.1334743 15
nan nan nan 0
-1.01478 2.40752 -0.4666697 9
nan nan nan 0
-1.658658 4.01176 0.1727674 25
-1.972817 2.518574 0.1838446 16
-1.629334 4.001421 0.3481903 8
-1.949869 2.513356 0.3857165 12
-1.040372 2.550828 0.4949159 13
-2.044162 2.651423 0.8864552 13
-1.930426 2.456861 0.01776823 11
-2.725656 4.221456 0 22
-2.222947 4.242795 -0.02487083 19
-1.722658 4.167277 -0.05226967 5
-1.937064 2.462706 0.09127709 10
-2.74162 4.233341 0.11617 23
-2.228379 4.23359 0.0811556 21
-1.717156 4.131659 0.0541824 11
nan nan nan 0
nan nan nan 0
-1.886544 2.403699 -0.419045 17
nan nan nan 0
nan nan nan 0
-2.712304 4.221552 -0.3480848 21
nan nan nan 0
nan nan nan 0
nan nan nan 0
-2.752712 4.239137 -0.2338488 7
-2.182594 4.155196 -0.2438855 33
nan nan nan 0
nan nan nan 0
-2.72593 4.231579 -0.1159379 23
-2.113023 4.049912 -0.1320172 15
nan nan nan 0
-1.004484 2.406504 -0.4657774 10
nan nan nan 0
-1.640871 4.008274 0.1723661 25
-1.948659 2.505769 0.1823924 15
-1.619071 4.016333 0.3490009 7
-1.935014 2.512294 0.3844978 13
-1.02963 2.549879 0.4940193 14
-2.029011 2.650881 0.883867 14
nan nan nan 0
-2.705506 4.222528 0 24
-2.205821 4.24609 -0.02484465 17
-1.700549 4.154747 -0.0520358 24
-1.934622 2.477319 0.091572 8
-2.718714 4.230272 0.1158219 22
-2.208964 4.232477 0.08098456 21
-1.664781 4.045114 0.0529607 20
nan nan nan 0
-0.203633 0.2656185 -0.07708719 10
-1.87204 2.402468 -0.4176688 14
nan nan nan 0
nan nan nan 0
-2.673405 4.193151 -0.3449457 22
-2.134086 4.144589 -0.3491398 7
nan nan nan 0
-1.928581 2.467818 -0.1258271 79
-2.73519 4.244522 -0.2336159 7
-2.17499 4.176076 -0.2446706 13
nan nan nan 0
-1.917837 2.472513 -0.05392793 47
-2.705754 4.232647 -0.1157058 22
-2.108052 4.075024 -0.1326001 16
nan nan nan 0
-0.9960775 2.409996 -0.4657774 11
nan nan nan 0
-1.62874 4.018609 0.1725667 24
-1.9399 2.512557 0.1823924 11
-1.595836 3.998805 0.3469742 7
-1.923211 2.515095 0.3838884 12
-1.020723 2.553458 0.4940193 16
-2.01389 2.650266 0.8812788 15
-1.897884 2.45054 0.01762424 5
-2.688066 4.227727 0 23
-2.18641 4.244872 -0.02479229 16
-1.701012 4.197745 -0.05250354 20
nan nan nan 0
-2.693173 4.222883 0.1153576 22
-2.189584 4.23128 0.08081353 21
-1.63184 4.004577 0.05234985 29
nan nan nan 0
nan nan nan 0
-1.860605 2.405077 -0.4169808 14
nan nan nan 0
nan nan nan 0
-2.672094 4.223528 -0.3466896 21
-2.090159 4.094272 -0.3442435 20
nan nan nan 0
nan nan nan 0
-2.725742 4.262458 -0.2340817 6
-2.155822 4.174768 -0.2441472 8
nan nan nan 0
nan nan nan 0
-2.685605 4.233626 -0.1154737 23
-2.089256 4.073462 -0.1323086 14
-1.701334 4.211226 -0.1556506 10
-0.985805 2.408901 -0.4648851 13
nan nan nan 0
-1.601721 3.991797 0.1711621 23
nan nan nan 0
-1.574568 3.985801 0.3453528 7
-1.911413 2.517846 0.3832791 12
-1.013604 2.561583 0.4949159 15
-1.995882 2.645726 0.8773965 17
nan nan nan 0
-2.667953 4.228629 0 23
-2.167034 4.243571 -0.02473993 17
nan nan nan 0
nan nan nan 0
-2.670392 4.21959 0.1150095 23
-2.16796 4.225551 0.08055698 20
-1.668201 4.135498 0.05399914 28
nan nan nan 0
nan nan nan 0
-1.846151 2.403713 -0.4156046 13
-1.756504 2.328563 -0.2724752 4
nan nan nan 0
-2.63876 4.203266 -0.3442482 21
-2.062358 4.074847 -0.3419837 18
nan nan nan 0
nan nan nan 0
-2.694781 4.246649 -0.2326842 6
nan nan nan 0
nan nan nan 0
nan nan nan 0
-2.668146 4.238745 -0.1153576 22
-2.070497 4.071817 -0.1320172 13
nan nan nan 0
-0.9773903 2.412328 -0.4648851 11
nan nan nan 0
-1.582262 3.983428 0.1705601 22
nan nan nan 0
-1.55522 3.977343 0.3441368 7
-1.896625 2.516586 0.3820604 13
-1.006441 2.56969 0.4958125 10
-1.980832 2.644955 0.8748083 16
nan nan nan 0
-2.650522 4.233679 0 24
-2.145439 4.237725 -0.02466139 17
-1.631192 4.107243 -0.05121727 12
nan nan nan 0
-2.650327 4.220421 0.1147774 23
-2.148666 4.224179 0.08038595 20
-1.679636 4.20633 0.05485433 29
nan nan nan 0
-0.2097495 0.279193 -0.08087836 10
-1.834739 2.406209 -0.4149165 15
nan nan nan 0
nan nan nan 0
nan nan nan 0
-2.086099 4.157795 -0.3483865 9
nan nan nan 0
nan nan nan 0
-2.663963 4.230677 -0.2312867 6
nan nan nan 0
nan nan nan 0
nan nan nan 0
-2.648035 4.239556 -0.1151255 23
-2.051776 4.070093 -0.1317258 13
-1.664557 4.204407 -0.1549596 12
-0.9689639 2.415725 -0.4648851 14
nan nan nan 0
-1.559237 3.965667 0.1695568 21
nan nan nan 0
-1.537742 3.973447 0.3433262 7
-1.884849 2.519222 0.381451 19
-1.00277 2.586957 0.4985023 17
-1.965812 2.64411 0.8722202 16
nan nan nan 0
-2.633087 4.238659 0 24
-2.128392 4.240718 -0.02463521 16
-1.620492 4.122222 -0.0513342 14
nan nan nan 0
-2.630288 4.221164 0.1145453 24
-2.12941 4.222724 0.08021491 20
-1.661278 4.202864 0.05473217 9
nan nan nan 0
-0.1999045 0.2684358 -0.07708719 9
-1.823332 2.408656 -0.4142284 14
-1.725321 2.320822 -0.2701181 4
nan nan nan 0
-2.593608 4.196134 -0.3421555 10
-2.044952 4.111471 -0.3438669 7
nan nan nan 0
nan nan nan 0
-2.641234 4.227247 -0.2305879 6
nan nan nan 0
nan nan nan 0
nan nan nan 0
-2.62795 4.240277 -0.1148934 23
-2.033091 4.068286 -0.1314343 12
-1.637147 4.177608 -0.1537503 14
-0.9587191 2.414515 -0.4639928 15
nan nan nan 0
-1.538162 3.952453 0.1687542 22
nan nan nan 0
-1.518534 3.964821 0.3421101 6
-1.870112 2.517828 0.3802323 16
-0.9884763 2.576653 0.4958125 15
-1.950822 2.643194 0.8696319 16
nan nan nan 0
-2.618275 4.247825 0 23
-2.113576 4.248122 -0.02463521 15
-1.600671 4.113869 -0.0511588 13
nan nan nan 0
-2.610277 4.221817 0.1143132 23
-2.110189 4.221187 0.08004387 20
-1.65023 4.217953 0.05485433 8
nan nan nan 0
-0.2077952 0.2806505 -0.08087836 10
-1.811931 2.411052 -0.4135403 15
-1.723135 2.33483 -0.2710609 4
nan nan nan 0
-2.586772 4.217915 -0.3432018 10
-2.006357 4.069383 -0.3397239 6
nan nan nan 0
nan nan nan 0
-2.618562 4.223709 -0.2298892 6
-2.095095 4.199993 -0.2438855 11
nan nan nan 0
nan nan nan 0
-2.607893 4.240911 -0.1146613 23
-2.018878 4.075359 -0.1314343 12
-1.635164 4.215925 -0.1549596 9
-0.950285 2.417848 -0.4639928 17
nan nan nan 0
-1.526145 3.962462 0.1689548 22
nan nan nan 0
-1.501165 3.960773 0.3412994 25
-1.855408 2.516363 0.3790136 14
-0.9742671 2.566281 0.4931227 16
-1.935863 2.642204 0.8670438 16
nan nan nan 0
-2.603431 4.256938 0 23
-2.100945 4.259959 -0.02466139 14
-1.597047 4.147439 -0.0515096 14
nan nan nan 0
