# .PCD v0.7 - Point Cloud Data file format
VERSION 0.7
FIELDS x y z intensity
SIZE 4 4 4 4
TYPE F F F F
COUNT 1 1 1 1
WIDTH 1637
HEIGHT 1
VIEWPOINT 0 0 0 1 0 0 0
POINTS 1637
DATA ascii
3.267587 -11.6911 -0.7040114 18
12.55792 -20.7462 -0.42261 26
8.728592 -17.97204 -0.4629393 21
6.279349 -16.67419 -0.518306 9
4.250274 -15.37856 -0.5502189 9
1.498587 -5.333348 -0.9975845 18
2.045393 -7.491624 -0.869368 22
20.54574 -75.13327 3.126869 11
54.48153 -90.4327 6.14064 9
15.65909 -58.50017 4.922494 13
12.26398 -20.58338 2.937051 24
2.675152 -9.982713 1.876556 44
12.29077 -20.77622 6.457535 34
17.84604 -29.52457 0.1984743 30
14.4432 -29.92139 0 27
10.38744 -27.73303 -0.1548536 19
nan nan nan 0
nan nan nan 0
14.6183 -30.17659 0.7775616 14
17.85107 -47.3867 0.8655172 13
13.26857 -48.15119 0.6097505 8
nan nan nan 0
0.2057056 -0.3458623 -0.09477933 12
3.679555 -6.103119 -0.9846526 29
4.67965 -7.913567 -0.8669236 49
6.23742 -10.46131 -0.7786791 13
4.720833 -9.839494 -0.7603455 32
3.378064 -9.116604 -0.7314233 29
2.39661 -8.860744 -0.7465908 36
8.374747 -13.83374 -0.6563744 18
6.316433 -13.00109 -0.6721988 15
4.672557 -12.43271 -0.6939747 14
3.245303 -11.7698 -0.7080774 20
12.46226 -20.75134 -0.4218246 30
8.641952 -17.95286 -0.4616627 23
6.208895 -16.66322 -0.5172859 10
4.195254 -15.38848 -0.5500462 8
1.478652 -5.333805 -0.9966922 18
2.017941 -7.49392 -0.8688089 21
20.28596 -75.21417 3.12727 14
56.66264 -94.79964 6.423813 13
15.44844 -58.53038 4.920467 9
12.03037 -20.35268 2.898053 35
2.654084 -10.04431 1.886418 77
12.27931 -20.92311 6.489887 39
17.87405 -29.80535 0.1999429 30
14.37751 -30.05281 0 29
10.30099 -27.79725 -0.1550107 17
6.548245 -24.26484 -0.2934469 15
nan nan nan 0
14.48041 -30.15984 0.7758208 39
nan nan nan 0
13.08599 -48.14414 0.6090786 8
nan nan nan 0
0.2070153 -0.3507087 -0.09604306 13
3.655683 -6.111678 -0.9839645 26
4.654519 -7.934146 -0.867395 47
6.198322 -10.47872 -0.7783591 14
4.67146 -9.824383 -0.7579041 32
3.337645 -9.104931 -0.7295401 31
2.366947 -8.873872 -0.7469978 37
8.303244 -13.82435 -0.6545449 17
6.275348 -13.03205 -0.6726646 14
4.63261 -12.45831 -0.6944981 13
3.21597 -11.82442 -0.7106913 24
12.37695 -20.77325 -0.4213883 24
8.587842 -18.00096 -0.4621269 17
6.136865 -16.64728 -0.5161203 10
4.138921 -15.39338 -0.5497007 9
1.460024 -5.338934 -0.9966922 22
1.990499 -7.496116 -0.8682498 22
nan nan nan 0
nan nan nan 0
16.42704 -63.1321 5.302706 8
11.84876 -20.20621 2.871242 39
2.60787 -10.01067 1.878349 47
nan nan nan 0
17.74944 -29.83319 0.1997126 33
14.28966 -30.13896 0 34
nan nan nan 0
6.444233 -24.21507 -0.2925698 17
nan nan nan 0
nan nan nan 0
nan nan nan 0
12.87127 -48.01567 0.6068795 9
nan nan nan 0
0.2107976 -0.3597078 -0.0985705 14
3.631796 -6.120144 -0.9832765 25
4.661881 -8.010556 -0.8739947 40
6.15918 -10.49599 -0.778039 14
4.611616 -9.786489 -0.7537186 37
3.302446 -9.107152 -0.7287869 31
2.334692 -8.877259 -0.7465908 32
8.242142 -13.83179 -0.6535285 20
6.212605 -13.01782 -0.6708013 15
4.592541 -12.48377 -0.6950215 13
3.117869 -11.62341 -0.6979123 16
12.30436 -20.81632 -0.4213883 31
8.53564 -18.05342 -0.4627072 24
6.063312 -16.62634 -0.5148088 9
4.083884 -15.4029 -0.5495279 9
1.440102 -5.339247 -0.9957999 20
1.963065 -7.49821 -0.8676907 24
nan nan nan 0
55.38437 -94.14748 6.353238 11
16.2177 -63.2325 5.306355 10
11.7482 -20.19598 2.86393 42
2.550936 -9.933937 1.862211 43
nan nan nan 0
17.75959 -30.08871 0.2010085 35
14.21839 -30.26106 0 29
nan nan nan 0
nan nan nan 0
nan nan nan 0
nan nan nan 0
nan nan nan 0
12.63718 -47.80895 0.6037031 11
nan nan nan 0
0.2120301 -0.3645893 -0.09983423 14
3.607895 -6.128519 -0.9825884 29
4.584069 -7.94059 -0.8645666 50
6.119992 -10.51311 -0.777719 14
4.541537 -9.725703 -0.7477893 36
3.258859 -9.08577 -0.7261504 32
2.30369 -8.885354 -0.7465908 34
8.178547 -13.83468 -0.6523089 18
6.15431 -13.01234 -0.6694038 15
4.55235 -12.50911 -0.6955448 12
3.032679 -11.46531 -0.6877471 18
12.24174 -20.8764 -0.4217374 30
8.481054 -18.10121 -0.4631714 20
6.001846 -16.638 -0.5145174 10
4.028831 -15.41223 -0.5493551 9
1.421456 -5.344241 -0.9957999 22
1.935642 -7.500205 -0.8671317 25
nan nan nan 0
nan nan nan 0
nan nan nan 0
11.69004 -20.25835 2.866976 33
2.516245 -9.942781 1.862211 46
nan nan nan 0
17.69742 -30.22386 0.201498 27
14.16122 -30.41475 0 25
nan nan nan 0
6.214979 -24.02712 -0.2897634 18
13.12701 -22.39452 0.764722 17
nan nan nan 0
13.59235 -37.66665 0.6843067 16
12.44879 -47.77052 0.6026646 9
nan nan nan 0
0.2132311 -0.3694839 -0.1010979 14
3.58398 -6.136801 -0.9819003 27
4.573656 -7.986771 -0.8678665 40
6.08076 -10.53009 -0.7773989 13
4.543181 -9.818445 -0.7537186 30
3.215463 -9.064196 -0.723514 29
2.27143 -8.888512 -0.7461837 35
8.117561 -13.8416 -0.6512926 18
6.09825 -13.01113 -0.6682392 15
4.513729 -12.53902 -0.6963298 13
2.998926 -11.49998 -0.6891993 16
12.13359 -20.85851 -0.4205157 27
8.424133 -18.14431 -0.4635195 23
5.938696 -16.64472 -0.5140802 10
3.972517 -15.41652 -0.5490097 9
1.402792 -5.34917 -0.9957999 20
1.908228 -7.5021 -0.8665726 21
nan nan nan 0
13.0231 -22.5041 1.510546 42
15.89024 -63.80359 5.344862 10
11.69571 -20.43253 2.885866 44
2.488647 -9.980145 1.86759 50
12.20798 -21.48298 6.610238 6
13.12038 -22.59041 0.150238 45
14.07801 -30.51394 0 26
nan nan nan 0
nan nan nan 0
13.08897 -22.50933 0.7670814 42
nan nan nan 0
13.49103 -37.79861 0.685846 13
12.25213 -47.69746 0.6011986 9
nan nan nan 0
0.2144004 -0.3743913 -0.1023617 15
3.560051 -6.14499 -0.9812122 28
4.506373 -7.933457 -0.8603238 43
6.043967 -10.55126 -0.7773989 14
4.500563 -9.81611 -0.7523235 31
3.175555 -9.05184 -0.7216308 27
2.239175 -8.891555 -0.7457766 35
8.061653 -13.8569 -0.6506827 16
6.040169 -13.00516 -0.6668417 16
4.461562 -12.53118 -0.6950215 13
2.940158 -11.43786 -0.6848428 16
12.19318 -21.1302 -0.4251406 29
8.364927 -18.18268 -0.4637516 21
5.873909 -16.6465 -0.5134974 10
3.917451 -15.42545 -0.5488369 10
1.382885 -5.34927 -0.9949076 21
1.87962 -7.499074 -0.8654544 21
26.78338 -106.6853 4.416303 17
12.93949 -22.54076 1.509965 10
17.78632 -72.49825 6.068401 7
nan nan nan 0
2.466674 -10.04132 1.877453 47
12.07598 -21.4245 6.57918 41
13.03895 -22.63174 0.1502092 36
14.01091 -30.6493 0 25
9.5528 -27.22734 -0.1508743 17
nan nan nan 0
13.0353 -22.59816 0.768556 31
nan nan nan 0
nan nan nan 0
12.04018 -47.5606 0.5989385 8
nan nan nan 0
0.2130923 -0.3751374 -0.1023617 15
3.536108 -6.153088 -0.9805241 24
4.454194 -7.905786 -0.8556098 40
6.007099 -10.57229 -0.7773989 14
4.458016 -9.813597 -0.7509283 32
3.134141 -9.034605 -0.719371 30
2.206927 -8.894478 -0.7453695 33
8.000741 -13.86333 -0.6496663 18
5.994736 -13.02617 -0.6668417 15
4.416134 -12.54197 -0.6947598 13
2.91245 -11.49644 -0.6877471 17
12.11687 -21.16829 -0.4250533 39
8.307628 -18.22542 -0.4640998 24
5.815765 -16.6669 -0.5134974 10
3.861159 -15.42933 -0.5484914 9
1.364204 -5.354064 -0.9949076 19
1.852244 -7.500765 -0.8648953 21
26.40601 -106.7588 4.4155 119
nan nan nan 0
17.50389 -72.4388 6.058267 20
11.94014 -21.20114 2.982752 27
2.41545 -9.98293 1.8649 41
13.13279 -23.48976 7.200346 22
17.41966 -30.47698 0.2019588 34
13.99256 -30.89386 0 23
9.452785 -27.24635 -0.1507958 17
nan nan nan 0
nan nan nan 0
nan nan nan 0
16.80165 -48.13438 0.8714179 9
11.83659 -47.45196 0.5970448 9
nan nan nan 0
0.2142127 -0.3800613 -0.1036254 16
3.509696 -6.156793 -0.979148 27
4.42171 -7.912598 -0.8546669 43
5.967706 -10.58885 -0.7770789 13
4.401207 -9.779069 -0.7470918 36
3.096118 -9.026624 -0.7178645 28
2.173506 -8.892445 -0.7445553 34
7.942367 -13.87383 -0.6488532 20
5.947156 -13.04247 -0.6666088 14
4.369046 -12.54788 -0.6942364 12
2.826447 -11.32248 -0.6767106 19
11.90709 -20.97139 -0.4202539 30
8.248074 -18.26341 -0.4643319 27
5.741256 -16.63985 -0.5120403 10
3.806083 -15.43786 -0.5483187 8
1.345507 -5.358794 -0.9949076 19
1.824879 -7.502356 -0.8643363 20
26.11478 -107.1852 4.429346 13
nan nan nan 0
17.31435 -72.76611 6.080561 13
11.60458 -20.77482 2.916943 35
2.379451 -9.986515 1.864004 40
13.02729 -23.49323 7.187405 16
17.38717 -30.66807 0.2028227 34
13.9829 -31.16148 0 20
9.336534 -27.2177 -0.1504554 21
nan nan nan 0
nan nan nan 0
15.7163 -34.89357 0.8875807 33
16.68246 -48.3345 0.8739833 11
11.63153 -47.33276 0.595029 8
nan nan nan 0
0.2128848 -0.3808067 -0.1036254 17
3.485743 -6.164697 -0.9784598 27
4.381984 -7.906222 -0.8523099 47
5.920961 -10.5922 -0.7757987 14
4.30812 -9.662272 -0.7369771 33
3.069391 -9.051542 -0.7189944 31
2.141289 -8.895132 -0.7441482 32
7.879079 -13.87541 -0.6476336 20
5.899536 -13.0586 -0.6663759 15
4.32197 -12.55361 -0.6937131 14
2.802375 -11.3953 -0.6804863 16
11.81663 -20.98233 -0.4196431 33
8.188355 -18.30122 -0.464564 23
5.676684 -16.64087 -0.5114574 10
3.750994 -15.4462 -0.5481459 11
1.326793 -5.363458 -0.9949076 20
1.797526 -7.503848 -0.8637772 19
nan nan nan 0
57.07105 -101.8355 6.790051 8
17.02161 -72.66113 6.06678 15
11.4983 -20.75444 2.908412 37
2.344577 -9.994761 1.864004 41
16.43978 -29.88992 9.129841 11
17.30453 -30.77215 0.2031107 36
13.95123 -31.38371 0 21
9.230231 -27.21698 -0.1502722 21
nan nan nan 0
nan nan nan 0
15.74719 -35.29058 0.8962848 10
16.57175 -48.56277 0.877062 12
11.40158 -47.10581 0.5916694 10
nan nan nan 0
0.2139562 -0.3857467 -0.1048891 17
3.461776 -6.17251 -0.9777718 27
4.344759 -7.904027 -0.8504242 48
5.886373 -10.61716 -0.7761188 13
4.276382 -9.681815 -0.7373258 36
3.03936 -9.06693 -0.719371 30
2.109079 -8.897702 -0.7437412 41
7.820784 -13.88542 -0.6468205 22
5.851877 -13.07455 -0.6661429 14
4.282947 -12.5828 -0.6944981 12
nan nan nan 0
11.71405 -20.97108 -0.4185959 27
8.130501 -18.3434 -0.4649122 21
5.615369 -16.65111 -0.5111659 10
3.697054 -15.4592 -0.5481459 9
1.308063 -5.368057 -0.9949076 22
1.770185 -7.505239 -0.8632181 22
20.6307 -87.31816 3.602029 6
5.238516 -9.434642 0.6255943 20
16.73205 -72.5647 6.053808 12
11.44731 -20.83359 2.913896 19
2.300843 -9.964537 1.856831 31
16.15953 -29.62492 9.03149 25
17.23842 -30.9066 0.2036003 39
13.84764 -31.44595 0 19
9.171717 -27.35806 -0.1508743 18
5.463326 -23.10587 -0.277193 21
15.78973 -28.27552 0.9543543 11
nan nan nan 0
14.45593 -42.85061 0.7729023 12
11.22665 -47.10154 0.5911196 10
nan nan nan 0
0.2126084 -0.3864912 -0.1048891 17
3.435388 -6.175903 -0.9763956 28
4.321912 -7.927884 -0.8513671 48
5.214061 -9.483624 -0.6916258 5
4.23656 -9.682975 -0.7362795 34
3.009259 -9.082215 -0.7197476 30
2.076878 -8.900156 -0.7433341 35
7.769829 -13.90827 -0.6466172 23
5.802152 -13.08577 -0.6656771 15
4.242183 -12.60714 -0.6950215 10
2.834878 -11.88561 -0.7086583 14
11.602 -20.94189 -0.4171997 13
8.074461 -18.38998 -0.4653764 24
5.528771 -16.58527 -0.5085431 10
3.641925 -15.46714 -0.5479732 10
1.288173 -5.367805 -0.9940153 20
1.741735 -7.501692 -0.8620999 19
nan nan nan 0
5.18145 -9.409157 0.6226899 17
nan nan nan 0
11.39589 -20.91264 2.91938 23
2.264959 -9.967709 1.855935 33
15.9227 -29.43479 8.956433 34
5.236284 -9.473597 0.0621168 7
13.83576 -31.71865 0 18
9.068301 -27.36618 -0.1507434 20
5.424534 -23.30498 -0.2793563 16
15.63765 -28.23428 0.9511102 108
nan nan nan 0
14.30152 -42.88659 0.7726458 14
10.9754 -46.77052 0.5864771 8
nan nan nan 0
0.2136306 -0.3914469 -0.1061528 21
3.411413 -6.183524 -0.9757075 27
4.313171 -7.977941 -0.8551383 44
5.145062 -9.436071 -0.686825 8
4.19083 -9.670247 -0.7341868 32
2.979089 -9.097404 -0.7201242 29
2.044686 -8.902494 -0.742927 35
7.726079 -13.94405 -0.6470237 11
5.75242 -13.0968 -0.6652113 14
3.317582 -9.973242 -0.5487425 13
2.786539 -11.86627 -0.7069157 15
5.204364 -9.478106 -0.1880497 5
8.018195 -18.43639 -0.4658406 24
5.459899 -16.57123 -0.5075231 10
3.586786 -15.47489 -0.5478004 8
1.269428 -5.372269 -0.9940153 18
1.714436 -7.502882 -0.8615409 22
21.70573 -94.82362 3.905425 8
5.110259 -9.357114 0.618043 21
nan nan nan 0
11.49513 -21.27096 2.963862 30
2.22908 -9.970753 1.855038 11
15.61204 -29.10293 8.83867 37
5.162286 -9.417303 0.06162724 10
12.56073 -29.07253 0 13
nan nan nan 0
5.230504 -22.83153 -0.2734511 21
15.58232 -28.36754 0.9537644 142
20.38957 -47.00977 1.188741 17
16.26103 -49.33665 0.8879226 12
10.77721 -46.65753 0.5845835 9
nan nan nan 0
0.2146208 -0.3964144 -0.1074166 22
3.385047 -6.186708 -0.9743314 30
4.252333 -7.931548 -0.8485386 44
5.078836 -9.392543 -0.6823444 8
4.180666 -9.739814 -0.7383723 32
2.947315 -9.107747 -0.7201242 29
2.013598 -8.909578 -0.742927 34
nan nan nan 0
5.700689 -13.10306 -0.6645125 16
3.273396 -9.956301 -0.5471724 13
2.664316 -11.52573 -0.6860045 17
5.101848 -9.368928 -0.1855191 4
7.963681 -18.48722 -0.4664209 28
nan nan nan 0
3.531637 -15.48245 -0.5476276 9
1.249558 -5.371874 -0.9931231 19
1.687149 -7.503971 -0.8609818 25
22.45344 -99.68988 4.102673 7
5.034735 -9.295912 0.6128152 31
10.67605 -48.6118 4.044925 16
11.55214 -21.55589 2.997986 30
nan nan nan 0
15.53985 -29.21268 8.855494 42
5.081575 -9.347434 0.06105128 9
12.45327 -29.10241 0 37
3.198725 -9.879876 -0.05416605 22
5.136497 -22.78624 -0.272691 17
15.48081 -28.41737 0.9536169 150
12.47862 -29.04964 0.7331129 35
nan nan nan 0
10.57994 -46.54372 0.5826899 8
nan nan nan 0
0.2132357 -0.3971611 -0.1074166 22
3.361065 -6.194135 -0.9736432 26
4.191872 -7.884829 -0.8419388 63
4.984653 -9.295912 -0.6740231 6
nan nan nan 0
2.915505 -9.11798 -0.7201242 28
1.982485 -8.916553 -0.742927 34
nan nan nan 0
5.650962 -13.1137 -0.6640467 15
3.206238 -9.867934 -0.5416771 16
2.594232 -11.40353 -0.6781628 18
5.038202 -9.32951 -0.1843847 6
7.904985 -18.52869 -0.466769 22
3.19245 -9.919448 -0.3026487 25
3.476479 -15.48981 -0.5474549 9
1.229705 -5.371407 -0.9922307 22
1.659875 -7.504962 -0.8604227 21
nan nan nan 0
4.971521 -9.25628 0.6090395 23
10.50209 -48.6293 4.043304 26
9.372964 -17.63928 2.447746 6
nan nan nan 0
15.27325 -28.95493 8.761024 43
5.00854 -9.290318 0.06056172 9
nan nan nan 0
3.162696 -9.886219 -0.05413987 32
5.107747 -23.03346 -0.275439 15
15.35301 -28.41847 0.9518474 141
12.4065 -29.16202 0.7348537 9
3.155116 -9.79796 0.1753953 18
10.38251 -46.42424 0.5807351 10
nan nan nan 0
0.2141764 -0.4021435 -0.1086803 26
3.337073 -6.201471 -0.9729552 27
4.171295 -7.91262 -0.8433531 47
4.919346 -9.251593 -0.6695424 5
4.066103 -9.658442 -0.7300014 31
2.883659 -9.128101 -0.7201242 31
1.95241 -8.928288 -0.7433341 30
nan nan nan 0
5.60123 -13.12416 -0.6635809 14
3.159568 -9.841031 -0.5395837 16
2.589227 -11.56841 -0.6874567 16
4.967807 -9.276546 -0.1829885 7
7.844152 -18.56538 -0.4670011 20
3.142668 -9.882899 -0.3011916 25
3.421312 -15.49697 -0.5472821 9
1.210948 -5.375666 -0.9922307 20
1.632615 -7.505856 -0.8598636 22
10.54188 -48.36414 1.986524 34
4.892205 -9.185489 0.6032309 10
nan nan nan 0
9.313649 -17.67629 2.448355 7
10.07386 -47.48866 8.841242 8
15.13626 -28.9396 8.740319 40
4.935967 -9.232807 0.06007215 9
13.32575 -31.75199 0 14
3.129673 -9.901967 -0.05416605 31
4.950689 -22.69942 -0.2712293 15
15.22066 -28.41022 0.949783 130
nan nan nan 0
3.117865 -9.799386 0.1752243 18
10.18174 -46.28441 0.5785361 10
nan nan nan 0
0.2127714 -0.4028887 -0.1086803 30
3.313071 -6.208714 -0.9722671 32
4.1575 -7.953593 -0.8461815 44
4.821797 -9.145155 -0.6605811 7
4.030444 -9.667973 -0.7296527 30
2.851779 -9.138112 -0.7201242 32
1.922277 -8.93992 -0.7437412 31
nan nan nan 0
5.551494 -13.13443 -0.663115 15
3.117653 -9.828203 -0.5382753 15
2.494209 -11.32873 -0.6726446 17
4.888456 -9.20555 -0.1812432 7
7.785089 -18.60649 -0.4673494 21
3.111146 -9.903345 -0.301483 29
3.366139 -15.50393 -0.5471094 9
1.191116 -5.375056 -0.9913384 18
1.604334 -7.501789 -0.8587455 20
10.44519 -48.73772 2.000369 23
4.82511 -9.136321 0.5988743 34
10.26612 -49.19904 4.084649 44
9.242693 -17.6911 2.445918 7
9.887964 -47.42722 8.82331 7
14.92839 -28.78648 8.678203 36
4.856823 -9.161655 0.0594962 10
13.30695 -32.01992 0 17
3.096579 -9.917603 -0.05419222 29
4.800216 -22.38412 -0.2672535 24
15.08622 -28.39698 0.9475712 96
nan nan nan 0
3.088135 -9.824518 0.1754808 17
10.00744 -46.26103 0.577803 8
nan nan nan 0
0.2113637 -0.4036289 -0.1086803 29
3.286738 -6.21149 -0.9708909 30
4.134297 -7.976892 -0.8471243 39
4.769019 -9.122144 -0.6577006 27
3.979536 -9.640491 -0.7265136 27
2.821331 -9.152776 -0.7205009 26
1.890032 -8.9417 -0.7433341 34
nan nan nan 0
5.499825 -13.13991 -0.6624163 15
3.07288 -9.805672 -0.5364435 14
2.537914 -11.72281 -0.6955888 16
4.809661 -9.134113 -0.179498 15
7.723921 -18.64278 -0.4675815 23
3.08544 -9.942786 -0.3023573 27
3.310958 -15.5107 -0.5469366 9
1.172347 -5.379181 -0.9913384 21
1.577119 -7.502481 -0.8581864 21
nan nan nan 0
4.79319 -9.153108 0.5988743 36
10.09732 -49.24923 4.085865 13
10.98741 -21.20839 2.927911 31
9.702622 -47.36507 8.805379 10
14.73062 -28.64944 8.621262 17
4.796868 -9.125459 0.05915063 43
13.1989 -32.07543 0 17
3.06636 -9.942688 -0.05427077 21
4.766346 -22.61112 -0.2697676 17
4.797266 -9.114739 0.3027332 63
nan nan nan 0
nan nan nan 0
9.345907 -43.94341 0.5484211 4
nan nan nan 0
0.2076697 -0.4000996 -0.1074166 34
3.262732 -6.218542 -0.9702028 27
4.108706 -7.995702 -0.8475958 42
4.748641 -9.160879 -0.6593009 11
3.936421 -9.631239 -0.7247697 28
2.787914 -9.157799 -0.7201242 26
1.857798 -8.943363 -0.742927 31
4.828884 -9.166948 -0.4199658 11
5.448186 -13.14519 -0.6617175 15
3.06372 -9.89743 -0.5408921 14
2.508384 -11.78531 -0.6987836 18
4.770799 -9.137555 -0.1792362 33
7.662592 -18.67888 -0.4678135 19
3.055106 -9.967833 -0.3027944 16
3.255771 -15.51727 -0.5467639 9
1.153563 -5.38324 -0.9913384 19
1.54992 -7.503073 -0.8576273 18
10.21603 -49.34761 2.022442 39
4.765815 -9.178641 0.5994552 30
9.857496 -48.94707 4.057896 9
nan nan nan 0
9.514923 -47.28773 8.784757 11
14.70073 -28.83837 8.662673 23
4.769611 -9.151012 0.05920822 40
12.98309 -31.86664 0 16
nan nan nan 0
4.720819 -22.78918 -0.271697 15
4.763106 -9.127001 0.3025858 88
nan nan nan 0
nan nan nan 0
9.175078 -43.89257 0.5473827 4
nan nan nan 0
0.2062718 -0.4008221 -0.1074166 28
3.238716 -6.225501 -0.9695148 25
4.06946 -7.987826 -0.8452387 44
4.7349 -9.212893 -0.6618612 11
3.884061 -9.598688 -0.7212819 30
2.745889 -9.134049 -0.7174878 27
1.824581 -8.940026 -0.7421128 36
4.776018 -9.143906 -0.4181363 72
5.39468 -13.14564 -0.6607859 15
3.036448 -9.93194 -0.5422005 14
2.47029 -11.80865 -0.6996549 15
4.754978 -9.185221 -0.179847 13
7.604869 -18.72404 -0.4682778 24
4.989728 -16.4892 -0.5011117 10
3.199571 -15.51875 -0.5464184 10
1.133755 -5.38242 -0.9904461 20
1.522735 -7.503568 -0.8570682 18
10.0477 -49.40255 2.023244 39
4.738321 -9.204095 0.6000361 30
9.662422 -48.85895 4.047762 10
11.66143 -22.89854 3.150322 16
9.329789 -47.21931 8.765928 11
14.63266 -28.95416 8.682084 28
4.746831 -9.185369 0.05932342 35
12.82875 -31.80511 0 15
nan nan nan 0
4.621323 -22.70753 -0.2705277 17
4.749611 -9.179071 0.3037654 62
nan nan nan 0
nan nan nan 0
9.422929 -45.87843 0.5717556 14
nan nan nan 0
0.2048714 -0.4015397 -0.1074166 33
3.214692 -6.232368 -0.9688267 27
4.037059 -7.993098 -0.8442959 39
4.689106 -9.202697 -0.659941 9
3.820843 -9.538111 -0.7157014 31
2.708318 -9.124459 -0.7159813 28
1.792387 -8.941454 -0.7417057 34
4.75787 -9.187132 -0.419356 25
5.339357 -13.14126 -0.6596213 16
nan nan nan 0
2.360862 -11.4847 -0.6799054 17
4.727458 -9.210656 -0.1800216 17
7.546926 -18.76902 -0.468742 21
4.932139 -16.50652 -0.5011117 10
3.144391 -15.52493 -0.5462456 9
1.11496 -5.386344 -0.9904461 20
1.495566 -7.503964 -0.8565091 19
9.824328 -49.18256 2.01281 7
24.69582 -48.33427 3.155853 152
9.480423 -48.83368 4.042898 10
nan nan nan 0
9.145249 -47.15018 8.747101 11
14.51203 -28.9662 8.670438 25
4.721587 -9.215228 0.05940981 30
12.67685 -31.74755 0 16
nan nan nan 0
nan nan nan 0
4.719824 -9.20004 0.3039128 48
16.05706 -40.04931 1.000849 26
nan nan nan 0
8.806171 -43.64679 0.5435343 11
nan nan nan 0
0.2034686 -0.4022524 -0.1074166 36
3.190659 -6.239145 -0.9681386 29
4.002439 -7.993791 -0.8428817 41
5.424919 -10.73734 -0.7690776 16
3.741541 -9.435484 -0.7069818 29
2.651233 -9.047729 -0.7092019 28
1.760205 -8.942765 -0.7412986 31
nan nan nan 0
5.300911 -13.17835 -0.6605529 15
nan nan nan 0
2.358218 -11.67881 -0.6909419 26
10.90492 -21.41421 -0.4187705 17
7.486911 -18.80918 -0.4690901 16
4.843391 -16.41817 -0.4979059 11
3.089206 -15.53091 -0.5460728 8
1.095176 -5.385382 -0.9895539 22
1.468412 -7.504262 -0.8559501 19
9.618956 -49.04496 2.005787 6
nan nan nan 0
9.289397 -48.75877 4.033981 10
11.32352 -22.6244 3.101575 11
8.961306 -47.08034 8.728272 11
14.38074 -28.95613 8.652321 14
16.53118 -32.51263 0.2098494 40
12.58066 -31.8288 0 15
nan nan nan 0
4.380939 -22.32221 -0.265558 16
nan nan nan 0
18.92871 -47.69207 1.190366 14
nan nan nan 0
9.090756 -45.88425 0.5710226 10
nan nan nan 0
0.2020632 -0.4029601 -0.1074166 34
3.166618 -6.245828 -0.9674504 26
3.97008 -7.998799 -0.8419388 42
5.385168 -10.75175 -0.7687576 14
3.726814 -9.494912 -0.7104696 26
2.616866 -9.047348 -0.7084486 32
1.727093 -8.939069 -0.7404845 31
7.155321 -14.04941 -0.6399091 14
5.253029 -13.19214 -0.66032 16
nan nan nan 0
2.34456 -11.82408 -0.699074 16
nan nan nan 0
7.432206 -18.8631 -0.4697865 16
4.801417 -16.48776 -0.4995088 10
3.033062 -15.53179 -0.5457274 9
1.076371 -5.389172 -0.9895539 20
1.441275 -7.504461 -0.855391 19
9.435429 -49.01447 2.003178 7
nan nan nan 0
9.103586 -48.70761 4.02709 10
nan nan nan 0
8.778864 -47.01463 8.71034 12
14.3436 -29.13613 8.691143 13
16.4491 -32.63264 0.2102526 41
12.43486 -31.78406 0 16
nan nan nan 0
4.302994 -22.33736 -0.265558 17
nan nan nan 0
18.75847 -47.74854 1.190133 19
16.8124 -57.71215 1.027572 11
8.911456 -45.81754 0.5698009 8
nan nan nan 0
0.2006554 -0.403663 -0.1074166 38
3.142569 -6.252421 -0.9667624 27
3.942135 -8.012609 -0.8419388 42
5.307629 -10.69006 -0.7629967 14
3.673771 -9.456725 -0.706633 27
2.603047 -9.118756 -0.7133448 30
1.694955 -8.940146 -0.7400774 28
7.106236 -14.0743 -0.6399091 17
5.206947 -13.21039 -0.66032 15
3.657626 -12.59151 -0.6850777 15
2.317545 -11.90569 -0.7034305 15
10.51117 -21.00258 -0.4092589 24
7.351783 -18.85168 -0.468858 15
4.724514 -16.43717 -0.4974688 10
2.977889 -15.53737 -0.5455546 9
1.05661 -5.388067 -0.9886615 18
1.414154 -7.504564 -0.8548319 18
9.24667 -48.95383 1.999366 9
nan nan nan 0
8.914652 -48.63616 4.018578 9
10.54522 -21.44275 2.92913 32
8.596104 -46.94337 8.691512 11
14.34986 -29.40737 8.757142 14
16.33286 -32.68539 0.2102237 42
12.25161 -31.64076 0 13
7.773024 -27.2267 -0.1480469 17
4.228704 -22.3719 -0.2657919 17
nan nan nan 0
nan nan nan 0
16.60256 -57.74166 1.027059 11
8.723363 -45.70104 0.5679684 10
nan nan nan 0
0.1992451 -0.4043609 -0.1074166 36
3.120724 -6.263352 -0.9667624 28
3.898851 -7.995011 -0.838639 43
5.263664 -10.69509 -0.7620366 14
3.640739 -9.46949 -0.706633 24
2.587411 -9.18538 -0.7178645 26
1.662829 -8.941109 -0.7396703 28
7.021261 -14.02755 -0.6366568 17
5.158988 -13.22384 -0.6600872 16
3.650788 -12.7338 -0.692143 13
2.284383 -11.95784 -0.7060444 15
10.44223 -21.0481 -0.4094334 31
7.293135 -18.89588 -0.4693222 15
4.658928 -16.42471 -0.4965945 10
2.922713 -15.54276 -0.5453818 10
1.037796 -5.391723 -0.9886615 20
1.38795 -7.509455 -0.8548319 21
9.058451 -48.89247 1.995553 10
15.88623 -32.19814 2.086766 12
8.736018 -48.61792 4.014524 8
10.46379 -21.46604 2.927301 26
8.413949 -46.87141 8.672684 11
14.22188 -29.40511 8.741612 11
16.2564 -32.81836 0.2107133 43
12.08025 -31.5246 0 16
nan nan nan 0
4.133292 -22.29312 -0.264681 16
nan nan nan 0
nan nan nan 0
nan nan nan 0
8.549068 -45.65258 0.566991 9
nan nan nan 0
0.1978324 -0.405054 -0.1074166 38
3.096646 -6.269769 -0.9660743 28
3.855738 -7.977209 -0.8353391 43
nan nan nan 0
3.588143 -9.430865 -0.7027964 28
2.556666 -9.199159 -0.7182411 28
1.629827 -8.937052 -0.7388561 26
6.97003 -14.0475 -0.6364534 20
5.109197 -13.23244 -0.6596213 15
3.59273 -12.69842 -0.6895261 14
2.241711 -11.96083 -0.705754 17
10.36429 -21.07545 -0.4092589 31
7.227132 -18.92122 -0.4693222 14
4.596181 -16.42162 -0.4960117 10
2.867537 -15.54796 -0.5452091 9
1.018969 -5.395313 -0.9886615 22
1.360846 -7.509363 -0.8542728 20
8.871665 -48.83531 1.991941 10
15.7189 -32.1413 2.079506 8
8.55503 -48.58432 4.009255 8
10.39959 -21.52478 2.930348 28
8.233254 -46.80361 8.654752 11
14.53055 -30.31247 8.99655 34
16.14836 -32.88837 0.2107997 44
11.93113 -31.46372 0 17
7.705917 -27.7235 -0.1504554 17
4.051877 -22.28773 -0.2644471 14
nan nan nan 0
18.09197 -47.50793 1.17934 9
16.20983 -57.89468 1.027743 11
8.379731 -45.62806 0.5663191 6
nan nan nan 0
0.1964173 -0.4057421 -0.1074166 36
3.07256 -6.276094 -0.9653862 27
3.812797 -7.959204 -0.8320392 39
5.201915 -10.75853 -0.7639568 14
3.532344 -9.382654 -0.6982623 26
2.508732 -9.150324 -0.7137215 29
1.597747 -8.93778 -0.7384491 27
6.914333 -14.0583 -0.6358436 18
5.061193 -13.24553 -0.6593884 16
nan nan nan 0
2.176541 -11.84093 -0.6982027 19
10.34764 -21.22833 -0.4115277 30
7.143363 -18.89957 -0.4681617 13
4.532182 -16.41348 -0.4952831 10
2.812359 -15.55295 -0.5450363 10
1.00013 -5.398837 -0.9886615 23
1.33376 -7.509175 -0.8537138 19
8.686264 -48.78236 1.98853 9
14.70275 -30.33207 1.958976 25
8.373534 -48.54513 4.00358 9
10.37371 -21.66389 2.944363 18
8.052299 -46.73026 8.635923 12
13.81515 -29.08056 8.616086 35
16.04878 -32.976 0.2110013 38
11.7738 -31.37878 0 16
7.580016 -27.64415 -0.1498795 17
3.961791 -22.23283 -0.2636286 18
nan nan nan 0
19.02602 -50.48956 1.251758 7
15.91048 -57.59913 1.0215 11
8.186766 -45.47004 0.5639978 9
nan nan nan 0
0.1949998 -0.4064253 -0.1074166 41
3.048468 -6.282327 -0.9646981 27
3.789266 -7.981455 -0.8329821 41
5.153537 -10.75413 -0.7623566 15
3.471701 -9.320145 -0.6926817 29
2.471574 -9.139772 -0.7122149 31
1.564825 -8.933485 -0.7376349 29
6.858646 -14.06888 -0.6352338 17
5.011392 -13.25378 -0.6589226 14
nan nan nan 0
2.110469 -11.7109 -0.6900706 16
10.21908 -21.15179 -0.4093462 25
7.075596 -18.91971 -0.4680456 11
4.468296 -16.40508 -0.4945545 10
2.757182 -15.55775 -0.5448636 9
0.9804036 -5.397454 -0.9877692 19
1.306691 -7.50889 -0.8531547 17
8.500484 -48.72379 1.984918 10
14.59246 -30.37421 1.958395 14
8.193248 -48.51018 3.998311 9
11.31128 -23.83388 3.234412 19
7.872776 -46.66107 8.617991 12
13.64771 -28.98879 8.574676 34
14.66456 -30.40205 0.1941834 25
11.67289 -31.44313 0 15
7.479558 -27.65596 -0.1498009 17
3.891029 -22.28592 -0.2640963 18
14.60253 -30.23318 0.9894494 37
18.89507 -50.67743 1.254775 13
15.72904 -57.72667 1.022783 9
8.003687 -45.36048 0.5622874 8
nan nan nan 0
0.1914463 -0.4027617 -0.1061528 44
3.02437 -6.288468 -0.96401 28
3.710459 -7.886565 -0.8216683 47
5.120253 -10.78106 -0.7629967 14
3.439147 -9.332207 -0.6926817 26
2.429386 -9.109803 -0.7092019 29
1.532792 -8.933979 -0.7372278 27
6.800795 -14.07474 -0.6344207 17
4.961596 -13.26183 -0.6584567 16
nan nan nan 0
1.993377 -11.2856 -0.6645124 16
9.987494 -20.85822 -0.4029761 28
6.985221 -18.87867 -0.4664209 9
4.403228 -16.39162 -0.4936803 11
2.702005 -15.56236 -0.5446908 9
0.961557 -5.400843 -0.9877692 21
1.279641 -7.508507 -0.8525956 18
8.316059 -48.66945 1.981507 10
nan nan nan 0
8.013307 -48.47457 3.993041 10
11.30197 -24.03038 3.255739 14
7.694634 -46.59606 8.600957 11
4.262739 -9.145435 2.693012 26
14.54109 -30.41697 0.193953 45
11.54927 -31.44613 0 16
7.399722 -27.74471 -0.1501413 21
3.804797 -22.25009 -0.2635117 22
14.55304 -30.40117 0.9932835 16
18.80456 -50.97756 1.260578 12
nan nan nan 0
7.822323 -45.25512 0.5606382 9
nan nan nan 0
0.1900393 -0.4034275 -0.1061528 44
3.000267 -6.294518 -0.963322 26
3.649211 -7.827305 -0.8141257 54
5.065574 -10.76276 -0.7604364 15
3.413387 -9.362898 -0.6940769 28
2.392505 -9.098939 -0.7076953 30
1.499952 -8.929447 -0.7364137 31
6.745144 -14.08488 -0.6338109 18
4.913539 -13.27439 -0.6582238 16
nan nan nan 0
1.929357 -11.14984 -0.6560898 17
9.884602 -20.82973 -0.4017543 27
6.898655 -18.84661 -0.4650283 9
4.33575 -16.36824 -0.4925145 11
2.64683 -15.56677 -0.5445181 9
0.9418579 -5.399319 -0.9868769 19
1.253424 -7.512928 -0.8525956 18
8.132116 -48.61441 1.978096 9
nan nan nan 0
7.833714 -48.43829 3.987772 12
11.20334 -24.0382 3.251474 19
7.517043 -46.53037 8.583921 9
4.218626 -9.133958 2.685248 40
15.8375 -33.4269 0.2128156 40
nan nan nan 0
nan nan nan 0
3.732053 -22.29282 -0.2638624 21
nan nan nan 0
18.69163 -51.22133 1.264988 9
nan nan nan 0
7.034801 -41.56029 0.514519 8
nan nan nan 0
0.1886299 -0.4040884 -0.1061528 50
2.974039 -6.296 -0.9619458 25
3.684574 -7.975522 -0.8282679 40
4.98364 -10.68543 -0.7537153 17
3.368834 -9.341915 -0.6916354 27
2.358229 -9.097582 -0.7069421 32
1.467968 -8.929711 -0.7360066 31
6.687364 -14.09029 -0.6329978 19
4.865454 -13.28677 -0.6579909 14
nan nan nan 0
nan nan nan 0
9.796931 -20.83244 -0.4011435 26
6.807293 -18.80008 -0.4632874 8
4.283637 -16.40262 -0.4930974 9
2.591657 -15.57098 -0.5443453 9
0.923005 -5.402574 -0.9868769 18
1.226395 -7.512353 -0.8520365 18
7.947048 -48.54882 1.974283 12
14.91656 -31.89984 2.046687 5
7.654473 -48.40134 3.982502 10
11.16308 -24.17177 3.26427 24
7.340003 -46.464 8.566886 9
4.16056 -9.09155 2.668424 44
15.71434 -33.4684 0.2127291 44
11.18401 -31.12134 0 16
nan nan nan 0
3.663092 -22.35999 -0.2645056 19
nan nan nan 0
13.61251 -37.71258 0.9299404 17
nan nan nan 0
6.87907 -41.52047 0.5137249 7
nan nan nan 0
0.1872182 -0.4047444 -0.1061528 48
2.94994 -6.301859 -0.9612576 27
3.557136 -7.771143 -0.8056403 98
5.011265 -10.84315 -0.7636368 15
3.332851 -9.344221 -0.6909378 24
2.327691 -9.110589 -0.7073187 30
1.436 -8.929859 -0.7355995 35
6.631754 -14.09999 -0.6323879 18
4.819045 -13.30367 -0.6579909 15
nan nan nan 0
nan nan nan 0
9.688238 -20.78949 -0.3996601 25
nan nan nan 0
4.225109 -16.41263 -0.4929516 10
2.536487 -15.57501 -0.5441726 9
0.903334 -5.400909 -0.9859847 18
1.199384 -7.511681 -0.8514774 17
7.767272 -48.51213 1.971675 10
14.79043 -31.92001 2.044654 30
7.474064 -48.35389 3.976422 10
10.98774 -24.01205 3.237459 42
7.164269 -46.40184 8.550748 11
4.124806 -9.097222 2.665836 42
15.63962 -33.6137 0.2133051 37
11.05689 -31.10837 0 20
7.029579 -27.51063 -0.1484658 19
3.589758 -22.40226 -0.2648564 21
nan nan nan 0
nan nan nan 0
nan nan nan 0
7.280848 -44.91999 0.555507 9
nan nan nan 0
0.1858042 -0.4053954 -0.1061528 54
2.927925 -6.312118 -0.9612576 29
3.548517 -7.824301 -0.809883 75
4.969227 -10.8515 -0.7629967 17
3.295233 -9.341687 -0.6898915 25
2.295875 -9.118659 -0.7073187 28
1.405591 -8.939741 -0.7360066 33
6.57616 -14.10947 -0.6317781 23
4.770892 -13.31571 -0.6577579 15
3.21564 -12.52607 -0.6756572 17
nan nan nan 0
9.630288 -20.85495 -0.4002709 31
nan nan nan 0
4.165336 -16.41759 -0.4926602 9
2.482104 -15.58376 -0.5441726 9
0.8836858 -5.399174 -0.9850924 21
1.172393 -7.510912 -0.8509184 18
7.587076 -48.46985 1.968866 10
14.781 -32.1937 2.058885 17
7.293336 -48.30084 3.969936 11
nan nan nan 0
6.988326 -46.33415 8.533713 13
4.09897 -9.124779 2.669718 45
15.52638 -33.67717 0.2133627 36
10.93994 -31.12319 0 16
nan nan nan 0
3.522355 -22.48381 -0.2656749 25
nan nan nan 0
18.09097 -51.23515 1.260578 8
nan nan nan 0
7.116964 -44.90068 0.5549573 8
nan nan nan 0
0.184388 -0.4060416 -0.1061528 51
2.903802 -6.317802 -0.9605696 30
3.570212 -7.945581 -0.8211968 44
4.925126 -10.85515 -0.7620366 15
3.260961 -9.348425 -0.6895427 23
2.264031 -9.126616 -0.7073187 31
1.373624 -8.939666 -0.7355995 31
6.522676 -14.12327 -0.6313716 20
4.722714 -13.32758 -0.6575251 14
3.168224 -12.5227 -0.6748721 16
1.791432 -11.28909 -0.6627698 16
9.55327 -20.87935 -0.4000964 24
nan nan nan 0
4.101944 -16.40779 -0.4919316 10
2.426925 -15.5874 -0.5439999 9
0.8648339 -5.402226 -0.9850924 20
1.145423 -7.510046 -0.8503593 17
7.405762 -48.41702 1.965655 9
14.68714 -32.28599 2.061499 41
7.113795 -48.25205 3.963856 10
nan nan nan 0
6.812943 -46.26579 8.516678 14
4.080854 -9.169911 2.678777 47
15.46276 -33.8494 0.2141114 29
10.88049 -31.30287 0 15
6.904754 -27.8308 -0.1499318 21
3.451404 -22.54539 -0.2662596 23
nan nan nan 0
20.64112 -59.11294 1.452764 12
nan nan nan 0
6.946421 -44.83632 0.5538577 9
nan nan nan 0
0.1829696 -0.4066827 -0.1061528 55
2.879675 -6.323394 -0.9598815 28
3.597184 -8.080746 -0.8339249 37
4.866726 -10.82678 -0.7588361 15
3.226682 -9.355036 -0.689194 23
2.232159 -9.134463 -0.7073187 32
1.343147 -8.949336 -0.7360066 36
6.469175 -14.13687 -0.6309651 25
4.672858 -13.33455 -0.6570592 15
3.122078 -12.52399 -0.6743488 17
1.756592 -11.32487 -0.6645124 16
nan nan nan 0
6.491772 -18.74214 -0.4595737 9
4.037477 -16.39289 -0.4910574 10
2.3725 -15.59577 -0.5439999 9
0.8452151 -5.40035 -0.9842001 22
1.118472 -7.509084 -0.8498002 17
7.230071 -48.39811 1.963849 9
14.68309 -32.57823 2.076892 28
6.933976 -48.19766 3.957371 10
10.70339 -24.05325 3.227709 34
6.638122 -46.19678 8.499642 12
4.062475 -9.215029 2.687836 48
15.37132 -33.96238 0.2144858 34
10.76791 -31.3312 0 16
6.785017 -27.76245 -0.1494344 13
3.361613 -22.48313 -0.2653826 21
15.87381 -35.02348 1.133369 17
nan nan nan 0
nan nan nan 0
6.762208 -44.67739 0.5515976 10
nan nan nan 0
0.179522 -0.4029264 -0.1048891 55
2.855544 -6.328895 -0.9591934 27
3.558899 -8.070485 -0.8315678 40
4.80249 -10.78445 -0.7546754 16
3.182732 -9.333198 -0.6867524 25
2.20026 -9.1422 -0.7073187 30
1.3119 -8.95397 -0.7360066 32
6.41979 -14.15936 -0.6309651 17
4.623011 -13.34134 -0.6565933 15
3.070011 -12.50087 -0.672517 16
1.734943 -11.44939 -0.6714828 17
9.378582 -20.88169 -0.3988747 25
6.419829 -18.74578 -0.4591095 10
3.974342 -16.38259 -0.4903288 11
2.317313 -15.59902 -0.5438271 9
0.8263593 -5.403268 -0.9842001 19
1.092254 -7.512942 -0.8498002 18
7.043077 -48.29945 1.958833 10
14.57132 -32.63384 2.077182 16
6.756699 -48.15741 3.952101 10
10.61736 -24.08593 3.2271 33
6.463865 -46.12712 8.482608 12
4.003192 -9.167203 2.669718 97
15.29156 -34.10251 0.215033 30
10.64882 -31.34019 0 18
6.740705 -28.00471 -0.1506125 20
3.272298 -22.42051 -0.2645056 25
15.79447 -35.17442 1.136466 34
19.68044 -57.65194 1.413421 8
nan nan nan 0
6.583573 -44.5474 0.549704 9
nan nan nan 0
0.1781144 -0.4035505 -0.1048891 56
2.83141 -6.334304 -0.9585053 27
3.526716 -8.073738 -0.830625 39
4.756752 -10.78289 -0.7533953 17
3.142163 -9.32062 -0.6850085 24
2.169483 -9.154676 -0.7076953 29
1.279232 -8.948627 -0.7351924 33
6.353936 -14.14523 -0.6293389 28
4.573175 -13.34795 -0.6561276 15
3.012277 -12.45327 -0.6693769 16
1.690597 -11.42574 -0.6697402 15
9.307668 -20.91887 -0.398962 32
6.338322 -18.72073 -0.457949 9
3.910167 -16.3672 -0.4894545 11
2.261418 -15.59712 -0.5434816 10
0.8074933 -5.40612 -0.9842001 19
1.065328 -7.511789 -0.8492411 19
6.865299 -48.25945 1.956224 10
14.4351 -32.6343 2.073987 12
6.576414 -48.09183 3.944805 10
10.53719 -24.13194 3.228319 23
6.290843 -46.06167 8.466469 13
3.969248 -9.176688 2.668424 109
15.19679 -34.21051 0.2153786 29
10.4884 -31.2255 0 15
6.664813 -28.12051 -0.1511099 22
3.21231 -22.5605 -0.2660258 25
nan nan nan 0
19.4599 -57.66345 1.412029 31
nan nan nan 0
4.564013 -31.6347 0.3900278 8
nan nan nan 0
0.1767047 -0.4041698 -0.1048891 58
2.807274 -6.339623 -0.9578173 30
3.496532 -8.081432 -0.8301535 39
4.709084 -10.77658 -0.751795 17
3.098565 -9.298409 -0.6825671 23
2.138646 -9.167049 -0.7080719 30
1.247303 -8.948101 -0.7347853 32
6.292324 -14.13995 -0.6281192 24
4.536171 -13.39222 -0.6575251 15
2.959538 -12.42485 -0.6672834 16
1.654259 -11.45628 -0.6711923 16
9.10951 -20.66764 -0.3935517 27
6.266588 -18.72378 -0.4574847 9
3.849579 -16.36615 -0.4890173 11
2.206262 -15.59997 -0.5433088 9
0.7886175 -5.408905 -0.9842001 19
1.039101 -7.515462 -0.8492411 18
6.689256 -48.22868 1.954017 10
14.26098 -32.54734 2.065274 11
6.402585 -48.07003 3.941157 10
nan nan nan 0
6.119001 -46.00045 8.451226 12
3.925767 -9.163857 2.66066 45
15.1216 -34.36403 0.2160121 31
10.24383 -30.85384 0 13
6.563206 -28.129 -0.1510314 22
3.145207 -22.65576 -0.2670197 24
nan nan nan 0
19.2585 -57.73103 1.412029 15
nan nan nan 0
4.438251 -31.54151 0.3886839 34
nan nan nan 0
0.173312 -0.4003706 -0.1036254 60
2.785127 -6.349383 -0.9578173 28
3.464375 -8.084441 -0.8292108 36
4.659533 -10.76548 -0.7498747 18
3.066088 -9.309169 -0.6825671 27
2.107749 -9.179318 -0.7084486 31
1.214725 -8.942524 -0.7339711 30
6.232843 -14.13897 -0.6271028 26
4.497328 -13.43165 -0.6586896 13
2.945772 -12.5615 -0.6740871 17
nan nan nan 0
8.985274 -20.5802 -0.3912829 26
nan nan nan 0
3.791301 -16.37462 -0.4888717 11
2.151114 -15.60262 -0.5431361 9
0.7697321 -5.411625 -0.9842001 17
1.012201 -7.514119 -0.848682 17
4.296007 -31.77467 1.286224 41
14.14927 -32.6015 2.065565 11
6.222588 -47.99819 3.933456 10
nan nan nan 0
5.947667 -45.9386 8.435985 12
nan nan nan 0
15.02953 -34.48076 0.2164153 33
10.0581 -30.65187 0 15
6.429176 -27.9958 -0.1501936 16
3.077477 -22.75083 -0.2680136 26
nan nan nan 0
19.05217 -57.78366 1.41168 35
nan nan nan 0
4.330159 -31.57168 0.3888671 18
nan nan nan 0
0.1719134 -0.4009731 -0.1036254 60
2.758992 -6.349985 -0.956441 27
3.432239 -8.087322 -0.8282679 39
4.627831 -10.79543 -0.7508348 18
3.036664 -9.3293 -0.6832646 27
2.076792 -9.191483 -0.7088252 30
1.182852 -8.941769 -0.7335641 30
6.173447 -14.13775 -0.6260864 30
4.439426 -13.41407 -0.6570592 15
2.890682 -12.52305 -0.6714703 17
nan nan nan 0
nan nan nan 0
3.236342 -9.901652 -0.240928 6
3.73301 -16.38289 -0.488726 11
2.09531 -15.60013 -0.5427906 10
0.7508374 -5.414279 -0.9842001 21
0.9859653 -7.517607 -0.848682 17
4.082171 -31.00685 1.25452 67
12.47554 -29.02355 1.835832 34
3.846904 -30.49149 2.496512 13
11.30969 -26.65755 3.550663 48
5.776837 -45.87611 8.420743 12
3.783025 -9.004073 2.606308 61
12.57171 -29.12131 0.1824627 13
3.199111 -9.869388 0 18
6.339126 -28.05221 -0.1503769 17
3.009123 -22.8457 -0.2690076 27
12.48244 -28.87321 0.9269269 23
3.224335 -9.900307 0.240812 16
nan nan nan 0
4.212653 -31.53208 0.3881952 31
nan nan nan 0
0.1724626 -0.4059981 -0.1048891 58
2.734848 -6.35503 -0.955753 26
3.400126 -8.090078 -0.8273251 39
4.594024 -10.82071 -0.751475 18
3.00408 -9.339843 -0.6832646 25
2.046857 -9.208412 -0.7095785 30
1.150366 -8.935957 -0.7327499 30
6.11612 -14.14088 -0.6252733 23
4.403449 -13.46272 -0.6586896 10
2.817106 -12.40159 -0.6644049 17
nan nan nan 0
8.725183 -20.37132 -0.3861345 27
3.200222 -9.908133 -0.240812 26
3.675801 -16.39582 -0.488726 11
2.040197 -15.6024 -0.5426178 10
0.7319334 -5.416867 -0.9842001 20
0.9590928 -7.516073 -0.848123 18
3.947286 -30.81277 1.246092 36
12.38002 -29.0807 1.836703 19
3.743474 -30.52946 2.498539 13
11.17618 -26.60079 3.537867 37
5.60592 -45.80811 8.404604 14
3.755287 -9.02614 2.608896 80
12.44835 -29.11444 0.1821459 46
3.164641 -9.880495 0 27
6.235743 -28.04976 -0.150246 15
2.924917 -22.82135 -0.2685983 29
12.45243 -29.08199 0.9322354 42
3.183628 -9.892469 0.2403478 26
nan nan nan 0
4.073583 -31.32349 0.3854464 24
nan nan nan 0
0.1710444 -0.4065976 -0.1048891 62
2.712648 -6.364537 -0.955753 28
3.368035 -8.092708 -0.8263823 44
4.532991 -10.78149 -0.7476344 26
2.971459 -9.350271 -0.6832646 22
2.012573 -9.205758 -0.7088252 32
1.11855 -8.934973 -0.7323428 31
6.058846 -14.14377 -0.6244602 20
nan nan nan 0
2.743325 -12.27491 -0.6570779 24
1.454337 -11.17135 -0.6531855 16
8.638395 -20.36484 -0.3854364 25
3.154973 -9.885911 -0.2399996 25
3.618546 -16.40855 -0.488726 11
1.985093 -15.60447 -0.5424451 8
0.7130206 -5.419389 -0.9842001 22
0.9322428 -7.514444 -0.8475639 20
3.847722 -30.89081 1.248701 29
nan nan nan 0
5.696086 -47.86277 3.917242 8
11.13666 -26.76792 3.554929 35
5.435549 -45.73948 8.388466 13
3.758755 -9.124022 2.633484 82
14.78661 -34.91709 0.2181719 34
3.13466 -9.905781 0 21
6.122845 -28.00297 -0.1498795 16
2.850175 -22.87112 -0.269066 30
nan nan nan 0
3.1415 -9.879706 0.2397675 24
nan nan nan 0
3.917849 -30.97046 0.3809261 32
nan nan nan 0
0.171543 -0.411633 -0.1061528 67
2.688486 -6.369407 -0.955065 31
3.335967 -8.095213 -0.8254395 36
4.508769 -10.82948 -0.7498747 34
2.938803 -9.360587 -0.6832646 23
1.984614 -9.232225 -0.7103317 29
1.087355 -8.938823 -0.7323428 35
6.00358 -14.15104 -0.6238504 25
3.149461 -9.863077 -0.4809739 16
2.702604 -12.29416 -0.6576012 17
1.429702 -11.29026 -0.6598654 13
8.590504 -20.45018 -0.3864835 22
3.123453 -9.906397 -0.2402317 26
3.561248 -16.42108 -0.488726 10
1.929388 -15.60138 -0.5420995 8
0.6934789 -5.416964 -0.9833078 20
0.9060068 -7.517652 -0.8475639 18
3.778826 -31.22645 1.261744 29
12.27674 -29.40593 1.851806 9
3.596492 -31.12914 2.545559 47
11.01101 -26.72863 3.54457 31
5.266287 -45.6751 8.373224 12
3.717752 -9.11473 2.627013 74
14.71106 -35.07914 0.2188631 40
3.103049 -9.926207 0 23
6.024008 -28.01929 -0.1498533 18
2.780519 -22.96531 -0.27006 30
nan nan nan 0
3.112989 -9.909686 0.2402317 22
10.55594 -48.65064 0.8508938 7
3.721979 -30.26937 0.3721298 32
nan nan nan 0
0.1701051 -0.4122293 -0.1061528 56
2.664323 -6.374184 -0.9543768 27
3.303922 -8.097593 -0.8244967 39
4.493786 -10.90051 -0.7537153 46
2.904632 -9.366025 -0.6829159 28
1.937959 -9.170801 -0.7050589 33
1.055564 -8.937615 -0.7319357 33
5.950274 -14.1627 -0.6234439 25
3.104488 -9.840671 -0.4793434 15
nan nan nan 0
1.397572 -11.35464 -0.6633507 15
8.528672 -20.50311 -0.3869198 26
3.097778 -9.945873 -0.240928 24
3.502864 -16.42852 -0.4885802 10
1.873729 -15.5981 -0.541754 10
0.674566 -5.419352 -0.9833078 21
0.8791861 -7.515834 -0.8470048 18
3.546997 -30.19248 1.219405 7
12.18356 -29.47166 1.853258 10
3.480056 -31.07216 2.539884 33
10.91201 -26.75312 3.542742 41
5.097541 -45.6101 8.357982 13
3.664184 -9.073925 2.611484 42
14.65949 -35.30112 0.2199286 35
3.066905 -9.9322 0 17
5.967509 -28.23582 -0.1509005 20
2.700921 -22.97984 -0.2701184 26
nan nan nan 0
nan nan nan 0
10.37875 -48.65297 0.8502952 18
3.618072 -30.29707 0.3723131 28
nan nan nan 0
0.1686651 -0.4128205 -0.1061528 53
2.640159 -6.378871 -0.9536887 29
3.270035 -8.095234 -0.8230824 36
4.485913 -10.99003 -0.7588361 23
2.873383 -9.380876 -0.6832646 26
1.898845 -9.143338 -0.7024224 32
1.026052 -8.956099 -0.733157 34
5.895038 -14.16955 -0.622834 23
3.070119 -9.851448 -0.4793434 16
2.655088 -12.49344 -0.6672834 17
1.368552 -11.44867 -0.6685784 17
nan nan nan 0
3.065983 -9.966181 -0.2411601 19
3.442422 -16.42597 -0.4881431 11
1.818693 -15.59958 -0.5415813 9
0.655059 -5.416789 -0.9824155 22
0.8523892 -7.513919 -0.8464457 17
3.450619 -30.2841 1.222615 35
nan nan nan 0
3.406981 -31.41113 2.566637 28
nan nan nan 0
4.930371 -45.55426 8.344533 12
3.643258 -9.113562 2.619249 24
14.60085 -35.50929 0.2209077 29
nan nan nan 0
5.871961 -28.27117 -0.150979 18
2.619559 -22.97919 -0.2700015 29
nan nan nan 0
nan nan nan 0
nan nan nan 0
3.482412 -30.05126 0.3691367 33
nan nan nan 0
0.1653507 -0.4089461 -0.1048891 54
2.615995 -6.383467 -0.9530006 27
3.236205 -8.092737 -0.8216683 38
4.426936 -10.95474 -0.7553155 35
2.839175 -9.386074 -0.6829159 26
1.858952 -9.110827 -0.6994094 32
0.988221 -8.900187 -0.728272 36
5.839827 -14.17618 -0.6222242 29
nan nan nan 0
2.547188 -12.1947 -0.6507975 18
1.32056 -11.38395 -0.6645124 18
nan nan nan 0
nan nan nan 0
3.384056 -16.43299 -0.4879974 11
1.76311 -15.5959 -0.5412358 10
0.6361468 -5.419043 -0.9824155 20
0.8256163 -7.511909 -0.8458866 18
3.35036 -30.34561 1.224622 22
14.74953 -36.39294 2.282519 40
3.253703 -31.00649 2.532588 27
nan nan nan 0
4.763141 -45.49292 8.330188 13
nan nan nan 0
14.66541 -36.0231 0.2237875 26
nan nan nan 0
5.762247 -28.2376 -0.150691 21
2.536044 -22.95838 -0.2696507 25
nan nan nan 0
nan nan nan 0
nan nan nan 0
3.374149 -30.03342 0.3687702 31
nan nan nan 0
0.1639222 -0.4095208 -0.1048891 50
2.593696 -6.39256 -0.9530006 29
3.206101 -8.099358 -0.8211968 37
4.409079 -11.02108 -0.7588361 23
2.802109 -9.381591 -0.6818694 26
1.83301 -9.146592 -0.7016692 33
0.9608544 -8.938268 -0.7311215 27
5.782753 -14.17798 -0.6214111 21
4.113273 -13.52809 -0.6575251 14
2.495576 -12.1595 -0.6484424 17
1.278037 -11.36369 -0.6630602 18
nan nan nan 0
nan nan nan 0
3.324693 -16.43491 -0.4877059 11
1.707574 -15.59203 -0.5408903 9
0.617227 -5.42123 -0.9824155 21
0.7988679 -7.509805 -0.8453276 17
3.246004 -30.37203 1.225224 22
14.63543 -36.47663 2.284552 37
3.121861 -30.78462 2.513536 30
11.32366 -28.61472 3.773684 13
4.5964 -45.43096 8.315843 14
3.683609 -9.40404 2.6956 17
14.50592 -35.99061 0.2232691 25
nan nan nan 0
5.686236 -28.3703 -0.1512932 18
2.461193 -23.0168 -0.2702354 25
nan nan nan 0
nan nan nan 0
9.940094 -49.11178 0.8564524 15
3.283871 -30.17921 0.3704195 32
nan nan nan 0
0.1624917 -0.4100905 -0.1048891 55
2.569517 -6.396981 -0.9523126 26
3.17781 -8.110499 -0.8211968 37
4.34851 -10.98074 -0.7549955 34
2.765109 -9.376965 -0.6808231 22
1.805879 -9.177398 -0.7035524 34
0.9388688 -9.030793 -0.7384491 33
5.727611 -14.18419 -0.6208013 26
4.0689 -13.55193 -0.6579909 15
2.463964 -12.22198 -0.6513209 19
1.240515 -11.38793 -0.6642219 17
8.11347 -20.29991 -0.3808987 23
nan nan nan 0
3.266331 -16.44151 -0.4875602 11
1.652088 -15.58795 -0.5405447 9
0.5982996 -5.423352 -0.9824155 21
0.7721442 -7.507605 -0.8447685 17
3.140479 -30.38815 1.225424 32
14.50432 -36.51822 2.283971 27
3.019714 -30.84989 2.517995 32
10.97744 -28.02567 3.690813 22
4.430149 -45.36839 8.301497 13
3.516157 -9.070173 2.595955 37
14.43024 -36.1664 0.2240467 34
nan nan nan 0
5.60937 -28.50281 -0.1518953 21
2.388017 -23.09488 -0.2710539 23
30.94528 -77.42306 2.458878 191
nan nan nan 0
9.767627 -49.14128 0.8563669 15
3.17746 -30.18055 0.3702973 32
nan nan nan 0
0.1628848 -0.4151352 -0.1061528 47
2.547172 -6.405911 -0.9523126 28
3.147677 -8.116902 -0.8207254 38
4.297392 -10.96334 -0.7527551 55
2.732361 -9.386559 -0.6808231 23
1.777611 -9.203226 -0.7050589 35
0.9098146 -9.058809 -0.7404845 34
5.665071 -14.17163 -0.6193784 28
4.007368 -13.51817 -0.6556617 16
2.429038 -12.26969 -0.6534144 18
1.208049 -11.46169 -0.6682881 17
8.03704 -20.31417 -0.380637 26
nan nan nan 0
3.207964 -16.44791 -0.4874145 11
1.596651 -15.58368 -0.5401992 10
0.5788472 -5.420515 -0.9815232 18
0.7454456 -7.505309 -0.8442094 18
3.024478 -30.29949 1.221411 38
14.34022 -36.47572 2.278162 35
2.908272 -30.82055 2.514752 33
10.8275 -27.92964 3.673142 11
4.264391 -45.30523 8.287151 13
3.444631 -8.978703 2.566191 44
14.30943 -36.23051 0.2241331 34
nan nan nan 0
5.5307 -28.63022 -0.1524713 23
2.309369 -23.12297 -0.2712878 22
30.78886 -77.81874 2.46802 231
nan nan nan 0
9.588374 -49.13581 0.8556827 15
3.075123 -30.2213 0.3706638 38
nan nan nan 0
0.1614347 -0.4157013 -0.1061528 46
2.522978 -6.410157 -0.9516245 27
3.117538 -8.123194 -0.820254 37
4.262711 -10.98757 -0.7533953 52
2.692688 -9.37207 -0.6790792 25
1.757531 -9.27306 -0.7099552 31
0.8748443 -9.027207 -0.7376349 33
5.619249 -14.2006 -0.619785 18
3.96156 -13.53687 -0.6558946 14
2.374771 -12.21928 -0.6502743 17
1.151415 -11.30196 -0.6587037 22
7.960609 -20.32814 -0.3803752 33
nan nan nan 0
3.149591 -16.45409 -0.4872688 11
1.541263 -15.57922 -0.5398538 9
0.5599226 -5.422502 -0.9815232 18
0.7192427 -7.507865 -0.8442094 17
2.900054 -30.11592 1.213585 40
14.02449 -36.0418 2.247957 27
2.781773 -30.62206 2.497728 25
10.59833 -27.62441 3.62805 43
4.099128 -45.24145 8.272806 13
3.37207 -8.88233 2.535133 46
14.15919 -36.21969 0.2237587 32
8.733714 -30.52507 0 15
5.454931 -28.77708 -0.1531519 26
2.234381 -23.19062 -0.2719894 22
30.52068 -77.93504 2.468315 123
nan nan nan 0
9.406457 -49.11498 0.8547421 14
2.9701 -30.23683 0.3707249 37
nan nan nan 0
0.1599826 -0.4162622 -0.1061528 42
2.500587 -6.418924 -0.9516245 24
3.083853 -8.120069 -0.8188397 41
4.22433 -11.00239 -0.7533953 57
2.666764 -9.405406 -0.6808231 24
1.715138 -9.225217 -0.7058122 32
0.8424076 -9.020283 -0.7368208 35
5.569645 -14.22013 -0.619785 20
3.91151 -13.54102 -0.6554288 14
nan nan nan 0
1.105636 -11.24133 -0.6549281 17
7.889602 -20.3558 -0.3803752 32
nan nan nan 0
3.091214 -16.46008 -0.4871231 11
1.485927 -15.57455 -0.5395082 9
0.5409911 -5.424424 -0.9815232 18
0.692578 -7.505383 -0.8436503 20
2.782936 -29.99652 1.208368 32
13.8986 -36.09053 2.247957 29
2.7337 -31.30679 2.552855 21
10.41725 -27.43855 3.598801 35
3.934363 -45.17708 8.258461 13
3.315531 -8.826242 2.515721 48
14.03448 -36.27357 0.2237875 36
8.594497 -30.43989 0 15
5.342568 -28.73204 -0.1528116 22
2.154339 -23.20823 -0.2721063 18
nan nan nan 0
18.37414 -64.72428 1.561158 12
9.216496 -49.04925 0.8530317 13
2.869241 -30.29678 0.3713357 31
nan nan nan 0
0.1585286 -0.4168182 -0.1061528 44
2.47638 -6.422994 -0.9509364 29
3.05023 -8.11681 -0.8174255 39
4.159285 -10.94711 -0.7485945 81
2.632572 -9.409853 -0.6804744 26
1.663276 -9.123235 -0.6975263 34
0.8069289 -8.978495 -0.733157 35
5.519974 -14.23949 -0.619785 21
3.862849 -13.54979 -0.6551958 16
2.353642 -12.57913 -0.6685918 16
1.059357 -11.17058 -0.6505716 16
nan nan nan 0
5.160381 -18.35312 -0.4417014 8
3.034644 -16.47568 -0.4872688 11
1.430641 -15.56969 -0.5391628 10
