# .PCD v0.7 - Point Cloud Data file format
VERSION 0.7
FIELDS x y z intensity
SIZE 4 4 4 4
TYPE F F F F
COUNT 1 1 1 1
WIDTH 1713
HEIGHT 1
VIEWPOINT 0 0 0 1 0 0 0
POINTS 1713
DATA ascii
17.64606 -16.33164 -1.1194 13
14.27056 -15.90774 -1.117896 13
nan nan nan 0
25.08615 -19.39573 -0.5528049 10
23.86754 -22.25156 -0.7566718 27
20.02137 -22.44506 -0.8757433 9
15.23924 -20.56296 -0.8834599 11
4.536466 -6.068463 -1.366994 15
6.927717 -9.411236 -1.310481 12
48.32929 -65.56694 3.269938 6
25.46493 -19.78093 1.873878 11
48.59429 -66.67861 6.707628 8
nan nan nan 0
nan nan nan 0
nan nan nan 0
25.46738 -19.7189 0.1852849 9
30.52276 -28.59521 0 17
30.51964 -34.33614 -0.2403307 5
23.30059 -31.60654 -0.4587336 8
25.46307 -19.69431 0.9486034 10
30.64569 -28.63024 0.9727644 30
30.62465 -34.32152 0.7861574 21
32.13696 -43.42165 0.6595348 49
nan nan nan 0
0.266416 -0.2104835 -0.07835092 10
7.92793 -6.149863 -1.38856 15
11.18139 -8.827622 -1.345405 15
15.55222 -12.18811 -1.264834 9
12.78848 -12.03677 -1.225272 9
10.64567 -12.06366 -1.212385 9
8.795757 -12.0084 -1.212701 8
21.981 -16.98981 -1.128785 14
17.56337 -16.3693 -1.117769 13
nan nan nan 0
11.00795 -14.8728 -1.074314 18
25.06958 -19.5231 -0.5539393 12
23.7387 -22.28685 -0.7550471 32
19.92302 -22.49236 -0.874869 9
15.14664 -20.58785 -0.8822506 11
4.512326 -6.080308 -1.366102 15
6.891895 -9.431349 -1.309922 12
31.96098 -43.67582 2.172133 12
30.71937 -24.03347 2.267126 12
nan nan nan 0
71.27624 -56.29734 11.14739 6
10.35779 -14.31479 3.213367 42
nan nan nan 0
25.47332 -19.86609 0.185832 10
30.62643 -28.89371 0 10
30.47569 -34.52869 -0.2409329 6
23.23441 -31.74821 -0.4596106 9
25.45331 -19.82913 0.9508152 9
30.64387 -28.82951 0.9758978 31
nan nan nan 0
31.99999 -43.55371 0.6598402 144
nan nan nan 0
nan nan nan 0
7.90251 -6.174452 -1.387872 15
11.13882 -8.857309 -1.343991 15
15.50958 -12.24233 -1.264834 7
12.72466 -12.06075 -1.22318 10
10.59364 -12.08949 -1.211255 8
8.747928 -12.03097 -1.211887 9
21.8506 -17.01121 -1.125126 15
17.44056 -16.36899 -1.113577 14
nan nan nan 0
10.93824 -14.88699 -1.072572 20
25.07209 -19.66601 -0.5555101 17
23.66803 -22.37644 -0.7552792 36
19.82458 -22.53925 -0.8739947 9
15.05111 -20.60831 -0.8808686 11
4.491075 -6.096023 -1.366102 15
6.856016 -9.451324 -1.309363 12
31.76429 -43.72648 2.169123 14
30.65098 -24.15291 2.268287 40
nan nan nan 0
71.09093 -56.55507 11.14922 9
nan nan nan 0
nan nan nan 0
30.68117 -24.09881 0.2244786 10
30.64139 -29.11064 0 8
30.49009 -34.78903 -0.2420062 6
23.20864 -31.94643 -0.4613062 9
30.68878 -24.07888 1.149737 15
30.64466 -29.03256 0.9791473 31
30.62865 -34.81223 0.7924857 16
31.7859 -43.58031 0.6585574 169
nan nan nan 0
nan nan nan 0
7.873121 -6.195878 -1.386495 16
11.09617 -8.886806 -1.342577 16
15.46285 -12.29329 -1.264513 9
12.66083 -12.08444 -1.221087 9
10.54156 -12.11511 -1.210125 9
8.700048 -12.05335 -1.211073 9
21.75569 -17.05964 -1.123297 13
17.37243 -16.41948 -1.112878 12
nan nan nan 0
nan nan nan 0
25.04645 -19.78749 -0.55647 18
23.66942 -22.53474 -0.7578323 35
19.72277 -22.58196 -0.8729747 8
14.95563 -20.62835 -0.8794866 12
4.466867 -6.107689 -1.365209 15
6.820081 -9.471167 -1.308804 12
31.5764 -43.78846 2.166715 8
30.64078 -24.31871 2.273806 44
59.33628 -83.23802 8.311168 4
70.92795 -56.8308 11.1547 7
nan nan nan 0
nan nan nan 0
30.65961 -24.25539 0.2249394 10
30.61546 -29.29 0 9
34.37278 -39.49682 -0.2739456 5
23.16716 -32.12458 -0.4627094 11
30.62023 -24.19825 1.150327 42
30.64801 -29.23941 0.9825128 33
30.61877 -35.04694 0.7953932 20
31.59841 -43.6424 0.6578244 142
nan nan nan 0
nan nan nan 0
7.847563 -6.220248 -1.385807 16
11.05733 -8.919237 -1.341634 15
15.42763 -12.35342 -1.265154 8
12.60059 -12.11128 -1.219343 10
10.48617 -12.13674 -1.208619 9
8.649219 -12.07148 -1.209852 9
21.64896 -17.09833 -1.120857 16
nan nan nan 0
nan nan nan 0
10.91598 -15.07622 -1.080704 15
25.05156 -19.93393 -0.5581279 18
23.70609 -22.72792 -0.7615461 23
19.61763 -22.62046 -0.8718089 9
14.85727 -20.64392 -0.8779318 10
4.445519 -6.123244 -1.365209 15
6.781204 -9.486827 -1.307686 12
31.3245 -43.76028 2.159893 5
30.66878 -24.51589 2.282228 42
nan nan nan 0
70.77934 -57.11855 11.16262 7
9.772747 -13.80802 3.076189 35
nan nan nan 0
30.59822 -24.38095 0.2251122 7
30.64267 -29.52157 0 8
33.08073 -38.28109 -0.2647042 7
23.04615 -32.19306 -0.462534 9
30.63335 -24.38278 1.154014 46
30.6503 -29.44664 0.9858784 32
30.63711 -35.31599 0.7990705 16
nan nan nan 0
nan nan nan 0
nan nan nan 0
7.82193 -6.244515 -1.385119 17
11.01454 -8.948369 -1.34022 16
15.35334 -12.38215 -1.262593 9
12.54032 -12.13784 -1.217599 9
10.434 -12.16192 -1.207489 10
8.59548 -12.08535 -1.208223 9
21.55395 -17.14581 -1.119028 15
17.20689 -16.49198 -1.109617 10
nan nan nan 0
nan nan nan 0
25.08327 -20.10253 -0.5603967 19
23.66257 -22.84525 -0.7627067 18
19.5092 -22.65471 -0.8704975 9
14.75898 -20.65906 -0.876377 11
4.421245 -6.134732 -1.364317 15
6.745173 -9.506387 -1.307127 12
31.90068 -44.89572 2.210459 14
30.67245 -24.69477 2.288908 46
9.768341 -13.89934 1.378574 48
70.61419 -57.39343 11.16811 8
9.730141 -13.8501 3.077982 40
nan nan nan 0
30.59873 -24.55645 0.2257458 6
30.63633 -29.72235 0 8
33.06737 -38.53673 -0.2656728 11
22.89889 -32.2244 -0.4618324 9
30.66504 -24.58333 1.158437 51
30.65152 -29.65424 0.989244 31
30.62132 -35.54773 0.8018925 16
nan nan nan 0
nan nan nan 0
0.258907 -0.2121008 -0.07708719 9
7.796224 -6.26868 -1.384431 16
10.97168 -8.977309 -1.338805 15
15.28678 -12.4168 -1.260673 9
12.48001 -12.16414 -1.215855 9
10.38179 -12.18688 -1.206359 9
8.541753 -12.099 -1.206595 10
21.45107 -17.18659 -1.116792 15
17.13844 -16.54154 -1.108918 11
13.63153 -15.85101 -1.09356 12
nan nan nan 0
25.07908 -20.24333 -0.5618802 20
nan nan nan 0
19.40402 -22.69228 -0.8693318 9
14.66366 -20.67784 -0.8749949 11
4.399804 -6.150127 -1.364317 15
6.706231 -9.521746 -1.306009 12
30.88292 -43.78601 2.150462 47
30.67913 -24.87713 2.295879 53
9.728313 -13.94562 1.37979 42
70.45183 -57.67101 11.1742 8
9.729546 -13.95259 3.093224 12
nan nan nan 0
30.61005 -24.74167 0.2264657 6
30.63254 -29.92695 0 9
33.03641 -38.77371 -0.2665105 10
22.77762 -32.29187 -0.461657 9
30.64516 -24.74359 1.160944 52
30.65881 -29.86918 0.9928417 27
30.62052 -35.79877 0.8051422 19
30.97787 -43.7424 0.6544036 14
nan nan nan 0
nan nan nan 0
7.766595 -6.289627 -1.383055 17
10.93259 -9.009224 -1.337862 15
15.22017 -12.45113 -1.258752 9
12.41967 -12.19016 -1.214111 9
10.32952 -12.21162 -1.205229 9
8.488033 -12.11241 -1.204967 9
21.35207 -17.23 -1.114759 14
17.12357 -16.64303 -1.111713 9
13.20652 -15.46559 -1.063728 17
nan nan nan 0
nan nan nan 0
23.45964 -22.96793 -0.761314 9
19.29558 -22.72559 -0.8680204 9
14.56551 -20.69212 -0.8734401 11
4.375463 -6.161434 -1.363425 15
6.670108 -9.541024 -1.30545 11
nan nan nan 0
30.68876 -25.06299 2.303139 46
nan nan nan 0
70.3305 -57.98287 11.187 7
nan nan nan 0
nan nan nan 0
30.76393 -25.04404 0.2282511 8
30.63482 -30.13888 0 9
32.97514 -38.97659 -0.2671127 8
22.6447 -32.34251 -0.4612477 8
30.64392 -24.91977 1.164188 50
30.65071 -30.07053 0.9959751 28
30.6054 -36.03499 0.8080497 13
nan nan nan 0
nan nan nan 0
nan nan nan 0
7.740753 -6.313571 -1.382367 17
10.88958 -9.037798 -1.336448 15
15.14965 -12.48198 -1.256512 9
12.35931 -12.21591 -1.212367 8
10.27401 -12.23233 -1.203722 9
8.43717 -12.12969 -1.203745 8
21.24914 -17.26978 -1.112523 14
17.02254 -16.66079 -1.108918 11
12.92966 -15.2488 -1.045672 12
nan nan nan 0
nan nan nan 0
23.47188 -23.14091 -0.7643315 11
19.18715 -22.75841 -0.866709 10
14.46745 -20.70596 -0.8718854 11
4.35393 -6.17667 -1.363425 15
6.631102 -9.556082 -1.304332 10
nan nan nan 0
30.67435 -25.2302 2.308658 54
nan nan nan 0
70.20786 -58.29459 11.19979 8
9.810078 -14.27971 3.150606 33
nan nan nan 0
30.90061 -25.33511 0.2299214 7
30.63244 -30.34768 0 8
nan nan nan 0
22.5174 -32.40083 -0.4609554 9
30.63408 -25.08991 1.167138 52
30.64869 -30.27922 0.9993407 29
30.61157 -36.2983 0.811556 16
nan nan nan 0
nan nan nan 0
nan nan nan 0
7.714838 -6.33741 -1.381679 17
10.8465 -9.066181 -1.335034 15
15.07526 -12.50931 -1.253952 9
12.30245 -12.2449 -1.210972 8
10.21848 -12.2528 -1.202216 10
8.386289 -12.14676 -1.202524 9
21.14233 -17.30589 -1.110084 13
16.96428 -16.7201 -1.108918 10
12.4101 -14.73995 -1.007729 14
nan nan nan 0
33.01669 -27.22398 -0.7462648 7
23.38032 -23.21214 -0.7639833 10
19.08192 -22.79459 -0.8655432 9
14.38084 -20.7358 -0.8710216 11
4.329525 -6.187798 -1.362533 15
6.594888 -9.575078 -1.303772 12
30.87366 -44.76094 2.182367 38
30.67451 -25.41035 2.315338 46
9.761388 -14.31027 1.405732 42
70.07628 -58.59979 11.21137 8
9.765712 -14.322 3.152399 39
nan nan nan 0
32.54325 -26.872 0.2428516 8
30.65022 -30.57801 0 8
31.56854 -37.8466 -0.257845 7
22.38997 -32.45865 -0.4606631 7
30.62344 -25.26028 1.170087 55
30.64203 -30.48472 1.00259 33
30.63552 -36.58508 0.8155752 16
nan nan nan 0
nan nan nan 0
0.2634257 -0.221801 -0.07961464 10
7.688852 -6.361147 -1.380991 16
10.80717 -9.097579 -1.334091 15
15.0047 -12.53946 -1.251711 8
12.25258 -12.28071 -1.210275 9
10.16293 -12.27304 -1.200709 9
8.335391 -12.16362 -1.201303 9
21.03938 -17.34463 -1.107848 15
16.90226 -16.7757 -1.108685 10
12.33295 -14.75253 -1.005635 15
9.52116 -13.746 -0.9706295 22
32.89069 -27.31352 -0.7455667 7
23.33804 -23.33248 -0.7652598 10
18.97349 -22.82646 -0.8642318 10
14.29421 -20.76529 -0.8701579 11
4.305095 -6.19883 -1.36164 16
6.55582 -9.589832 -1.302654 11
30.98813 -45.26423 2.20163 37
30.65846 -25.57801 2.320856 46
9.756057 -14.4103 1.412218 44
69.94344 -58.90477 11.22295 13
9.699125 -14.33155 3.147019 6
nan nan nan 0
32.54537 -27.06534 0.2435716 14
30.61032 -30.75215 0 8
31.33418 -37.83334 -0.2570073 9
22.26241 -32.51598 -0.4603707 8
30.64657 -25.45962 1.174363 52
30.63431 -30.69055 1.00584 32
30.62588 -36.83404 0.8187394 14
30.80305 -44.8093 0.6638718 4
nan nan nan 0
nan nan nan 0
7.662794 -6.384779 -1.380303 17
10.76396 -9.125596 -1.332677 15
14.92647 -12.56285 -1.248831 8
12.19911 -12.31278 -1.209228 10
10.10736 -12.29303 -1.199203 9
8.284477 -12.18028 -1.200082 10
20.91335 -17.36373 -1.104392 15
16.83654 -16.82754 -1.10822 10
12.32284 -14.84544 -1.009037 16
9.450509 -13.74624 -0.9683061 18
nan nan nan 0
23.34804 -23.50601 -0.7682772 9
18.86825 -22.86172 -0.8630661 9
14.20473 -20.7903 -0.8691213 11
4.283431 -6.21382 -1.36164 16
6.519517 -9.608545 -1.302095 12
30.8187 -45.35559 2.200828 39
30.66454 -25.76513 2.328117 57
nan nan nan 0
69.80552 -59.20635 11.23392 8
nan nan nan 0
nan nan nan 0
32.54654 -27.25903 0.2442915 14
30.61526 -30.9726 0 8
31.13842 -37.86524 -0.2564837 10
22.13754 -32.57695 -0.4601368 8
30.65719 -25.64981 1.178197 54
30.63257 -30.9038 1.009321 34
30.6117 -37.07951 0.821818 14
30.78731 -45.12306 0.6669261 5
nan nan nan 0
0.2581396 -0.2205555 -0.07835092 9
7.636665 -6.408308 -1.379615 16
10.72446 -9.156651 -1.331734 14
14.8711 -12.6052 -1.247871 8
12.14906 -12.34817 -1.208531 8
10.05178 -12.31279 -1.197696 10
8.230762 -12.1926 -1.198453 10
20.83728 -17.4238 -1.103579 14
16.77769 -16.88621 -1.10822 10
12.73137 -15.44711 -1.046981 14
9.388408 -13.75852 -0.966854 18
30.93251 -26.05478 -0.7052517 5
23.30446 -23.62651 -0.7695538 10
18.76299 -22.89651 -0.8619004 9
14.12086 -20.82322 -0.8684304 11
4.25894 -6.224672 -1.360748 16
6.480391 -9.622999 -1.300977 12
30.67137 -45.47946 2.20163 17
30.6735 -25.95584 2.335668 50
nan nan nan 0
69.6739 -59.51411 11.2461 7
nan nan nan 0
nan nan nan 0
32.54674 -27.45305 0.2450115 12
30.60854 -31.18275 0 9
25.94032 -31.76914 -0.2145436 9
22.01251 -32.63745 -0.4599029 8
30.65538 -25.83073 1.181588 52
30.63673 -31.12453 1.013035 32
30.63736 -37.37559 0.8260083 12
30.67727 -45.30063 0.6679645 8
nan nan nan 0
nan nan nan 0
7.610465 -6.431731 -1.378927 17
10.68111 -9.184299 -1.33032 14
14.81942 -12.65056 -1.247231 9
12.09194 -12.37624 -1.207136 9
9.999321 -12.33618 -1.196566 9
8.179837 -12.20883 -1.197232 8
20.74194 -17.46748 -1.10175 14
16.6976 -16.92334 -1.106822 10
12.74377 -15.57261 -1.052476 19
9.315145 -13.75401 -0.9642401 17
30.6698 -26.01709 -0.7013249 5
23.24634 -23.73271 -0.7703662 10
18.65772 -22.93085 -0.8607347 11
14.0202 -20.83092 -0.8667028 11
4.237185 -6.2395 -1.360748 16
6.441244 -9.637298 -1.299859 12
30.70136 -45.86858 2.215275 13
30.6815 -26.14692 2.34322 54
nan nan nan 0
69.53722 -59.81844 11.25768 8
nan nan nan 0
nan nan nan 0
32.53075 -27.63446 0.2456162 11
nan nan nan 0
25.91743 -31.96824 -0.2152766 9
21.8623 -32.66007 -0.4591429 8
30.64506 -26.00548 1.184685 52
30.6467 -31.35282 1.016981 34
53.13255 -65.28371 1.439165 57
30.6054 -45.53608 0.6698582 4
nan nan nan 0
nan nan nan 0
7.584195 -6.455049 -1.378238 16
10.63769 -9.211757 -1.328906 14
14.77138 -12.69896 -1.246911 9
12.03129 -12.40047 -1.205392 9
9.946822 -12.35935 -1.195436 9
8.128898 -12.22486 -1.196011 9
20.61605 -17.48486 -1.098294 14
16.64891 -16.99222 -1.107521 10
12.63581 -15.55111 -1.048028 14
9.244811 -13.75329 -0.9619165 16
30.49136 -26.04931 -0.6993179 6
23.21912 -23.87104 -0.7722231 10
18.5493 -22.96085 -0.8594233 10
13.91965 -20.83817 -0.8649753 11
4.212633 -6.250171 -1.359856 16
6.404819 -9.655581 -1.2993 12
30.69032 -46.2002 2.22611 12
30.68475 -26.33511 2.35048 50
nan nan nan 0
69.42551 -60.14529 11.27352 8
nan nan nan 0
nan nan nan 0
32.52148 -27.82259 0.2462786 8
nan nan nan 0
25.83389 -32.09357 -0.2155123 18
21.71774 -32.69037 -0.4584998 8
30.6377 -26.18371 1.187929 49
30.65197 -31.57796 1.020811 36
nan nan nan 0
30.60993 -45.88805 0.6734622 4
nan nan nan 0
nan nan nan 0
7.557855 -6.478263 -1.37755 16
10.59797 -9.242292 -1.327963 14
14.70055 -12.72759 -1.24467 10
11.97063 -12.42444 -1.203648 8
9.891172 -12.37842 -1.19393 9
8.077944 -12.24068 -1.194789 9
20.5549 -17.55671 -1.098294 14
16.5477 -17.00728 -1.104726 11
nan nan nan 0
9.171827 -13.7481 -0.9593026 14
30.25622 -26.0317 -0.6960019 9
23.09398 -23.9088 -0.7708305 9
18.43464 -22.98257 -0.8578204 9
13.84131 -20.8783 -0.8646297 11
4.19079 -6.264838 -1.359856 16
6.365615 -9.669576 -1.298182 13
30.68834 -46.549 2.237749 18
30.68706 -26.52365 2.357741 51
9.119547 -13.98959 1.355064 36
69.31612 -60.47535 11.28998 8
9.10128 -13.96689 3.03136 34
nan nan nan 0
nan nan nan 0
30.4917 -31.72144 0 18
30.01051 -37.55028 -0.2514834 9
21.609 -32.77433 -0.4586167 8
30.62188 -26.35569 1.190878 57
30.65951 -31.80712 1.024756 39
nan nan nan 0
30.59857 -46.21975 0.6767608 4
nan nan nan 0
0.2587229 -0.2272691 -0.07961464 10
7.531445 -6.501371 -1.376862 16
10.55441 -9.26938 -1.326549 14
14.62218 -12.74932 -1.24179 10
11.90994 -12.44813 -1.201904 8
9.838609 -12.40115 -1.1928 9
8.026981 -12.25629 -1.193568 9
20.48212 -17.61859 -1.097684 14
16.46741 -17.04339 -1.103328 12
13.16368 -16.43401 -1.10141 9
9.093484 -13.73424 -0.9561079 15
30.16139 -26.13389 -0.6959147 17
23.01384 -23.99288 -0.7709465 9
18.32317 -23.00768 -0.8563633 9
9.248984 -14.05427 -0.580278 7
4.166178 -6.275328 -1.358963 15
6.326392 -9.683415 -1.297063 12
nan nan nan 0
30.68089 -26.70597 2.364421 50
9.089597 -14.05064 1.357901 35
69.20528 -60.80538 11.30643 8
9.036454 -13.97379 3.02598 23
nan nan nan 0
31.11028 -26.99399 0.2370057 12
nan nan nan 0
25.99146 -32.75491 -0.2187324 18
9.219471 -14.08426 -0.1963913 6
30.63923 -26.55734 1.195155 44
30.65545 -32.02588 1.028354 38
nan nan nan 0
30.58253 -46.54775 0.6799983 4
nan nan nan 0
nan nan nan 0
7.501225 -6.521127 -1.375486 16
10.51453 -9.299572 -1.325606 15
14.54009 -12.76737 -1.23859 9
11.85268 -12.47516 -1.200509 9
9.779838 -12.41583 -1.190917 9
7.978722 -12.27588 -1.192754 8
20.40917 -17.68016 -1.097074 16
16.38015 -17.07194 -1.101465 11
13.0938 -16.46422 -1.100363 11
9.02357 -13.73252 -0.9537844 19
30.19807 -26.35075 -0.6988816 17
22.91616 -24.05859 -0.7704823 9
18.20865 -23.02838 -0.8547604 11
9.218987 -14.11576 -0.5814873 16
4.141544 -6.285722 -1.358071 15
6.289851 -9.701268 -1.296504 12
9.133634 -14.05984 0.6718062 33
30.67382 -26.88857 2.371101 47
9.02166 -14.05292 1.355064 30
69.05579 -61.10248 11.31679 8
8.947791 -13.94313 3.012532 25
nan nan nan 0
31.1213 -27.19453 0.237812 13
30.64444 -32.32906 0 18
25.85222 -32.81402 -0.218523 31
9.118526 -14.03668 -0.1952804 35
30.64048 -26.74628 1.198841 50
30.65368 -32.24863 1.032068 50
nan nan nan 0
nan nan nan 0
nan nan nan 0
nan nan nan 0
7.470961 -6.540751 -1.37411 16
10.47457 -9.329598 -1.324663 14
14.46178 -12.78831 -1.235709 9
11.79194 -12.49832 -1.198765 9
9.724155 -12.43418 -1.18941 10
7.930423 -12.29527 -1.19194 9
20.32474 -17.7316 -1.095855 13
16.31012 -17.11816 -1.100766 11
13.04553 -16.52159 -1.101148 11
8.945601 -13.71793 -0.9505897 17
24.91171 -21.89278 -0.5781982 8
22.75646 -24.05854 -0.7679291 9
18.10038 -23.05642 -0.853449 11
9.150642 -14.1185 -0.580278 14
4.119576 -6.30014 -1.358071 15
6.247891 -9.710627 -1.294827 12
9.076384 -14.07903 0.6712043 18
30.67334 -27.07805 2.378362 52
8.937759 -14.02967 1.349795 47
68.90135 -61.39597 11.32654 11
8.883223 -13.94938 3.007152 23
nan nan nan 0
30.63577 -26.95953 0.2348171 110
nan nan nan 0
25.7714 -32.94738 -0.2188109 24
9.107383 -14.12727 -0.196099 16
30.64454 -26.93885 1.202675 52
30.64729 -32.46812 1.035666 87
nan nan nan 0
9.126198 -14.09715 0.2046958 31
nan nan nan 0
nan nan nan 0
7.44065 -6.560243 -1.372734 16
10.43082 -9.356137 -1.323249 15
14.37978 -12.80554 -1.232509 10
11.7346 -12.52485 -1.19737 10
9.665405 -12.44836 -1.187527 10
7.879402 -12.31029 -1.190719 8
20.24395 -17.78595 -1.094838 14
16.25027 -17.17499 -1.100766 13
13.0001 -16.58274 -1.102195 11
8.87869 -13.71973 -0.9485566 11
24.87632 -22.01604 -0.5791581 8
22.64839 -24.11233 -0.7671167 8
18.0075 -23.10369 -0.8528661 9
9.090497 -14.13354 -0.579587 12
4.094885 -6.310354 -1.357179 15
6.211284 -9.728188 -1.294268 12
8.957218 -14.00119 0.6659871 99
30.64952 -27.24796 2.38388 47
8.886071 -14.05657 1.349389 37
68.72356 -61.66925 11.33263 7
8.839726 -13.98862 3.008945 17
nan nan nan 0
30.62007 -27.13593 0.2354218 117
nan nan nan 0
25.6501 -33.02924 -0.2187586 18
9.036469 -14.12527 -0.1956312 13
30.64014 -27.12515 1.206214 55
30.64317 -32.6916 1.039379 106
nan nan nan 0
9.076934 -14.12892 0.2046958 15
nan nan nan 0
0.2482368 -0.2244951 -0.07708719 10
7.410296 -6.579605 -1.371358 16
10.39071 -9.385821 -1.322306 14
14.30527 -12.82901 -1.229948 9
11.67722 -12.55113 -1.195975 9
9.609721 -12.46623 -1.186021 11
7.831042 -12.3293 -1.189904 9
20.12186 -17.80355 -1.091586 13
16.15943 -17.19885 -1.09867 13
12.96667 -16.65955 -1.104289 10
8.749867 -13.62461 -0.9398436 10
24.81425 -22.11605 -0.5795071 10
22.52658 -24.15104 -0.7658401 8
nan nan nan 0
8.973927 -14.05986 -0.5752681 11
4.070172 -6.32047 -1.356287 15
6.171974 -9.741412 -1.29315 11
8.90829 -14.03237 0.6659871 121
30.66952 -27.45798 2.392884 46
8.82901 -14.07483 1.348173 17
68.62202 -62.01191 11.35152 8
8.775175 -13.99439 3.003566 16
nan nan nan 0
31.02136 -27.68537 0.2392519 31
30.54574 -32.90837 0 9
12.7955 -16.59435 -0.1095102 16
8.965683 -14.12296 -0.1951635 15
30.59377 -27.27517 1.208131 56
30.64126 -32.9191 1.043209 131
12.67867 -16.37786 0.3536126 17
8.979207 -14.08462 0.2035963 60
nan nan nan 0
nan nan nan 0
7.38359 -6.602132 -1.37067 17
10.34683 -9.411988 -1.320892 14
14.23077 -12.85212 -1.227388 9
11.61979 -12.57716 -1.19458 9
9.557057 -12.48781 -1.184891 11
7.782646 -12.34813 -1.18909 9
20.00736 -17.82716 -1.08874 13
16.06863 -17.22229 -1.096574 13
12.90538 -16.70075 -1.104027 13
8.7532 -13.73507 -0.9453618 11
24.74806 -22.21255 -0.5797689 10
22.38439 -24.16718 -0.7638672 8
12.75217 -16.59792 -0.609086 31
8.898072 -14.04887 -0.5735406 16
4.045439 -6.330492 -1.355394 15
6.13529 -9.758689 -1.292591 12
8.85393 -14.05492 0.6655858 98
30.6773 -27.65844 2.401016 41
8.756138 -14.06748 1.344525 17
68.48223 -62.32121 11.36432 8
8.705494 -13.99151 2.996393 22
nan nan nan 0
30.96915 -27.83358 0.2395975 32
30.50863 -33.09935 0 9
12.73445 -16.63494 -0.109484 10
8.900349 -14.12878 -0.1948127 11
30.63971 -27.50865 1.213735 41
30.63814 -33.14699 1.047039 146
12.71281 -16.54094 0.3561781 30
8.905944 -14.07784 0.2030465 78
nan nan nan 0
0.243042 -0.2230152 -0.07582346 10
7.356817 -6.624553 -1.369981 16
10.3029 -9.437967 -1.319478 14
14.15997 -12.87823 -1.225147 10
11.56233 -12.60295 -1.193184 8
9.507377 -12.51316 -1.184137 11
7.734214 -12.36677 -1.188276 9
19.9041 -17.8602 -1.086504 15
15.9541 -17.21966 -1.092847 16
12.78927 -16.67043 -1.099055 12
8.723867 -13.79508 -0.9473948 14
nan nan nan 0
22.27282 -24.21574 -0.7629387 9
nan nan nan 0
8.864923 -14.10524 -0.5745772 11
4.023316 -6.344574 -1.355394 15
6.098561 -9.775829 -1.292032 12
8.807464 -14.08998 0.6657864 20
30.68406 -27.85929 2.409148 40
8.693894 -14.07676 1.342498 20
68.3594 -62.64705 11.38016 9
8.661766 -14.03019 2.998186 16
nan nan nan 0
nan nan nan 0
30.58196 -33.41218 0 9
nan nan nan 0
8.837734 -14.13856 -0.1945204 12
30.66215 -27.72268 1.218453 47
30.63379 -33.37525 1.050869 150
nan nan nan 0
8.86472 -14.12155 0.2032298 17
nan nan nan 0
nan nan nan 0
7.329978 -6.646867 -1.369293 16
10.25891 -9.463752 -1.318063 14
14.08917 -12.90399 -1.222907 10
11.50819 -12.63217 -1.192138 9
9.454635 -12.53433 -1.183007 11
7.690999 -12.39369 -1.188276 9
19.80086 -17.89273 -1.084268 14
15.90066 -17.2826 -1.093313 14
12.76428 -16.75866 -1.101934 9
8.64649 -13.77892 -0.9442 14
nan nan nan 0
22.17804 -24.28227 -0.7625906 8
17.22159 -22.74321 -0.8305718 9
8.807705 -14.12337 -0.5740589 12
3.998528 -6.354414 -1.354502 15
6.064399 -9.797058 -1.292032 11
8.742434 -14.09516 0.6645825 18
30.6861 -28.05716 2.41699 45
8.652512 -14.11977 1.343714 30
68.21325 -62.95259 11.39235 8
nan nan nan 0
nan nan nan 0
31.19171 -28.42965 0.2428516 9
30.52232 -33.58163 0 13
25.45744 -33.74339 -0.2211148 18
8.777789 -14.15232 -0.1942865 13
30.68346 -27.9372 1.223172 42
30.6316 -33.60759 1.054814 162
nan nan nan 0
8.807446 -14.13967 0.2030465 16
nan nan nan 0
nan nan nan 0
7.303072 -6.669076 -1.368605 16
10.21852 -9.49273 -1.31712 13
14.01469 -12.92604 -1.220347 10
11.45064 -12.65747 -1.190743 9
9.404848 -12.55927 -1.182254 10
7.645078 -12.41621 -1.187869 9
19.73828 -17.96174 -1.084268 14
15.83012 -17.32693 -1.092614 17
12.63945 -16.71549 -1.096177 13
8.590429 -13.79631 -0.9433288 13
nan nan nan 0
22.0965 -24.36324 -0.7627067 8
17.05801 -22.69132 -0.8264918 10
8.758351 -14.15403 -0.5740589 12
3.976323 -6.368333 -1.354502 15
6.027566 -9.813932 -1.291473 11
8.66701 -14.08303 0.6625759 21
30.68713 -28.25538 2.424831 42
8.616111 -14.17118 1.345741 168
68.09124 -63.28153 11.4088 8
8.668291 -14.2627 3.034946 4
nan nan nan 0
31.16228 -28.60258 0.2433988 8
nan nan nan 0
nan nan nan 0
8.696909 -14.13177 -0.1935849 13
30.66313 -28.11506 1.226269 46
30.6315 -33.84401 1.058876 165
32.73183 -43.52854 0.9309376 23
8.734391 -14.13205 0.2024968 17
nan nan nan 0
0.2406933 -0.2255481 -0.07582346 9
7.272453 -6.687828 -1.367229 17
10.17441 -9.518146 -1.315706 13
13.94754 -12.95451 -1.218426 10
11.38638 -12.6751 -1.18865 9
9.352027 -12.58002 -1.181124 10
7.601691 -12.44283 -1.187869 10
19.64968 -18.00691 -1.082845 14
15.75948 -17.37099 -1.091915 16
12.54206 -16.70759 -1.092775 12
8.526484 -13.80073 -0.9415861 13
25.77653 -23.79337 -0.6116195 42
21.96115 -24.38451 -0.7609659 8
16.96376 -22.7307 -0.8257632 9
8.680145 -14.13766 -0.5721586 13
3.951481 -6.377991 -1.35361 15
5.990689 -9.830669 -1.290914 11
8.623002 -14.12173 0.6629772 20
30.69081 -28.45734 2.432963 43
nan nan nan 0
67.93878 -63.58326 11.42038 9
nan nan nan 0
nan nan nan 0
31.19812 -28.83674 0.2444643 8
nan nan nan 0
nan nan nan 0
8.642319 -14.15351 -0.193468 27
30.65294 -28.30328 1.229808 41
30.63013 -34.08085 1.062938 165
32.60959 -43.68259 0.9317928 23
8.682396 -14.15819 0.2024357 25
nan nan nan 0
nan nan nan 0
7.245429 -6.709809 -1.366541 17
10.13388 -9.54678 -1.314763 14
13.8512 -12.95541 -1.213946 9
11.32547 -12.69616 -1.186906 9
9.296219 -12.59654 -1.179618 11
7.553048 -12.46076 -1.187055 9
19.57201 -18.06184 -1.082032 16
15.68203 -17.40734 -1.090751 15
12.46278 -16.72324 -1.090943 11
8.467831 -13.81338 -0.9404245 14
25.5981 -23.79473 -0.6093507 20
21.83591 -24.41631 -0.7595732 9
16.85753 -22.75363 -0.8244518 10
8.607359 -14.12946 -0.5706038 7
3.929193 -6.391745 -1.35361 15
5.9512 -9.843014 -1.289795 11
8.604703 -14.20303 0.6653851 93
30.68981 -28.65627 2.440805 42
nan nan nan 0
67.78505 -63.88469 11.43195 9
nan nan nan 0
nan nan nan 0
31.18145 -29.0238 0.2451266 9
30.51802 -34.29158 0 10
24.91861 -33.75871 -0.2194916 18
8.608395 -14.20925 -0.1938187 8
30.64912 -28.49858 1.233641 46
30.63081 -34.32181 1.067116 170
nan nan nan 0
8.638116 -14.19695 0.2025579 14
nan nan nan 0
nan nan nan 0
7.21834 -6.731685 -1.365853 17
10.09327 -9.575245 -1.313821 14
13.76593 -12.96606 -1.210425 10
11.26785 -12.72068 -1.185511 8
9.243354 -12.61685 -1.178488 10
7.504373 -12.47851 -1.186241 9
19.48688 -18.10965 -1.080812 14
15.60452 -17.44337 -1.089586 14
12.39839 -16.75862 -1.09042 12
8.398821 -13.80873 -0.938101 9
25.43823 -23.8122 -0.6075182 19
21.70739 -24.44379 -0.7580645 8
nan nan nan 0
8.601903 -14.23214 -0.5735406 6
3.904299 -6.401219 -1.352717 16
5.911696 -9.855203 -1.288677 12
8.575651 -14.26724 0.6669903 120
30.69143 -28.85895 2.448937 41
nan nan nan 0
67.64444 -64.19949 11.44597 8
nan nan nan 0
nan nan nan 0
31.19305 -29.23845 0.2460194 9
30.48423 -34.49531 0 8
24.77402 -33.80919 -0.219256 17
nan nan nan 0
30.60784 -28.66004 1.236001 50
30.63017 -34.5632 1.071294 168
nan nan nan 0
nan nan nan 0
nan nan nan 0
0.2418718 -0.2313388 -0.07708719 10
7.191186 -6.753452 -1.365165 16
10.05258 -9.603544 -1.312878 14
13.67713 -12.97284 -1.206585 10
11.2102 -12.74496 -1.184116 10
9.187528 -12.6329 -1.176981 12
7.455666 -12.49606 -1.185426 9
19.40531 -18.1605 -1.079796 14
15.54685 -17.50146 -1.089819 14
12.328 -16.78569 -1.089373 11
8.329948 -13.80377 -0.9357774 11
nan nan nan 0
21.57234 -24.46318 -0.7563237 9
15.96451 -21.86563 -0.788169 12
8.60097 -14.34352 -0.5768229 11
3.881931 -6.414809 -1.352717 15
5.872181 -9.867236 -1.287559 12
nan nan nan 0
30.69563 -29.06542 2.45736 45
nan nan nan 0
67.53473 -64.54493 11.46547 8
nan nan nan 0
nan nan nan 0
31.19625 -29.44668 0.2468545 8
30.54832 -34.81196 0 12
24.70585 -33.9642 -0.219701 18
nan nan nan 0
30.63489 -28.88669 1.241162 39
30.62823 -34.805 1.075472 170
nan nan nan 0
nan nan nan 0
nan nan nan 0
nan nan nan 0
7.163968 -6.775112 -1.364477 17
10.01541 -9.635127 -1.312406 14
13.61011 -12.99983 -1.204664 8
11.15908 -12.7765 -1.183419 10
9.131704 -12.64872 -1.175475 10
7.404391 -12.50915 -1.184205 9
19.32362 -18.21099 -1.078779 14
15.49888 -17.57061 -1.090751 12
12.25168 -16.80442 -1.087803 12
8.297089 -13.85846 -0.9375201 14
nan nan nan 0
21.48352 -24.53457 -0.7562076 8
15.86463 -21.88884 -0.7870032 15
8.586598 -14.43359 -0.5792415 6
3.859515 -6.42832 -1.352717 15
5.835179 -9.883394 -1.287 11
nan nan nan 0
30.69515 -29.26883 2.465492 42
nan nan nan 0
67.39127 -64.85943 11.47948 8
nan nan nan 0
nan nan nan 0
31.19838 -29.65527 0.2476896 9
30.54816 -35.05785 0 10
24.57543 -34.03401 -0.2195963 22
nan nan nan 0
30.63899 -29.09324 1.245438 41
30.62825 -35.05096 1.079766 173
31.72362 -43.75721 0.9238397 6
nan nan nan 0
nan nan nan 0
nan nan nan 0
7.136686 -6.796664 -1.363789 17
9.974562 -9.663103 -1.311464 13
13.54307 -13.02651 -1.202744 9
11.11114 -12.8116 -1.18307 9
9.078785 -12.66836 -1.174345 11
7.355638 -12.52632 -1.183391 9
19.24905 -18.26802 -1.07817 15
15.43746 -17.6246 -1.090751 12
12.1871 -16.83899 -1.087279 12
8.256307 -13.90022 -0.9383914 13
nan nan nan 0
21.37807 -24.58678 -0.7555113 9
15.75894 -21.90352 -0.7855461 14
12.1052 -20.51524 -0.8221325 16
3.834538 -6.437525 -1.351825 14
5.795626 -9.895127 -1.285882 12
nan nan nan 0
30.69722 -29.47604 2.473915 42
nan nan nan 0
67.25356 -65.18061 11.49472 8
nan nan nan 0
nan nan nan 0
31.20305 -29.8677 0.2485536 10
nan nan nan 0
24.45939 -34.12366 -0.2196225 22
nan nan nan 0
30.64202 -29.30016 1.249714 44
30.63021 -35.30112 1.084176 169
31.33124 -43.53495 0.9168274 5
nan nan nan 0
nan nan nan 0
0.246474 -0.2404981 -0.07961464 9
7.109342 -6.818108 -1.363101 16
9.937204 -9.694387 -1.310992 13
13.47242 -13.04941 -1.200504 9
11.06636 -12.85031 -1.18307 9
9.02584 -12.68779 -1.173215 11
7.306853 -12.5433 -1.182577 9
19.16711 -18.31785 -1.077153 15
15.35945 -17.65954 -1.089586 12
12.09037 -16.82871 -1.083878 12
8.27865 -14.04939 -0.9465236 14
24.93758 -24.00559 -0.6035042 37
21.27578 -24.64234 -0.754931 8
15.63301 -21.88925 -0.783069 12
12.01837 -20.53149 -0.8210959 25
3.812044 -6.450871 -1.351825 16
5.758556 -9.910998 -1.285323 12
nan nan nan 0
30.69463 -29.68015 2.482047 43
nan nan nan 0
67.12507 -65.51202 11.51178 8
nan nan nan 0
nan nan nan 0
31.20301 -30.07705 0.2493887 10
nan nan nan 0
24.31404 -34.17216 -0.2193869 25
19.49437 -33.49732 -0.4527699 5
30.64037 -29.50399 1.253843 43
30.62752 -35.54794 1.08847 168
31.07446 -43.4976 0.9137487 34
nan nan nan 0
nan nan nan 0
0.2421256 -0.2380252 -0.07835092 9
7.081934 -6.839444 -1.362412 16
9.8962 -9.722041 -1.310049 13
13.40535 -13.07546 -1.198583 10
10.98901 -12.85096 -1.179582 10
8.97287 -12.707 -1.172085 10
7.258041 -12.5601 -1.181763 9
19.03464 -18.31883 -1.073291 16
15.17691 -17.5732 -1.080968 11
12.05475 -16.90333 -1.085971 12
8.254735 -14.1213 -0.9494279 15
24.77465 -24.01595 -0.6015844 38
21.17011 -24.69369 -0.7542347 9
15.51026 -21.87844 -0.7807375 13
12.08208 -20.8067 -0.8304247 20
3.789503 -6.464139 -1.351825 15
5.721446 -9.926733 -1.284764 12
nan nan nan 0
30.69456 -29.88809 2.490469 38
nan nan nan 0
66.98447 -65.8329 11.52701 8
nan nan nan 0
nan nan nan 0
31.20189 -30.28677 0.2502239 10
nan nan nan 0
24.20904 -34.27724 -0.2195178 26
19.34984 -33.51754 -0.4521269 6
30.62691 -29.69774 1.25753 41
30.62674 -35.79897 1.09288 167
30.98028 -43.68736 0.915459 32
nan nan nan 0
nan nan nan 0
nan nan nan 0
7.054465 -6.860672 -1.361724 15
9.855124 -9.749527 -1.309106 13
13.34182 -13.1047 -1.196983 10
10.92795 -12.87023 -1.177838 8
8.922737 -12.73008 -1.171332 10
7.211678 -12.58104 -1.181356 10
18.91676 -18.33302 -1.070242 16
15.10247 -17.6109 -1.080037 16
11.99855 -16.94938 -1.086233 11
8.240428 -14.21049 -0.953494 10
24.70498 -24.11625 -0.6019334 41
21.04166 -24.71796 -0.752726 9
15.42229 -21.9161 -0.7801546 12
12.0393 -20.90072 -0.8324977 18
3.766916 -6.477326 -1.351825 16
5.681832 -9.938015 -1.283646 12
57.19243 -99.89296 4.621577 10
30.69342 -30.09639 2.498892 42
nan nan nan 0
66.82834 -66.13963 11.53981 10
nan nan nan 0
nan nan nan 0
31.19968 -30.49684 0.251059 9
nan nan nan 0
24.17534 -34.48437 -0.2203032 31
11.48282 -20.0473 -0.2697092 17
30.63392 -29.91269 1.262101 45
30.62457 -36.05041 1.09729 161
30.84773 -43.82386 0.9160576 20
40.21692 -69.92868 0.9851178 5
nan nan nan 0
nan nan nan 0
7.026934 -6.881792 -1.361036 16
9.813977 -9.776847 -1.308164 13
13.2747 -13.13015 -1.195063 9
10.86366 -12.88542 -1.175745 9
8.869706 -12.74887 -1.170202 11
7.167717 -12.60613 -1.181356 9
18.80974 -18.35708 -1.067803 16
14.99233 -17.60647 -1.076543 20
11.94506 -16.99934 -1.086756 11
8.243011 -14.33005 -0.9595931 11
24.56003 -24.14278 -0.60045 41
20.90684 -24.734 -0.7509852 9
15.29419 -21.89605 -0.7775318 11
11.97618 -20.95997 -0.8331887 17
3.741827 -6.486173 -1.350933 15
5.644659 -9.953465 -1.283086 11
nan nan nan 0
30.69119 -30.30504 2.507315 41
nan nan nan 0
50.5462 -50.37756 8.757531 39
nan nan nan 0
nan nan nan 0
31.20351 -30.71428 0.2519517 10
nan nan nan 0
24.0948 -34.62601 -0.2206697 25
11.48437 -20.21334 -0.2714047 13
30.64693 -30.13506 1.266967 44
30.62424 -36.3061 1.101816 158
30.82914 -44.12388 0.920077 15
40.20295 -70.47253 0.9907988 6
nan nan nan 0
nan nan nan 0
6.999341 -6.902803 -1.360348 16
9.769243 -9.800471 -1.306749 13
13.21111 -13.1588 -1.193463 10
10.7994 -12.90031 -1.173653 9
8.816652 -12.76744 -1.169072 12
7.12367 -12.63108 -1.181356 9
18.73485 -18.41213 -1.067193 14
14.8824 -17.6015 -1.073049 18
11.86565 -17.01226 -1.084924 12
8.272055 -14.4975 -0.968887 12
24.58576 -24.33737 -0.6031551 41
20.7786 -24.75705 -0.7494766 9
15.20627 -21.93287 -0.7769489 13
nan nan nan 0
3.719163 -6.499194 -1.350933 15
5.605013 -9.964445 -1.281968 12
nan nan nan 0
30.68788 -30.51404 2.515737 38
nan nan nan 0
50.38056 -50.56424 8.759358 14
nan nan nan 0
nan nan nan 0
31.192 -30.91803 0.2527293 12
nan nan nan 0
24.0022 -34.75104 -0.2209315 31
nan nan nan 0
30.66232 -30.3614 1.271981 40
30.62251 -36.56223 1.106342 156
nan nan nan 0
40.16844 -70.98666 0.9960521 7
nan nan nan 0
0.2318576 -0.2346215 -0.07582346 9
6.971688 -6.923706 -1.35966 17
9.724463 -9.823903 -1.305335 12
13.151 -13.19071 -1.192182 9
10.73198 -12.91109 -1.171211 9
8.780487 -12.81048 -1.170202 12
7.079536 -12.65587 -1.181356 10
18.61009 -18.41768 -1.063737 16
14.79518 -17.62274 -1.071186 17
11.81756 -17.06999 -1.085971 7
8.277914 -14.62621 -0.975567 10
24.52545 -24.44774 -0.6037659 42
20.63445 -24.76031 -0.7473876 9
15.10413 -21.94876 -0.7756375 12
11.10503 -19.75356 -0.7820538 17
3.694029 -6.507857 -1.350041 15
5.567778 -9.979609 -1.281409 11
64.63956 -115.695 5.321275 5
30.67643 -30.71632 2.523579 41
56.421 -102.279 9.497609 8
50.53537 -51.07491 8.817246 12
nan nan nan 0
nan nan nan 0
31.20068 -31.14327 0.2536796 33
nan nan nan 0
23.84682 -34.78513 -0.2206173 31
11.74286 -21.00885 -0.2809933 9
30.66588 -30.57763 1.276552 33
30.61936 -36.81878 1.110869 155
nan nan nan 0
40.13816 -71.51448 1.001489 6
nan nan nan 0
0.2413833 -0.2456072 -0.07961464 10
6.943973 -6.944499 -1.358972 16
9.683131 -9.850691 -1.304392 12
13.08732 -13.21881 -1.190582 9
10.6678 -12.92539 -1.169118 11
8.735716 -12.84105 -1.170202 12
7.030484 -12.67178 -1.180542 11
18.54214 -18.479 -1.063534 15
14.69839 -17.63208 -1.068624 20
11.75508 -17.10703 -1.085709 9
8.295185 -14.77692 -0.9836991 13
24.46467 -24.55799 -0.6043769 51
20.5479 -24.83219 -0.7473876 9
15.00487 -21.96833 -0.7744718 12
11.00439 -19.73546 -0.7798079 16
3.671289 -6.520712 -1.350041 16
5.528101 -9.990286 -1.280291 12
72.0877 -130.0918 5.972012 14
30.69557 -30.95079 2.534034 35
nan nan nan 0
49.9985 -50.88641 8.754484 15
nan nan nan 0
nan nan nan 0
31.17289 -31.33351 0.2543419 9
nan nan nan 0
23.70275 -34.83508 -0.2204079 29
11.56042 -20.85291 -0.2783623 38
30.65771 -30.78363 1.280681 40
30.62114 -37.08347 1.115627 147
nan nan nan 0
nan nan nan 0
nan nan nan 0
0.2370877 -0.2430436 -0.07835092 9
6.916198 -6.965183 -1.358284 16
9.638252 -9.87375 -1.302978 13
13.0271 -13.25018 -1.189302 10
10.60048 -12.93555 -1.166677 9
8.696419 -12.87973 -1.170955 11
6.981407 -12.68751 -1.179727 9
18.45284 -18.51885 -1.062111 16
14.60491 -17.6448 -1.066295 17
nan nan nan 0
nan nan nan 0
24.46671 -24.73208 -0.6065584 50
20.44522 -24.88445 -0.7468073 9
14.90566 -21.98748 -0.7733061 13
11.1409 -20.14549 -0.7944919 25
3.64611 -6.52919 -1.349148 16
5.488418 -10.00081 -1.279173 12
47.53883 -86.49715 3.962613 12
30.69944 -31.17154 2.543328 36
55.76024 -102.7712 9.506931 9
49.58487 -50.81911 8.713048 12
nan nan nan 0
nan nan nan 0
31.07387 -31.4528 0.2544283 5
40.25578 -49.23843 0 9
23.63698 -35.00048 -0.2209315 24
nan nan nan 0
30.64497 -30.98639 1.284662 39
30.59927 -37.32155 1.119573 118
nan nan nan 0
nan nan nan 0
nan nan nan 0
0.2396628 -0.2472863 -0.07961464 10
6.888364 -6.985758 -1.357596 16
9.593329 -9.896614 -1.301564 12
12.96682 -13.2813 -1.188022 8
10.53952 -12.95313 -1.164933 10
8.651407 -12.91001 -1.170955 11
6.92992 -12.69868 -1.178506 9
18.35997 -18.55474 -1.060485 16
14.51151 -17.65709 -1.063965 18
11.63257 -17.18454 -1.085448 10
9.513362 -17.22942 -1.142857 8
24.37672 -24.81377 -0.6064711 53
20.33927 -24.93243 -0.746111 9
14.79255 -21.98546 -0.7714118 12
11.02007 -20.09224 -0.7908642 18
3.623296 -6.541877 -1.349148 31
5.451102 -10.01554 -1.278614 12
47.17445 -86.54851 3.957396 15
30.71611 -31.40696 2.553784 35
nan nan nan 0
49.19305 -50.77092 8.675269 14
nan nan nan 0
nan nan nan 0
30.86233 -31.45759 0.2535932 6
40.22232 -49.54945 0 12
23.63157 -35.25722 -0.222031 24
nan nan nan 0
30.61018 -31.16805 1.287759 39
30.65185 -37.65297 1.126304 69
31.33834 -46.56306 0.9594148 6
nan nan nan 0
nan nan nan 0
0.249037 -0.2584069 -0.08340581 9
6.86047 -7.006225 -1.356908 15
9.548365 -9.919287 -1.30015 12
12.90648 -13.31215 -1.186741 10
10.47857 -12.97044 -1.163189 9
8.573163 -12.8903 -1.166436 13
6.880811 -12.71403 -1.177692 9
18.27757 -18.60091 -1.059468 17
14.41189 -17.66121 -1.06117 16
nan nan nan 0
9.462747 -17.28004 -1.144019 8
24.30392 -24.91302 -0.6068202 48
20.23639 -24.98386 -0.7455307 8
14.72127 -22.04528 -0.7717032 12
10.91884 -20.07351 -0.7886183 27
3.598073 -6.550172 -1.348256 37
5.411393 -10.02576 -1.277496 12
46.82929 -86.63354 3.953784 13
30.70367 -31.61424 2.561916 37
nan nan nan 0
48.89165 -50.8136 8.653332 12
nan nan nan 0
nan nan nan 0
nan nan nan 0
40.12756 -49.78687 0 9
23.59143 -35.46439 -0.2228165 19
nan nan nan 0
30.63032 -31.40707 1.293215 38
nan nan nan 0
31.37276 -46.96732 0.9654865 8
11.28369 -20.77081 0.2883212 10
nan nan nan 0
0.2277276 -0.2386323 -0.07582346 9
6.832517 -7.02658 -1.35622 16
9.503359 -9.941765 -1.298735 12
12.84955 -13.34634 -1.185781 10
10.42699 -12.99916 -1.162492 9
8.514386 -12.89934 -1.164552 15
6.829324 -12.72479 -1.176471 8
18.18462 -18.636 -1.057842 24
14.31871 -17.6726 -1.058841 19
9.271629 -13.9043 -0.8737488 15
9.385703 -17.28226 -1.141986 10
24.20638 -24.98693 -0.6065584 49
20.12399 -25.02318 -0.7446022 9
14.60834 -22.04237 -0.7698089 12
nan nan nan 0
3.575187 -6.562692 -1.348256 43
5.374021 -10.04021 -1.276937 12
46.51717 -86.77887 3.952981 5
30.6971 -31.82899 2.570629 35
nan nan nan 0
49.01227 -51.2961 8.706345 12
nan nan nan 0
nan nan nan 0
30.67326 -31.70462 0.2538524 4
nan nan nan 0
23.48677 -35.57573 -0.2229997 17
10.44859 -19.48319 -0.2580742 7
30.63526 -31.63226 1.298081 38
nan nan nan 0
31.34949 -47.28906 0.9698479 9
10.4076 -19.31777 0.2676134 13
nan nan nan 0
0.2404491 -0.2532347 -0.08087836 10
6.804506 -7.046827 -1.355532 17
9.46174 -9.967659 -1.297793 12
12.78564 -13.37309 -1.184181 8
10.36912 -13.01987 -1.161096 9
8.452917 -12.90396 -1.162293 17
6.777846 -12.73535 -1.175249 8
18.1438 -18.72447 -1.059265 33
14.2131 -17.668 -1.05558 16
9.209262 -13.91576 -0.8724404 17
9.315857 -17.29733 -1.140824 9
24.13287 -25.08569 -0.6069074 44
20.01469 -25.06593 -0.7437899 8
14.50934 -22.05982 -0.7686433 12
nan nan nan 0
3.549922 -6.570801 -1.347364 43
5.336614 -10.05451 -1.276378 13
47.38866 -89.15092 4.053512 13
30.68594 -32.04049 2.579051 34
nan nan nan 0
48.94565 -51.58566 8.726454 10
nan nan nan 0
nan nan nan 0
30.61437 -31.86557 0.2542843 5
nan nan nan 0
nan nan nan 0
10.39459 -19.54603 -0.258425 22
30.63206 -31.85066 1.302652 36
nan nan nan 0
31.37931 -47.69474 0.9759195 9
11.45396 -21.44005 0.2965066 7
nan nan nan 0
nan nan nan 0
6.776437 -7.066963 -1.354843 16
9.416643 -9.989763 -1.296378 12
12.7217 -13.39955 -1.182581 9
10.32051 -13.05207 -1.160748 10
8.386087 -12.89994 -1.15928 17
6.726377 -12.74571 -1.174028 9
18.05407 -18.76249 -1.057842 20
14.14198 -17.7058 -1.054882 17
9.144187 -13.92278 -0.8708703 14
9.267173 -17.35176 -1.142276 12
24.06243 -25.18784 -0.6073437 54
19.90222 -25.10431 -0.7428614 9
nan nan nan 0
10.3312 -19.47594 -0.7608051 34
3.526964 -6.583153 -1.347364 42
5.299172 -10.06868 -1.275818 12
47.24255 -89.62959 4.067759 10
30.67713 -32.2559 2.587765 38
nan nan nan 0
48.30581 -51.26862 8.644193 12
nan nan nan 0
nan nan nan 0
30.57199 -32.04458 0.2548603 6
nan nan nan 0
9.191367 -14.13394 -0.08806891 18
10.33096 -19.59104 -0.2585419 11
30.63117 -32.07304 1.307371 32
nan nan nan 0
nan nan nan 0
10.34267 -19.52251 0.269446 4
nan nan nan 0
nan nan nan 0
6.748311 -7.08699 -1.354155 16
9.374908 -10.01531 -1.295436 13
12.6543 -13.42209 -1.180661 10
10.28105 -13.09586 -1.161445 8
8.322091 -12.89981 -1.156643 18
6.67261 -12.75144 -1.1724 11
nan nan nan 0
14.05216 -17.71984 -1.052785 17
9.068272 -13.91278 -0.8682535 15
9.213552 -17.39724 -1.143147 10
23.995 -25.29344 -0.6078672 47
19.79592 -25.15006 -0.7421651 9
9.162953 -14.14413 -0.4901831 16
10.26316 -19.51188 -0.7608051 23
3.501657 -6.591078 -1.346471 43
5.261697 -10.08271 -1.275259 13
55.64564 -106.4737 4.823641 12
30.68431 -32.48978 2.59793 34
52.3326 -101.467 9.282777 7
48.36392 -51.69057 8.686847 11
nan nan nan 0
nan nan nan 0
30.56312 -32.25998 0.2557242 5
25.6778 -32.78644 0 5
9.12842 -14.14493 -0.08793802 17
10.27641 -19.65357 -0.2588927 6
30.6291 -32.29579 1.31209 35
61.47614 -78.26579 2.309706 6
9.108051 -14.05424 0.2857977 30
nan nan nan 0
nan nan nan 0
0.2277262 -0.2452761 -0.07708719 9
6.720127 -7.106907 -1.353467 16
9.32972 -10.03704 -1.294021 14
12.5869 -13.44433 -1.17874 8
10.22608 -13.11987 -1.160399 10
8.255509 -12.89519 -1.15363 17
6.618885 -12.75696 -1.170772 12
17.85385 -18.81561 -1.053777 29
13.99022 -17.76878 -1.052785 16
8.984403 -13.88984 -0.8648517 12
9.169005 -17.46024 -1.14518 14
23.94086 -25.41343 -0.6087399 41
19.6957 -25.20325 -0.7417009 8
9.094611 -14.1466 -0.4891631 17
10.19267 -19.54316 -0.7606323 18
3.478629 -6.60326 -1.346471 43
5.221908 -10.09219 -1.274141 12
46.90067 -90.50728 4.09264 96
30.68683 -32.72047 2.607805 29
51.91231 -101.5204 9.271022 14
48.36899 -52.05903 8.720361 14
nan nan nan 0
nan nan nan 0
30.69019 -32.62136 0.2577401 6
25.57854 -32.8956 0 9
9.062814 -14.15144 -0.08778093 15
nan nan nan 0
30.61899 -32.51165 1.316513 37
nan nan nan 0
9.064344 -14.09436 0.2859687 28
11.10416 -21.31935 0.293208 88
nan nan nan 0
nan nan nan 0
6.688494 -7.123104 -1.352091 16
9.287873 -10.06223 -1.293079 12
12.51951 -13.46627 -1.17682 10
10.20159 -13.1831 -1.16284 11
8.18639 -12.88605 -1.15024 18
6.560647 -12.75339 -1.168329 12
17.80177 -18.89236 -1.05459 106
13.90658 -17.78996 -1.051155 15
8.876534 -13.82867 -0.8590947 29
9.09648 -17.46999 -1.143728 12
23.74953 -25.38734 -0.606122 45
19.60147 -25.26395 -0.7414688 10
9.037111 -14.16562 -0.488726 15
10.07392 -19.48095 -0.7568318 21
3.453284 -6.611001 -1.345579 42
5.184382 -10.10593 -1.273582 12
46.77165 -91.03484 4.109094 13
30.6847 -32.94792 2.617389 35
8.603065 -16.95964 1.543549 4
48.94085 -53.04452 8.856853 10
nan nan nan 0
nan nan nan 0
30.67513 -32.83422 0.2585752 6
12.56908 -16.28312 0 28
8.965096 -14.10703 -0.0873097 17
10.02701 -19.50692 -0.2560278 8
30.63164 -32.75337 1.321969 36
12.70771 -16.41537 0.4810437 17
8.99089 -14.08799 0.285199 28
11.72677 -22.70858 0.3117779 9
nan nan nan 0
nan nan nan 0
6.660209 -7.142787 -1.351403 15
9.242598 -10.08359 -1.291664 12
12.45211 -13.4879 -1.1749 9
10.13423 -13.19094 -1.160399 11
8.120092 -12.8808 -1.147227 18
6.502515 -12.74958 -1.165887 12
17.73231 -18.95074 -1.054386 115
nan nan nan 0
8.809434 -13.83009 -0.8572629 20
9.030867 -17.49277 -1.143147 12
23.88877 -25.71544 -0.6119686 40
12.7744 -16.58492 -0.4851056 24
8.928807 -14.10417 -0.4855202 24
9.875974 -19.26251 -0.7469848 23
3.430186 -6.623015 -1.345579 43
5.146823 -10.11954 -1.273023 12
nan nan nan 0
30.68475 -33.17941 2.627264 31
8.485635 -16.87379 1.53301 33
nan nan nan 0
nan nan nan 0
nan nan nan 0
30.56713 -32.94843 0.2586328 7
12.73118 -16.61262 0 18
8.889135 -14.09594 -0.0870479 18
9.942971 -19.51062 -0.2556186 12
30.63957 -32.99192 1.327278 39
12.74781 -16.58645 0.4847574 27
8.920263 -14.08549 0.2845149 40
nan nan nan 0
nan nan nan 0
nan nan nan 0
6.631868 -7.162361 -1.350715 16
9.197288 -10.10475 -1.29025 13
12.38472 -13.50922 -1.172979 10
10.08208 -13.21831 -1.159701 12
8.053933 -12.87525 -1.144214 20
6.446737 -12.74996 -1.163851 12
17.63883 -18.98324 -1.05276 110
12.81253 -16.62858 -0.9770874 12
8.782446 -13.89452 -0.8593564 16
8.967478 -17.51974 -1.142857 14
23.83276 -25.83541 -0.6128412 35
12.73465 -16.65323 -0.4858019 12
8.868886 -14.11832 -0.4849374 20
9.851675 -19.38152 -0.7502671 25
3.404802 -6.63057 -1.344687 45
5.109234 -10.13301 -1.272464 11
nan nan nan 0
30.68018 -33.40763 2.636848 28
8.66889 -17.38953 1.577192 17
nan nan nan 0
8.507792 -17.07362 3.469791 15
nan nan nan 0
30.59762 -33.21304 0.2598711 14
nan nan nan 0
8.84783 -14.1396 -0.08712643 15
9.868045 -19.53182 -0.2554432 35
30.64622 -33.23092 1.332586 37
nan nan nan 0
8.871042 -14.11655 0.2845149 20
nan nan nan 0
nan nan nan 0
0.2242794 -0.2484318 -0.07708719 9
6.603473 -7.181823 -1.350027 15
9.155281 -10.12941 -1.289307 13
12.31732 -13.53023 -1.171059 10
9.981667 -13.18185 -1.153423 15
7.987911 -12.86939 -1.141201 20
6.388804 -12.74565 -1.161409 12
17.54197 -19.01166 -1.050931 105
12.73923 -16.65337 -0.9759227 25
8.731236 -13.92086 -0.8590947 16
8.90401 -17.54648 -1.142566 13
23.77283 -25.95162 -0.6136266 36
nan nan nan 0
8.819551 -14.14919 -0.4849374 18
9.862626 -19.57199 -0.7563135 23
3.381636 -6.642415 -1.344687 44
5.071612 -10.14633 -1.271905 12
65.16797 -130.1819 5.845597 7
30.67439 -33.63621 2.646432 32
8.616962 -17.43756 1.578814 17
64.50272 -71.39449 11.80914 6
8.467738 -17.14291 3.47786 42
nan nan nan 0
30.57601 -33.42292 0.2606775 12
nan nan nan 0
8.795784 -14.16615 -0.08710026 15
9.826661 -19.6198 -0.2561448 12
30.64819 -33.46668 1.337747 32
nan nan nan 0
8.827003 -14.15591 0.284686 18
11.7871 -23.42418 0.3199022 7
nan nan nan 0
0.239867 -0.2669407 -0.08340581 9
6.578363 -7.20483 -1.350027 16
9.113214 -10.1539 -1.288364 13
12.24659 -13.54724 -1.168819 11
9.893627 -13.1608 -1.14854 13
7.924642 -12.86748 -1.138565 20
6.333196 -12.74555 -1.159373 11
17.45524 -19.05068 -1.049711 74
13.55714 -17.85115 -1.043469 21
8.672041 -13.9343 -0.858048 14
8.84495 -17.58192 -1.142857 13
23.75275 -26.1121 -0.6154591 39
nan nan nan 0
8.759593 -14.16289 -0.4843545 18
9.796479 -19.61077 -0.7564863 38
3.356216 -6.649785 -1.343794 45
5.031757 -10.15507 -1.270787 13
12.67997 -25.54245 1.143756 16
30.67072 -33.86887 2.656307 29
8.52756 -17.40934 1.573544 46
64.31277 -71.68571 11.82011 6
nan nan nan 0
nan nan nan 0
30.62727 -33.71447 0.2621173 4
nan nan nan 0
8.717439 -14.14994 -0.08681228 16
nan nan nan 0
30.64888 -33.70286 1.342909 38
32.85869 -43.68742 1.268238 17
8.751235 -14.14412 0.2838308 17
nan nan nan 0
nan nan nan 0
0.2258184 -0.2535485 -0.07835092 9
6.549845 -7.224081 -1.349339 15
9.071089 -10.17822 -1.287422 12
12.17922 -13.56764 -1.166898 9
9.80884 -13.14329 -1.144006 14
7.858884 -12.86102 -1.135552 23
6.277666 -12.74522 -1.157338 12
nan nan nan 0
13.48572 -17.8864 -1.04277 16
8.604986 -13.93474 -0.8562161 16
8.765712 -17.57695 -1.140533 13
23.68492 -26.22082 -0.6160699 44
nan nan nan 0
8.691807 -14.16356 -0.4833345 17
9.676989 -19.54184 -0.7525129 42
3.332983 -6.661459 -1.343794 45
4.996278 -10.17257 -1.270787 14
8.553431 -17.37807 0.7763495 33
30.65913 -34.09448 2.665601 31
8.47979 -17.4659 1.575976 14
64.22062 -72.08762 11.84936 8
nan nan nan 0
nan nan nan 0
30.65008 -33.97708 0.2633268 4
nan nan nan 0
8.662778 -14.17175 -0.08675992 22
nan nan nan 0
30.6483 -33.93945 1.34807 34
32.63123 -43.70173 1.265336 23
8.683504 -14.14476 0.2832322 19
11.3486 -22.95012 0.3123276 16
nan nan nan 0
0.2314648 -0.261472 -0.08087836 8
6.521274 -7.243223 -1.348651 16
9.028904 -10.20236 -1.286479 13
12.10854 -13.584 -1.164658 10
9.724295 -13.12535 -1.139472 14
7.795854 -12.85853 -1.132915 23
6.222215 -12.74466 -1.155302 11
17.19117 -19.02754 -1.041783 56
13.40225 -17.90537 -1.04114 16
8.535427 -13.93063 -0.8541228 17
8.702093 -17.60296 -1.140243 13
23.64667 -26.36287 -0.6174662 39
18.96673 -25.53249 -0.737523 7
8.629319 -14.17247 -0.4826059 33
8.574371 -17.46693 -0.6713189 8
3.30971 -6.673053 -1.343794 43
4.958566 -10.18548 -1.270228 13
8.488339 -17.39884 0.7759482 47
30.64301 -34.3167 2.674604 32
nan nan nan 0
64.06067 -72.41542 11.86642 6
nan nan nan 0
nan nan nan 0
30.6781 -34.24771 0.264594 5
nan nan nan 0
8.605479 -14.18908 -0.08668139 12
8.514252 -17.45213 -0.2266188 44
30.64644 -34.17644 1.353231 33
32.39215 -43.69891 1.261971 19
8.631475 -14.17071 0.2831467 17
8.549797 -17.4402 0.2368266 36
nan nan nan 0
nan nan nan 0
6.49595 -7.265942 -1.348651 16
8.986662 -10.22634 -1.285536 13
12.0412 -13.60377 -1.162738 10
9.639997 -13.10699 -1.134938 15
7.732935 -12.85575 -1.130279 27
6.164676 -12.73939 -1.15286 12
17.08126 -19.0391 -1.039141 92
13.32775 -17.93601 -1.040208 18
8.476375 -13.94327 -0.853076 15
8.603275 -17.55702 -1.135306 10
23.60439 -26.50124 -0.618775 34
18.86563 -25.58245 -0.7370588 8
8.579796 -14.20251 -0.4826059 11
8.504608 -17.47878 -0.670628 47
3.286397 -6.684566 -1.343794 44
4.920825 -10.19825 -1.269669 13
8.457985 -17.49134 0.7787574 12
30.6522 -34.5691 2.685931 32
11.53705 -24.19643 2.177101 40
63.91887 -72.76537 11.88714 7
nan nan nan 0
nan nan nan 0
30.56833 -34.3658 0.2646803 8
nan nan nan 0
