# .PCD v0.7 - Point Cloud Data file format
VERSION 0.7
FIELDS x y z intensity
SIZE 4 4 4 4
TYPE F F F F
COUNT 1 1 1 1
WIDTH 1692
HEIGHT 1
VIEWPOINT 0 0 0 1 0 0 0
POINTS 1692
DATA ascii
nan nan nan 0
0.2961951 -0.1849649 -0.08087836 9
7.017369 -4.301662 -1.138096 41
9.937413 -6.208453 -1.105929 29
13.61416 -8.437531 -1.024797 15
10.78387 -8.11659 -0.9410148 13
9.02421 -8.202966 -0.9182338 16
7.498286 -8.174658 -0.9029108 9
19.57162 -11.94845 -0.9314052 91
14.72328 -10.96883 -0.85434 16
11.79912 -10.62533 -0.8300482 10
9.725233 -10.49807 -0.8303501 10
48.3675 -29.76233 -0.9905985 16
20.86773 -15.66453 -0.6048733 13
16.12561 -14.60395 -0.6331289 30
13.23969 -14.37489 -0.6742557 30
4.175499 -4.495064 -1.105552 26
6.061571 -6.623067 -1.005783 18
74.71716 -81.55989 4.440984 9
51.03197 -31.56135 3.488981 11
14.24235 -15.70966 1.721495 47
71.27875 -44.54616 10.31563 14
nan nan nan 0
nan nan nan 0
nan nan nan 0
62.19197 -46.9184 0 13
nan nan nan 0
21.15775 -23.08967 -0.3657708 16
nan nan nan 0
62.29653 -46.86103 1.808933 13
nan nan nan 0
53.18861 -57.83431 0.9595233 11
nan nan nan 0
nan nan nan 0
7.010742 -4.331332 -1.139472 43
9.894613 -6.229852 -1.103572 28
13.53383 -8.453299 -1.020956 13
10.72765 -8.133093 -0.9385733 13
8.980814 -8.220949 -0.9167272 15
7.462997 -8.193411 -0.9020966 10
19.44894 -11.96698 -0.927543 95
14.56904 -10.93323 -0.8475854 15
11.74717 -10.65304 -0.8290015 12
9.681771 -10.5246 -0.8297692 8
48.31855 -29.96523 -0.9917329 14
20.92058 -15.81867 -0.6080067 9
16.01914 -14.60962 -0.6309432 27
13.1456 -14.37307 -0.6720099 35
4.059806 -4.401041 -1.078783 37
6.031735 -6.636826 -1.004665 18
74.22357 -81.59108 4.428543 10
50.62071 -31.55186 3.46836 12
14.14076 -15.70741 1.71582 70
70.84146 -44.61752 10.2748 14
14.33348 -15.9272 3.898359 39
nan nan nan 0
nan nan nan 0
12.3481 -9.385221 0 16
nan nan nan 0
nan nan nan 0
70.3593 -43.64824 2.441772 11
62.38358 -47.26838 1.816245 12
nan nan nan 0
53.31004 -58.37405 0.9653874 13
nan nan nan 0
nan nan nan 0
6.961933 -4.334859 -1.133968 42
9.851785 -6.251028 -1.101215 29
13.45356 -8.468608 -1.017116 14
10.66748 -8.146276 -0.935783 13
8.92274 -8.225208 -0.9137142 16
7.42767 -8.212016 -0.9012824 9
19.43677 -12.05322 -0.928966 90
14.42719 -10.90572 -0.8415296 11
11.70623 -10.69061 -0.8287399 10
9.634879 -10.54727 -0.8288979 8
48.26029 -30.16286 -0.9926928 13
12.35086 -9.40773 -0.3595352 22
15.89812 -14.60121 -0.6281746 29
13.07184 -14.39297 -0.6708006 29
4.144016 -4.524105 -1.105552 23
6.001879 -6.650459 -1.003547 18
73.73068 -81.6198 4.416102 10
50.05797 -31.44431 3.437283 12
nan nan nan 0
70.40036 -44.68371 10.23337 15
14.32694 -16.03216 3.911808 46
nan nan nan 0
69.86538 -43.73116 0.4745009 12
12.33511 -9.443461 0 15
32.83786 -30.26763 -0.2336287 10
nan nan nan 0
70.01157 -43.77171 2.434989 10
62.44073 -47.65568 1.822744 12
63.95913 -58.72877 1.48466 7
53.42499 -58.91163 0.9711905 13
nan nan nan 0
0.2860039 -0.1829824 -0.07835092 9
6.757908 -4.240806 -1.103004 78
9.804735 -6.2693 -1.098386 28
13.37334 -8.483461 -1.013275 14
10.6113 -8.16218 -0.9333416 13
nan nan nan 0
7.392303 -8.230475 -0.9004682 10
19.29712 -12.06012 -0.9242906 88
12.33044 -9.388927 -0.7208785 16
11.65046 -10.71451 -0.8274314 11
9.584595 -10.56605 -0.8277362 9
48.18856 -30.35244 -0.9933909 11
12.32984 -9.459913 -0.3598834 13
15.85439 -14.66341 -0.628466 15
13.06167 -14.48305 -0.6728737 30
4.121584 -4.531259 -1.103767 25
5.968687 -6.660263 -1.00187 18
73.23518 -81.64237 4.403461 9
49.9479 -31.61886 3.437283 8
13.95469 -15.72001 1.706497 41
69.96802 -44.75271 10.19315 14
14.27416 -16.08576 3.912705 42
nan nan nan 0
50.01346 -31.55053 0.3403609 6
12.32979 -9.507832 0 7
8.25351 -7.65912 -0.05874751 20
20.02014 -22.3125 -0.3501016 8
nan nan nan 0
62.51574 -48.05918 1.829823 10
63.93359 -59.11798 1.48885 16
53.23911 -59.12006 0.971557 11
nan nan nan 0
nan nan nan 0
6.985937 -4.417729 -1.142913 38
9.761865 -6.290016 -1.096029 25
13.28478 -8.492485 -1.008794 14
10.55514 -8.17779 -0.9309 15
8.293365 -7.752654 -0.8545826 8
7.353583 -8.245067 -0.899247 9
19.27605 -12.14071 -0.925307 94
12.31345 -9.444067 -0.7218102 18
11.60933 -10.75171 -0.8271697 9
9.530956 -10.58089 -0.826284 10
48.05698 -30.5044 -0.9928674 9
11.09029 -8.570777 -0.3244869 13
8.255062 -7.687377 -0.3277116 9
13.00437 -14.52111 -0.6725282 26
4.08927 -4.527349 -1.099306 27
5.938801 -6.673629 -1.000751 18
72.74041 -81.66247 4.390819 9
49.5216 -31.5917 3.415501 11
13.90961 -15.77984 1.707713 39
69.53188 -44.81656 10.15233 13
14.33171 -16.26469 3.944085 45
nan nan nan 0
69.08155 -43.91477 0.4712468 15
13.41809 -10.42173 0 14
8.259596 -7.718614 -0.05898313 15
19.82907 -22.25531 -0.3481137 9
69.04607 -43.84153 2.411986 14
62.56499 -48.44542 1.836206 10
64.0488 -59.6406 1.496376 14
53.00576 -59.27572 0.9710683 11
nan nan nan 0
0.2806182 -0.1824089 -0.07708719 9
nan nan nan 0
9.718969 -6.310509 -1.093672 27
13.2047 -8.506396 -1.004954 13
10.499 -8.193107 -0.9284586 14
8.211805 -7.730284 -0.8489331 11
7.318154 -8.263221 -0.8984328 10
19.22512 -12.20257 -0.9249005 83
11.07478 -8.555846 -0.6507704 15
nan nan nan 0
9.477334 -10.59549 -0.8248318 10
nan nan nan 0
11.05636 -8.606368 -0.3243708 13
8.220888 -7.709306 -0.3274201 10
12.92704 -14.53653 -0.6711462 22
4.076723 -4.545261 -1.100198 24
5.905606 -6.683142 -0.9990743 20
72.24308 -81.67637 4.377977 10
49.15067 -31.59704 3.397494 11
13.80851 -15.77579 1.702038 44
69.12113 -44.89412 10.11516 13
14.21332 -16.24426 3.92705 42
nan nan nan 0
68.69627 -44.00733 0.4696629 14
13.4092 -10.49006 0 6
8.167072 -7.685709 -0.0585119 10
17.80368 -20.12227 -0.313735 7
68.68211 -43.94762 2.404613 11
62.61623 -48.83567 1.842705 10
64.15748 -60.16132 1.503816 12
53.06075 -59.75574 0.975894 11
nan nan nan 0
nan nan nan 0
6.909069 -4.436987 -1.135344 42
9.676048 -6.330779 -1.091315 27
13.10377 -8.506275 -0.9995129 16
10.44681 -8.211216 -0.9263659 14
8.137742 -7.714303 -0.8440369 10
7.279397 -8.277484 -0.8972116 10
19.17819 -12.26691 -0.9246971 88
11.05273 -8.600586 -0.6512362 17
8.233183 -7.731758 -0.5898262 11
9.427036 -10.61357 -0.8236701 10
nan nan nan 0
11.02232 -8.641826 -0.3242548 14
8.146696 -7.693339 -0.3255259 9
12.89606 -14.60405 -0.6721827 25
3.760093 -4.221209 -1.018107 50
5.875692 -6.696243 -0.9979562 18
71.76304 -81.70657 4.366138 10
69.56069 -45.05904 4.820038 15
nan nan nan 0
68.66916 -44.94218 10.07189 11
14.11461 -16.24549 3.915394 39
nan nan nan 0
68.30699 -44.09502 0.4680502 11
nan nan nan 0
8.161967 -7.73481 -0.05866897 8
17.73003 -20.18054 -0.3136765 15
nan nan nan 0
62.68518 -49.2423 1.849784 9
64.24877 -60.66979 1.510914 12
52.99071 -60.0981 0.9784596 11
nan nan nan 0
0.2793379 -0.1843636 -0.07708719 10
nan nan nan 0
9.633106 -6.350826 -1.088958 25
13.04058 -8.530125 -0.9969525 14
10.39462 -8.229059 -0.9242733 13
8.146822 -7.777095 -0.8478032 9
7.240631 -8.291577 -0.8959904 9
19.14366 -12.33919 -0.9251037 85
11.01085 -8.629873 -0.6505376 16
8.129972 -7.688392 -0.5843309 11
9.37673 -10.63144 -0.8225083 9
31.85711 -20.6948 -0.662406 39
nan nan nan 0
8.137897 -7.738953 -0.3262544 10
12.8483 -14.65273 -0.6723554 17
3.996051 -4.51829 -1.086814 27
5.842497 -6.705468 -0.9962789 19
71.27052 -81.71935 4.353497 11
69.16473 -45.14608 4.803483 14
nan nan nan 0
68.34615 -45.07233 10.04752 14
14.11563 -16.36172 3.931533 34
nan nan nan 0
67.93051 -44.1887 0.4665239 12
14.49894 -11.50644 0 9
8.138534 -7.766706 -0.05869516 8
nan nan nan 0
67.93776 -44.14286 2.389277 14
62.68931 -49.60038 1.855007 11
64.34091 -61.18307 1.518097 12
nan nan nan 0
nan nan nan 0
nan nan nan 0
6.595713 -4.301352 -1.088554 91
9.585994 -6.367898 -1.086129 27
12.96905 -8.548146 -0.993752 15
10.33853 -8.243529 -0.9218318 14
8.16275 -7.846956 -0.8523228 12
7.205119 -8.309268 -0.8951762 10
nan nan nan 0
10.96889 -8.658974 -0.6498387 10
8.117545 -7.730499 -0.5853776 10
9.326413 -10.64907 -0.8213466 8
31.62571 -20.70185 -0.6590901 26
nan nan nan 0
8.125271 -7.781142 -0.3268373 9
12.84628 -14.75404 -0.6749468 29
3.68837 -4.199263 -1.006507 96
5.812557 -6.718301 -0.9951608 18
70.81151 -81.76747 4.342862 9
68.74397 -45.21445 4.785186 13
13.29567 -15.51453 1.658666 37
nan nan nan 0
14.08723 -16.44452 3.939602 41
nan nan nan 0
67.93058 -44.52696 0.4675894 10
14.50165 -11.59131 0 9
nan nan nan 0
17.82436 -20.57595 -0.3178861 30
nan nan nan 0
62.7738 -50.0245 1.862666 10
64.38692 -61.65625 1.524254 10
53.42595 -61.4514 0.9944028 6
nan nan nan 0
nan nan nan 0
6.849803 -4.500943 -1.133279 38
9.543017 -6.387486 -1.083772 27
12.88509 -8.557497 -0.9895914 15
10.29802 -8.2702 -0.9207854 14
nan nan nan 0
7.169571 -8.326812 -0.894362 9
19.0027 -12.43699 -0.9224611 78
13.91793 -11.06538 -0.8273216 13
8.086908 -7.755332 -0.585116 10
9.276088 -10.6665 -0.8201849 9
31.54491 -20.80661 -0.6589155 33
nan nan nan 0
nan nan nan 0
12.79143 -14.79501 -0.674774 34
3.970871 -4.553498 -1.088598 25
5.779365 -6.727238 -0.9934835 17
70.27811 -81.72625 4.327612 8
68.29861 -45.26389 4.765146 14
13.25435 -15.57603 1.660288 37
nan nan nan 0
nan nan nan 0
nan nan nan 0
67.99169 -44.90708 0.4690869 11
nan nan nan 0
7.344079 -7.106941 -0.05330211 24
17.80784 -20.70249 -0.3188801 27
nan nan nan 0
nan nan nan 0
7.320683 -7.057267 0.1732574 18
nan nan nan 0
nan nan nan 0
0.2733361 -0.1846417 -0.07582346 10
6.912544 -4.57672 -1.146353 30
9.495894 -6.40407 -1.080944 28
12.82196 -8.580234 -0.987031 15
10.25745 -8.296687 -0.919739 14
7.315338 -7.130989 -0.7687101 28
7.133988 -8.344208 -0.8935478 9
nan nan nan 0
13.84023 -11.08267 -0.8249924 13
7.35592 -7.103558 -0.5338267 8
9.229015 -10.68747 -0.8193136 9
31.57203 -20.983 -0.6610098 36
20.86082 -16.8289 -0.6213529 17
7.335855 -7.123771 -0.2969658 18
12.68114 -14.7713 -0.6716644 39
3.803741 -4.392399 -1.046661 41
5.749403 -6.739806 -0.9923654 18
69.78803 -81.7317 4.31497 11
68.14436 -45.5048 4.765437 14
13.11952 -15.52701 1.650154 36
66.77189 -45.04461 9.884822 21
13.68334 -16.20042 3.858013 42
nan nan nan 0
68.03849 -45.27987 0.470498 10
nan nan nan 0
7.304905 -7.118572 -0.05319739 31
nan nan nan 0
68.15856 -45.30834 2.413608 15
nan nan nan 0
7.274485 -7.061882 0.1727443 24
60.70674 -70.81958 1.139174 12
nan nan nan 0
nan nan nan 0
nan nan nan 0
9.452889 -6.423199 -1.078587 25
12.75882 -8.602633 -0.9844706 15
10.01572 -8.159206 -0.900556 12
7.297516 -7.163467 -0.7694634 36
7.095149 -8.357658 -0.8923266 9
18.51173 -12.30124 -0.9027435 29
13.73147 -11.07449 -0.8207999 14
7.313185 -7.111784 -0.5325183 15
9.181911 -10.70825 -0.8184423 10
31.60244 -21.1626 -0.6631914 27
20.79419 -16.89532 -0.6211209 13
7.300226 -7.138849 -0.2965287 31
12.57765 -14.75462 -0.6689004 36
3.701871 -4.304854 -1.022569 54
5.716214 -6.748454 -0.9906881 18
69.33431 -81.77663 4.304536 11
nan nan nan 0
12.98519 -15.47724 1.640021 33
66.48289 -45.18814 9.865323 17
13.6425 -16.26694 3.862496 39
nan nan nan 0
68.09598 -45.66187 0.4719955 12
nan nan nan 0
7.280012 -7.144028 -0.05319739 39
17.20701 -20.28858 -0.3106362 21
68.14948 -45.6461 2.418916 27
62.89388 -51.20615 1.882047 24
nan nan nan 0
60.54989 -71.13766 1.140885 11
nan nan nan 0
nan nan nan 0
6.868087 -4.616587 -1.144289 28
9.405758 -6.439297 -1.075758 26
12.69569 -8.624697 -0.9819102 15
9.809778 -8.048609 -0.884512 8
7.272466 -7.188897 -0.7694634 40
7.059511 -8.37475 -0.8915124 9
18.4147 -12.32967 -0.9001009 21
13.70049 -11.12865 -0.8212658 11
7.266913 -7.116302 -0.5309482 14
9.131536 -10.72503 -0.8172805 9
31.54081 -21.28117 -0.6634532 38
9.7905 -8.012947 -0.2928042 10
7.268141 -7.157274 -0.2962373 37
12.52284 -14.79462 -0.6687276 37
3.607042 -4.224141 -1.000261 73
5.686231 -6.760757 -0.9895699 17
60.09453 -71.38129 3.746102 8
66.98211 -45.40808 4.706188 8
12.88325 -15.46503 1.63394 35
66.14458 -45.29657 9.838511 15
13.6171 -16.35227 3.871462 46
nan nan nan 0
67.84917 -45.84052 0.4713908 7
53.26355 -43.80029 0 10
7.255031 -7.169396 -0.05319739 36
nan nan nan 0
67.79088 -45.74953 2.411838 11
62.98146 -51.64407 1.890055 12
7.246379 -7.133541 0.1732574 33
60.26248 -71.30276 1.140152 12
nan nan nan 0
nan nan nan 0
6.847828 -4.637758 -1.143601 27
9.362729 -6.457967 -1.073401 27
12.63256 -8.646425 -0.9793498 16
9.662417 -7.984325 -0.8736998 9
7.257927 -7.224793 -0.7705932 31
7.033432 -8.403163 -0.8919195 9
18.28456 -12.33522 -0.8958321 31
9.776121 -7.998478 -0.5871841 11
7.238474 -7.138119 -0.5306866 15
9.081159 -10.74159 -0.8161188 9
31.4622 -21.38833 -0.6633659 31
9.689174 -7.986675 -0.2905991 10
7.253757 -7.19316 -0.2966744 32
12.47755 -14.84589 -0.6690732 39
3.614521 -4.262995 -1.006507 54
5.656232 -6.772934 -0.9884518 18
59.73927 -71.46413 3.73948 11
66.60473 -45.49243 4.690795 16
13.04511 -15.77109 1.661504 48
65.71238 -45.33838 9.797686 15
13.45654 -16.27457 3.841874 47
nan nan nan 0
67.02326 -45.62414 0.4667543 8
52.98326 -43.8807 0 11
7.251222 -7.215842 -0.05335447 17
nan nan nan 0
66.93227 -45.51101 2.386918 11
63.08988 -52.10231 1.898759 10
7.249833 -7.186953 0.1739415 24
59.91039 -71.39013 1.138197 11
nan nan nan 0
nan nan nan 0
6.786579 -4.630958 -1.136032 35
9.315596 -6.473578 -1.070573 27
12.56943 -8.667819 -0.9767894 15
9.65366 -8.033955 -0.8754437 9
7.239704 -7.257145 -0.7713465 11
7.010423 -8.435333 -0.8927337 10
18.12568 -12.32036 -0.8901405 25
9.682606 -7.97857 -0.5832245 12
7.202887 -7.152786 -0.5299016 17
9.030778 -10.75792 -0.8149571 9
31.38322 -21.4952 -0.6632786 20
9.668929 -8.026833 -0.2908312 8
7.239212 -7.229033 -0.2971116 15
12.41285 -14.87401 -0.6683821 35
nan nan nan 0
5.626218 -6.784983 -0.9873337 18
59.55007 -71.74528 3.743293 8
66.23169 -45.57751 4.675693 15
13.02792 -15.86276 1.666368 47
65.34589 -45.42303 9.766609 10
12.76624 -15.5495 3.659867 8
nan nan nan 0
66.59969 -45.67685 0.4649113 10
52.97568 -44.18708 0 9
nan nan nan 0
17.1341 -20.63694 -0.3132088 25
nan nan nan 0
63.12668 -52.50441 1.905374 10
nan nan nan 0
nan nan nan 0
nan nan nan 0
nan nan nan 0
6.790787 -4.668634 -1.139472 30
9.272548 -6.491791 -1.068216 25
12.5063 -8.688877 -0.974229 17
9.644672 -8.08362 -0.8771876 10
8.386073 -8.465626 -0.8971423 16
6.977766 -8.455907 -0.8923266 10
18.01248 -12.33559 -0.8866848 23
9.650852 -8.00913 -0.5829915 12
nan nan nan 0
8.974004 -10.76637 -0.8132145 10
31.32858 -21.61881 -0.6637149 16
9.686876 -8.099003 -0.2922239 7
14.97275 -15.05925 -0.6179746 25
12.35448 -14.90955 -0.6680366 35
3.884094 -4.646992 -1.091275 24
5.596188 -6.796905 -0.9862155 19
68.77037 -83.44615 4.341457 6
65.80145 -45.62074 4.656524 15
13.07952 -16.03948 1.68015 39
64.90643 -45.45445 9.724564 12
12.69635 -15.5749 3.655384 22
nan nan nan 0
66.11487 -45.68452 0.4626362 13
53.01637 -44.53574 0 10
nan nan nan 0
17.07468 -20.71206 -0.3134426 28
66.10697 -45.62801 2.36878 14
nan nan nan 0
nan nan nan 0
58.65842 -70.8975 1.123781 9
nan nan nan 0
nan nan nan 0
6.758157 -4.681041 -1.13672 30
9.229486 -6.509783 -1.065859 24
12.43501 -8.703882 -0.9710286 17
9.982341 -8.426046 -0.9106707 14
8.349479 -8.487736 -0.896389 15
6.93558 -8.464787 -0.8906982 9
17.86238 -12.32465 -0.8813996 31
9.653498 -8.068389 -0.5848549 13
10.87453 -10.95203 -0.8067588 11
8.923643 -10.78224 -0.8120527 10
31.38839 -21.82219 -0.6665946 15
nan nan nan 0
14.87796 -15.06874 -0.616226 24
12.28966 -14.93715 -0.6673456 35
3.86471 -4.656733 -1.090383 24
5.566143 -6.8087 -0.9850973 20
58.6776 -71.70686 3.719816 11
65.41262 -45.69009 4.64026 14
12.99837 -16.05405 1.676907 44
64.52432 -45.5234 9.69105 12
12.67903 -15.66502 3.666143 40
nan nan nan 0
65.77443 -45.78934 0.4613691 14
52.96365 -44.80772 0 9
nan nan nan 0
16.96112 -20.72123 -0.3126826 28
65.7216 -45.70157 2.36067 14
nan nan nan 0
nan nan nan 0
58.13768 -70.76957 1.118528 11
nan nan nan 0
nan nan nan 0
6.741776 -4.704603 -1.13672 28
9.186412 -6.527554 -1.063502 24
12.39231 -8.738612 -0.9700684 16
9.952868 -8.460841 -0.9106707 13
8.305868 -8.502563 -0.8948825 15
6.852561 -8.423199 -0.8837778 9
17.76181 -12.34702 -0.8785537 23
13.32839 -11.21814 -0.8105516 11
nan nan nan 0
8.866946 -10.79018 -0.8103101 10
31.38574 -21.98324 -0.6681653 14
nan nan nan 0
14.79728 -15.09203 -0.6150603 23
12.22797 -14.96834 -0.6668273 40
3.851557 -4.673995 -1.091275 20
5.539213 -6.824229 -0.9845382 20
nan nan nan 0
65.0078 -45.74582 4.622834 13
13.03901 -16.21976 1.689473 44
64.14254 -45.59024 9.657536 13
12.67355 -15.77054 3.680489 39
nan nan nan 0
65.37267 -45.8493 0.4596701 13
52.93251 -45.09933 0 9
nan nan nan 0
16.91391 -20.81135 -0.3131503 30
65.31606 -45.75866 2.351822 13
63.29721 -53.7775 1.927424 23
nan nan nan 0
57.71334 -70.7551 1.115107 12
nan nan nan 0
nan nan nan 0
6.717206 -4.722416 -1.135344 29
9.143325 -6.545103 -1.061145 27
12.31698 -8.750044 -0.9665478 17
9.900537 -8.476072 -0.908578 12
8.265724 -8.520766 -0.8937526 15
6.76053 -8.369503 -0.8756362 11
17.63675 -12.35165 -0.8744883 23
13.28534 -11.26136 -0.8103187 11
10.81876 -11.04909 -0.8083288 9
8.81661 -10.80559 -0.8091484 12
31.30473 -22.08978 -0.6680781 13
19.51983 -16.66803 -0.5950087 9
14.71662 -15.11494 -0.6138945 26
12.16306 -14.99541 -0.6661363 37
3.825882 -4.67598 -1.088598 21
5.509128 -6.835782 -0.9834201 19
58.15047 -72.08365 3.718211 16
64.61153 -45.80504 4.605989 14
12.84557 -16.09376 1.671637 56
63.78125 -45.66942 9.627068 8
12.54789 -15.72623 3.659867 41
nan nan nan 0
64.95087 -45.89257 0.457827 12
53.02901 -45.50197 0 10
nan nan nan 0
16.88824 -20.92864 -0.3140273 37
64.89868 -45.80484 2.342533 11
63.39397 -54.24184 1.936128 11
nan nan nan 0
57.34015 -70.80072 1.112663 12
nan nan nan 0
nan nan nan 0
6.696637 -4.742975 -1.134656 28
9.100229 -6.56243 -1.058788 26
12.22142 -8.746545 -0.961427 16
9.848222 -8.49104 -0.9064853 15
8.225555 -8.538793 -0.8926226 15
6.737504 -8.400828 -0.8764503 11
17.52003 -12.36131 -0.8708293 26
13.20415 -11.272 -0.8077566 13
10.74184 -11.0474 -0.8054503 12
8.769416 -10.82466 -0.8082771 10
31.33338 -22.27421 -0.6703469 12
19.41984 -16.70022 -0.5937321 10
14.6464 -15.14826 -0.613166 29
12.10437 -15.02999 -0.6657909 38
3.806438 -4.685485 -1.087706 23
5.47903 -6.847208 -0.982302 19
68.83529 -85.94243 4.420918 7
64.21564 -45.86205 4.589143 13
12.67793 -15.99786 1.657045 42
63.37994 -45.7176 9.590508 11
12.52345 -15.8085 3.668833 42
nan nan nan 0
64.52143 -45.92766 0.4559264 12
52.99092 -45.79141 0 8
nan nan nan 0
16.85884 -21.0421 -0.3148459 33
64.50622 -45.86603 2.334127 13
63.4466 -54.67163 1.943556 10
nan nan nan 0
57.06133 -70.96148 1.112053 10
nan nan nan 0
nan nan nan 0
6.671973 -4.760574 -1.133279 26
9.061152 -6.582461 -1.056902 25
12.0977 -8.72207 -0.954066 11
9.810989 -8.518826 -0.9057878 14
8.188808 -8.560246 -0.8918694 15
6.729856 -8.451596 -0.8792999 10
17.40347 -12.37031 -0.8671704 29
13.14958 -11.305 -0.8068249 13
10.70668 -11.08842 -0.805712 10
8.722197 -10.84353 -0.8074058 8
31.27576 -22.398 -0.6707832 14
19.22917 -16.65338 -0.5896702 10
14.69726 -15.30745 -0.6175374 26
12.04248 -15.06044 -0.6652725 32
3.786974 -4.694911 -1.086814 24
5.448917 -6.858506 -0.9811838 18
57.98163 -72.91018 3.739882 14
63.81609 -45.91394 4.572008 10
12.11681 -15.39956 1.590569 47
63.00718 -45.78395 9.558212 13
12.2858 -15.62009 3.615038 59
nan nan nan 0
64.15755 -46.00694 0.4544865 13
52.88734 -46.02534 0 9
nan nan nan 0
16.82574 -21.15169 -0.3156059 31
64.1385 -45.94251 2.326607 11
63.5121 -55.11554 1.951447 9
33.88398 -35.28209 0.8360993 9
56.74778 -71.07817 1.11077 9
nan nan nan 0
nan nan nan 0
6.647268 -4.778059 -1.131903 27
9.018027 -6.599361 -1.054545 24
11.97834 -8.699768 -0.9470249 11
9.769927 -8.543172 -0.9047413 15
8.152011 -8.581548 -0.8911161 14
6.694136 -8.467216 -0.8784857 9
17.28299 -12.37574 -0.8633081 30
13.09493 -11.33776 -0.8058932 13
10.64372 -11.1005 -0.8038803 10
8.671839 -10.85831 -0.8062441 10
31.14467 -22.46902 -0.6696488 12
18.98255 -16.55614 -0.5838675 10
14.61271 -15.32611 -0.616226 27
11.98051 -15.09064 -0.6647543 35
3.767491 -4.704259 -1.085922 24
5.418794 -6.869678 -0.9800656 18
56.43896 -71.48088 3.656408 10
63.41697 -45.96362 4.554873 8
11.94031 -15.28463 1.574355 38
62.62671 -45.8424 9.524698 14
12.09199 -15.4845 3.573795 43
nan nan nan 0
nan nan nan 0
nan nan nan 0
30.61852 -32.22875 -0.2325553 7
16.76419 -21.22599 -0.3158398 34
63.7305 -45.98773 2.317612 12
nan nan nan 0
nan nan nan 0
56.43721 -71.19746 1.109548 8
nan nan nan 0
nan nan nan 0
6.622524 -4.795431 -1.130527 26
8.974896 -6.616041 -1.052188 25
11.85928 -8.67674 -0.9399838 10
9.728816 -8.567336 -0.903695 14
8.115165 -8.602697 -0.8903629 15
6.722963 -8.565041 -0.8862203 9
17.187 -12.39802 -0.8606656 26
13.03645 -11.36699 -0.8047286 13
10.5877 -11.1195 -0.8025719 9
8.624585 -10.87677 -0.8053728 11
30.9973 -22.52765 -0.6681653 10
18.75563 -16.47387 -0.5786451 9
14.56599 -15.38428 -0.6165174 24
11.93086 -15.13629 -0.6649271 36
3.747988 -4.713528 -1.085029 23
5.38866 -6.880725 -0.9789475 17
55.97644 -71.40614 3.642562 15
63.03843 -46.02578 4.539189 10
11.90825 -15.35379 1.577192 29
62.41838 -46.0254 9.517386 15
11.90228 -15.35164 3.533448 38
nan nan nan 0
nan nan nan 0
17.58071 -15.5183 0 35
30.37889 -32.20086 -0.2315867 8
16.67149 -21.26077 -0.315489 32
63.29467 -46.01011 2.307585 12
17.58256 -15.47642 0.5429004 36
67.29998 -71.06581 1.673567 9
nan nan nan 0
nan nan nan 0
nan nan nan 0
6.597738 -4.812685 -1.129151 26
8.931759 -6.632501 -1.049831 23
11.78071 -8.682577 -0.9361432 10
9.687654 -8.591317 -0.9026487 14
8.07827 -8.623693 -0.8896096 15
6.601187 -8.470487 -0.8740078 12
17.05065 -12.39041 -0.8559903 28
12.97792 -11.39595 -0.8035641 14
10.52824 -11.13462 -0.8010018 11
8.577307 -10.89504 -0.8045014 9
30.81358 -22.55894 -0.6658965 8
17.62713 -15.59213 -0.5454537 24
14.4677 -15.38769 -0.6146232 26
11.88103 -15.18178 -0.6650999 28
3.716287 -4.707262 -1.080568 22
5.358515 -6.891644 -0.9778293 18
55.55809 -71.38425 3.631526 14
62.66827 -46.09176 4.524086 10
11.79684 -15.32022 1.569491 32
62.47248 -46.40278 9.550291 13
11.9536 -15.52955 3.564829 32
nan nan nan 0
63.04719 -46.21811 0.4500228 7
17.5937 -15.63937 0 18
30.24921 -32.28846 -0.2314558 8
16.61253 -21.33856 -0.3157813 27
nan nan nan 0
17.65188 -15.64712 0.5467303 15
66.91794 -71.15826 1.670232 10
55.37858 -70.8727 1.098431 10
nan nan nan 0
0.2639901 -0.1977737 -0.07582346 10
6.56892 -4.826897 -1.127087 30
8.892603 -6.651719 -1.047945 27
11.71426 -8.696891 -0.9332628 10
9.642724 -8.611794 -0.9012536 14
8.037932 -8.640885 -0.8884797 15
6.541104 -8.454047 -0.8699369 12
16.89843 -12.37021 -0.8505019 35
12.91187 -11.41803 -0.8019336 14
10.47222 -11.1531 -0.7996934 11
8.530006 -10.91311 -0.8036302 10
30.62198 -22.5833 -0.6634532 9
17.58752 -15.66686 -0.5459178 13
14.35592 -15.37599 -0.612146 24
11.83103 -15.22711 -0.6652725 28
3.684675 -4.700832 -1.076106 22
5.325325 -6.898501 -0.9761521 18
55.20472 -71.44334 3.624703 13
62.31448 -46.16762 4.510146 15
11.66765 -15.26231 1.559357 41
62.52074 -46.77812 9.582586 14
11.78586 -15.42263 3.530758 47
nan nan nan 0
62.59989 -46.22705 0.4479782 7
nan nan nan 0
30.09546 -32.34993 -0.2311416 7
nan nan nan 0
nan nan nan 0
nan nan nan 0
66.75103 -71.4791 1.672284 8
54.87345 -70.73373 1.093299 11
nan nan nan 0
nan nan nan 0
6.544065 -4.84391 -1.12571 30
8.849445 -6.667752 -1.045588 20
11.63587 -8.701884 -0.9294221 11
9.605186 -8.638731 -0.900556 14
7.997574 -8.657902 -0.8873498 14
6.517622 -8.484735 -0.8707511 12
16.74254 -12.34613 -0.8448101 22
12.84956 -11.4431 -0.8005362 12
10.4128 -11.16768 -0.7981233 11
8.482684 -10.93099 -0.8027589 8
30.57508 -22.7139 -0.6641513 8
nan nan nan 0
14.35992 -15.48832 -0.6146232 31
11.7778 -15.26831 -0.6652725 26
3.619954 -4.651501 -1.06183 31
5.295173 -6.909157 -0.9750339 18
13.47427 -17.55732 0.8873139 38
62.29296 -46.48934 4.520311 15
11.67454 -15.38235 1.567464 35
62.57506 -47.16034 9.6161 12
11.52689 -15.19322 3.468894 35
nan nan nan 0
62.24959 -46.30504 0.4466247 12
nan nan nan 0
21.51084 -23.28394 -0.1657706 22
13.60587 -17.72898 -0.2608806 16
62.26379 -46.26504 2.28753 13
nan nan nan 0
nan nan nan 0
13.63361 -17.69488 0.2724391 9
nan nan nan 0
0.2743099 -0.2081894 -0.07961464 10
6.523145 -4.863767 -1.125022 27
8.81025 -6.686571 -1.043702 24
11.60542 -8.742449 -0.9294221 12
9.549091 -8.648771 -0.8981146 14
7.957195 -8.674742 -0.8862199 15
6.509104 -8.535183 -0.8736007 12
16.60308 -12.33302 -0.8399315 32
12.7835 -11.46454 -0.7989057 11
10.3534 -11.18197 -0.7965532 11
8.435341 -10.94867 -0.8018875 10
30.38352 -22.73664 -0.661708 7
18.00817 -16.2684 -0.5625135 12
14.38362 -15.62292 -0.6179746 28
11.72747 -15.3133 -0.6654453 21
3.645758 -4.718649 -1.074322 23
5.26501 -6.919687 -0.9739158 19
13.49463 -17.71157 0.8927317 27
62.36572 -46.88344 4.537446 16
11.69272 -15.51856 1.577192 31
nan nan nan 0
11.50929 -15.28052 3.479653 36
nan nan nan 0
62.10759 -46.53704 0.4467687 58
nan nan nan 0
21.6694 -23.62049 -0.1676294 9
13.53481 -17.76444 -0.2607052 35
62.26197 -46.60188 2.293429 12
nan nan nan 0
nan nan nan 0
13.5171 -17.67086 0.2713396 43
nan nan nan 0
nan nan nan 0
6.498204 -4.880564 -1.123646 29
8.767076 -6.702178 -1.041345 26
11.51122 -8.73467 -0.9243014 11
9.518844 -8.682052 -0.8981146 14
7.916796 -8.691404 -0.88509 16
6.401114 -8.454511 -0.8630165 16
16.4679 -12.32209 -0.8352563 26
12.71746 -11.48567 -0.7972753 11
10.29403 -11.19599 -0.7949831 11
8.381917 -10.95822 -0.8004354 9
30.24009 -22.79442 -0.6603118 9
17.62588 -16.03517 -0.5523008 16
14.28516 -15.62508 -0.6160803 25
11.64976 -15.32232 -0.6640633 17
3.632256 -4.735253 -1.075214 20
5.231846 -6.926123 -0.9722385 18
nan nan nan 0
62.44047 -47.28164 4.554873 15
11.64444 -15.56726 1.578003 41
62.6622 -47.91555 9.680691 8
11.4971 -15.37577 3.492206 34
nan nan nan 0
nan nan nan 0
nan nan nan 0
nan nan nan 0
16.36423 -21.63623 -0.3167753 21
62.36232 -47.01749 2.303161 12
nan nan nan 0
65.04414 -71.1301 1.648083 14
13.52486 -17.80953 0.2727445 8
nan nan nan 0
nan nan nan 0
6.477176 -4.900232 -1.122958 28
8.727847 -6.7206 -1.03946 24
11.46083 -8.759655 -0.9227012 11
9.473783 -8.70173 -0.8967194 14
7.876378 -8.707892 -0.8839601 15
6.302744 -8.385145 -0.8536537 21
16.34897 -12.32239 -0.831394 36
12.65881 -11.51319 -0.7961107 13
10.23132 -11.20604 -0.7931514 10
8.328528 -10.96753 -0.7989832 9
12.32476 -9.361901 -0.2694651 26
17.4887 -16.02232 -0.5497476 14
14.23389 -15.67855 -0.616226 22
11.59921 -15.36688 -0.6642361 14
3.63059 -4.767486 -1.079675 22
5.201681 -6.936389 -0.9711203 18
nan nan nan 0
62.49731 -47.66882 4.571136 14
11.58706 -15.60381 1.577598 43
62.7462 -48.32778 9.719689 9
11.45215 -15.42766 3.494895 36
nan nan nan 0
62.34641 -47.39914 0.4508579 16
52.8802 -48.67946 0 8
nan nan nan 0
16.2526 -21.64524 -0.3160737 27
62.42868 -47.41019 2.311714 13
64.19102 -58.92599 2.022124 8
64.57028 -71.10873 1.642353 12
nan nan nan 0
nan nan nan 0
nan nan nan 0
6.452149 -4.916813 -1.121582 29
8.688596 -6.738829 -1.037574 26
11.41832 -8.790482 -0.921741 11
nan nan nan 0
7.83594 -8.724204 -0.8828301 15
6.270458 -8.403099 -0.8532466 22
12.36577 -9.389775 -0.6301519 30
12.6075 -11.54718 -0.7954119 12
10.18208 -11.23058 -0.7923663 12
8.272174 -10.97261 -0.7972406 9
12.33172 -9.43523 -0.2703378 15
17.48411 -16.13072 -0.5513724 17
14.08873 -15.62791 -0.6122918 30
11.53052 -15.38727 -0.6633723 13
3.605036 -4.768349 -1.076999 22
5.174473 -6.950517 -0.9705612 18
nan nan nan 0
62.55617 -48.06001 4.587691 13
11.51479 -15.62009 1.575166 37
62.82024 -48.73509 9.757468 16
nan nan nan 0
nan nan nan 0
62.4267 -47.80494 0.4526434 14
52.81629 -48.96232 0 8
29.29241 -32.60986 -0.229309 6
16.21577 -21.75395 -0.3168337 29
62.4613 -47.77963 2.319087 12
64.07304 -59.23114 2.024909 11
64.04046 -71.02181 1.63517 12
nan nan nan 0
nan nan nan 0
nan nan nan 0
6.431016 -4.936292 -1.120894 30
8.645398 -6.753804 -1.035217 25
nan nan nan 0
8.277581 -7.710526 -0.7882481 8
7.795485 -8.740338 -0.8817003 15
6.258873 -8.448972 -0.8556891 17
12.32895 -9.42985 -0.6299487 34
nan nan nan 0
10.13614 -11.25863 -0.791843 11
8.218874 -10.98143 -0.7957885 9
11.11442 -8.566189 -0.2442464 9
8.264566 -7.679725 -0.2610054 9
13.91077 -15.5392 -0.6069003 33
11.44693 -15.38733 -0.6616448 11
3.59132 -4.784842 -1.077891 22
5.144278 -6.960542 -0.9694431 18
54.42728 -73.57186 3.674065 12
62.61305 -48.45218 4.604246 14
11.59846 -15.84925 1.594217 44
62.86876 -49.12519 9.791593 16
11.08289 -15.14985 3.414202 40
nan nan nan 0
62.48909 -48.19966 0.4543137 12
52.83146 -49.3204 0 6
29.0952 -32.61862 -0.2286545 7
16.10109 -21.75817 -0.3160737 26
62.48418 -48.14377 2.326165 12
64.13664 -59.70647 2.033498 11
63.71212 -71.15554 1.633117 11
nan nan nan 0
nan nan nan 0
nan nan nan 0
6.405907 -4.952658 -1.119518 29
8.606117 -6.771636 -1.033332 21
10.97905 -8.575268 -0.8910163 16
8.268806 -7.756432 -0.789992 9
7.755013 -8.756298 -0.8805704 15
6.232293 -8.474784 -0.8560961 23
11.09647 -8.549432 -0.5683564 13
8.288381 -7.699304 -0.525694 9
10.09345 -11.29023 -0.7915813 12
8.159665 -10.982 -0.7937554 10
11.04495 -8.574293 -0.2433738 13
8.288815 -7.756334 -0.2626301 9
13.9494 -15.69226 -0.6109803 34
11.36941 -15.39502 -0.6602627 10
3.571659 -4.793401 -1.076999 22
5.114077 -6.97044 -0.968325 18
54.19971 -73.80167 3.676072 10
62.67583 -48.85148 4.621382 13
11.59577 -15.96223 1.601513 39
62.93089 -49.52848 9.828153 15
11.05594 -15.22427 3.422271 40
nan nan nan 0
62.50209 -48.55858 0.4556384 12
52.73184 -49.57301 0 7
21.61852 -24.4068 -0.1705092 11
15.98065 -21.75379 -0.3151967 21
62.56055 -48.55155 2.335307 12
64.22324 -60.20689 2.042898 9
63.29727 -71.19069 1.628842 10
53.91808 -73.12373 1.109548 7
nan nan nan 0
0.2698898 -0.2138885 -0.07961464 9
6.380761 -4.968909 -1.118142 29
8.562914 -6.786187 -1.030974 26
10.9412 -8.607371 -0.8903762 12
8.161901 -7.709909 -0.7823188 10
7.711234 -8.768337 -0.8790638 15
6.199737 -8.49246 -0.8556891 31
11.04288 -8.569745 -0.5671368 58
8.265103 -7.7316 -0.5259269 11
10.05066 -11.32166 -0.7913196 10
8.124243 -11.01443 -0.7940459 9
11.04647 -8.637419 -0.2440719 10
8.159812 -7.689249 -0.2593806 8
13.84824 -15.6884 -0.6089403 28
11.31265 -15.43059 -0.66009 9
3.551983 -4.801881 -1.076106 23
5.083869 -6.980213 -0.9672068 21
53.98885 -74.05501 3.679283 15
62.71696 -49.23639 4.637065 12
nan nan nan 0
62.99486 -49.93588 9.865323 14
10.99986 -15.25879 3.421375 44
nan nan nan 0
62.58029 -48.97056 0.4574526 12
52.6892 -49.88052 0 9
21.67848 -24.64731 -0.1716611 6
15.99886 -21.93873 -0.3170676 23
62.61121 -48.94198 2.343565 12
nan nan nan 0
62.82008 -71.15262 1.622941 10
53.86919 -73.59389 1.113824 8
nan nan nan 0
nan nan nan 0
6.355579 -4.985044 -1.116765 31
8.523606 -6.803621 -1.029089 24
10.99715 -8.713653 -0.8974172 15
8.138552 -7.741788 -0.7826676 9
7.670742 -8.783932 -0.8779339 15
6.152522 -8.489829 -0.8532466 32
11.02864 -8.620541 -0.5679498 38
8.161705 -7.688498 -0.5210356 13
10.00778 -11.35292 -0.7910579 10
8.085746 -11.04272 -0.7940459 9
10.92982 -8.607909 -0.2421521 5
8.154681 -7.738327 -0.2600769 8
13.8988 -15.85692 -0.6136032 20
11.21462 -15.40937 -0.6574987 8
3.532291 -4.810283 -1.075214 22
5.056564 -6.993887 -0.9666477 21
11.95371 -16.51009 0.8170832 9
62.7718 -49.63456 4.65391 12
11.84941 -16.55349 1.652586 43
63.06063 -50.34743 9.903102 14
10.978 -15.3411 3.431238 41
nan nan nan 0
62.55035 -49.30012 0.4584894 11
52.70295 -50.24353 0 9
21.72057 -24.86971 -0.1726821 8
15.88408 -21.94179 -0.3163075 27
62.7031 -49.36736 2.353445 11
64.54405 -61.35981 2.066689 7
62.42961 -71.20982 1.619264 9
nan nan nan 0
nan nan nan 0
nan nan nan 0
6.330363 -5.001063 -1.115389 30
8.484282 -6.820865 -1.027203 28
11.11102 -8.867091 -0.9092591 12
nan nan nan 0
7.626971 -8.795585 -0.8764274 15
6.093769 -8.470784 -0.8491757 37
11.00634 -8.665162 -0.5683564 15
8.145691 -7.727252 -0.5217344 11
9.951648 -11.369 -0.7897495 12
8.044216 -11.06684 -0.7937554 10
14.5159 -11.51217 -0.322695 7
8.131233 -7.770197 -0.260193 9
13.79088 -15.84502 -0.6112717 21
11.12859 -15.40385 -0.6555984 8
3.512585 -4.818605 -1.074322 22
5.026331 -7.003419 -0.9655296 19
11.83189 -16.46245 0.8126688 41
62.82856 -50.03683 4.671046 11
11.79155 -16.59475 1.652586 37
63.12817 -50.76316 9.941491 12
10.89307 -15.33521 3.421375 32
nan nan nan 0
62.69118 -49.76683 0.4607932 12
7.371357 -7.078842 0 25
21.52881 -24.8245 -0.1718443 35
11.93097 -16.6005 -0.2386046 21
62.78495 -49.78776 2.363029 12
64.46667 -61.71608 2.071099 13
62.02311 -71.24631 1.615159 10
11.8954 -16.48427 0.2478829 30
nan nan nan 0
0.2562034 -0.2077619 -0.07582346 10
6.301236 -5.013887 -1.113325 31
8.444941 -6.837917 -1.025318 25
11.06832 -8.896448 -0.9082989 11
nan nan nan 0
7.583212 -8.807039 -0.8749208 15
6.075738 -8.508232 -0.8508041 38
nan nan nan 0
8.12228 -7.759087 -0.5219673 12
9.888975 -11.37729 -0.7879178 11
8.014295 -11.107 -0.7946267 9
14.44437 -11.53782 -0.3219969 8
nan nan nan 0
13.693 -15.8439 -0.6093774 30
11.04273 -15.39793 -0.6536981 8
3.492862 -4.826849 -1.073429 22
4.996093 -7.012825 -0.9644114 21
11.84106 -16.59721 0.8172839 35
nan nan nan 0
11.56415 -16.39548 1.628671 74
63.1897 -51.17684 9.97927 11
nan nan nan 0
nan nan nan 0
62.72406 -50.15084 0.4623195 10
nan nan nan 0
21.58557 -25.06621 -0.1729963 32
11.87585 -16.64611 -0.2386631 35
62.86072 -50.20622 2.372467 7
nan nan nan 0
61.58441 -71.24301 1.610199 9
11.8698 -16.57041 0.2485549 41
nan nan nan 0
0.2554767 -0.2086549 -0.07582346 10
6.275962 -5.029664 -1.111949 29
8.405584 -6.854777 -1.023432 27
11.03332 -8.931892 -0.9079789 11
nan nan nan 0
7.539466 -8.818295 -0.8734143 16
6.077679 -8.574128 -0.855282 40
14.44438 -11.53385 -0.7504906 15
nan nan nan 0
9.832891 -11.39283 -0.7866094 10
7.952235 -11.10243 -0.7923032 7
nan nan nan 0
nan nan nan 0
13.58229 -15.82712 -0.6069003 29
10.95415 -15.38752 -0.651625 9
3.470258 -4.831015 -1.071645 22
4.965851 -7.022103 -0.9632933 18
nan nan nan 0
63.10675 -50.98235 4.718096 9
11.47542 -16.39083 1.624212 43
63.24527 -51.58844 10.01644 11
nan nan nan 0
nan nan nan 0
nan nan nan 0
7.293096 -7.10223 0 34
21.70914 -25.38842 -0.1746979 30
15.68521 -22.15181 -0.3169507 19
nan nan nan 0
7.315331 -7.104122 0.2358217 29
61.19535 -71.29443 1.606522 11
11.84954 -16.66472 0.249349 8
nan nan nan 0
nan nan nan 0
6.246799 -5.042216 -1.109885 27
8.366213 -6.871446 -1.021546 27
10.95566 -8.932531 -0.9041383 10
7.28792 -7.129306 -0.7101208 28
7.498961 -8.833156 -0.8722844 15
6.070637 -8.627909 -0.8585387 37
nan nan nan 0
7.361088 -7.131118 -0.4760826 15
9.757326 -11.38538 -0.7837309 11
7.898978 -11.10978 -0.7908511 11
nan nan nan 0
7.298018 -7.121913 -0.2358217 25
13.5302 -15.87823 -0.607046 31
10.86578 -15.37668 -0.649552 9
3.453374 -4.843099 -1.071645 21
4.935605 -7.031257 -0.9621751 21
nan nan nan 0
63.04069 -51.29367 4.726519 17
12.17715 -17.52368 1.732439 30
63.29491 -51.99789 10.053 13
11.36586 -16.36162 3.624004 35
nan nan nan 0
nan nan nan 0
7.289684 -7.148645 0 37
21.61391 -25.45642 -0.1746456 16
15.67965 -22.3087 -0.3184124 21
63.10674 -51.12831 2.395175 7
7.301213 -7.140096 0.2361698 37
60.77425 -71.30595 1.601989 9
nan nan nan 0
nan nan nan 0
nan nan nan 0
6.221471 -5.057748 -1.108508 31
8.326827 -6.887924 -1.01966 28
9.782619 -8.033842 -0.8094038 6
7.262989 -7.154703 -0.7101208 39
7.458442 -8.84784 -0.8711545 17
6.000565 -8.591825 -0.8528395 36
15.05081 -12.19078 -0.7864703 19
7.264635 -7.087029 -0.4714243 16
9.733702 -11.43838 -0.7850393 11
7.848643 -11.12097 -0.7896893 10
9.762903 -7.969518 -0.2192895 17
7.280245 -7.15435 -0.2360538 32
13.47146 -15.92155 -0.6069003 31
10.80918 -15.41043 -0.6493793 9
3.43077 -4.847088 -1.06986 22
4.902518 -7.036209 -0.9604979 19
nan nan nan 0
63.06203 -51.67792 4.741621 15
11.98863 -17.38144 1.714199 42
63.40745 -52.4621 10.09992 10
11.31147 -16.40525 3.6249 29
nan nan nan 0
nan nan nan 0
7.268245 -7.17756 0 32
21.61515 -25.63876 -0.1753786 21
15.69033 -22.49043 -0.3202249 27
63.00921 -51.41463 2.398272 16
7.25487 -7.144498 0.2354735 34
60.47653 -71.46041 1.600706 9
nan nan nan 0
nan nan nan 0
nan nan nan 0
6.192276 -5.07003 -1.106444 30
8.28743 -6.904211 -1.017775 26
9.635281 -7.969406 -0.7994823 6
7.255679 -7.197572 -0.7118648 30
7.417915 -8.86235 -0.8700246 16
5.939332 -8.567652 -0.8483616 36
9.788614 -7.987794 -0.5124558 11
7.204217 -7.077349 -0.4690951 18
9.680826 -11.45703 -0.7839926 10
7.804051 -11.14012 -0.7891085 9
9.700257 -7.97499 -0.2185041 9
7.258781 -7.183235 -0.2361698 31
13.40616 -15.957 -0.6064631 30
10.73534 -15.41935 -0.6481701 9
3.411005 -4.855006 -1.068968 20
4.872281 -7.045102 -0.9593797 18
60.9182 -88.00021 4.297112 7
63.12766 -52.10107 4.760209 13
11.54798 -16.86793 1.659477 56
63.56328 -52.96583 10.15415 11
11.31245 -16.5299 3.643728 18
nan nan nan 0
62.8518 -51.70779 0.4685398 10
nan nan nan 0
21.67957 -25.89809 -0.1766353 27
15.58043 -22.49984 -0.3195817 27
63.05332 -51.81829 2.406825 12
nan nan nan 0
nan nan nan 0
nan nan nan 0
nan nan nan 0
0.2525385 -0.2122016 -0.07582346 10
6.166894 -5.085318 -1.105068 30
8.248019 -6.920307 -1.015889 25
9.645755 -8.03491 -0.8026828 7
7.234039 -7.22638 -0.7122136 17
7.380562 -8.88052 -0.8692713 16
5.915033 -8.596545 -0.8491757 38
9.706618 -7.97753 -0.50961 14
7.214982 -7.137572 -0.4714243 20
9.637566 -11.48693 -0.7837309 12
7.759421 -11.15909 -0.7885276 8
9.672359 -8.008801 -0.2185041 9
7.25491 -7.229695 -0.2368661 18
13.34077 -15.99218 -0.606026 33
10.66157 -15.42795 -0.6469607 9
3.382795 -4.850731 -1.065399 21
4.842039 -7.05387 -0.9582615 21
59.52996 -86.63931 4.22046 14
63.17957 -52.51572 4.777925 12
11.57582 -17.03595 1.672043 39
63.63271 -53.40112 10.19498 10
11.379 -16.75243 3.684075 32
nan nan nan 0
57.95048 -48.01624 0.4332337 9
nan nan nan 0
21.67212 -26.07358 -0.1773159 28
15.46216 -22.4964 -0.3187632 23
63.11077 -52.23563 2.415967 11
nan nan nan 0
59.55661 -71.37801 1.589504 9
nan nan nan 0
nan nan nan 0
nan nan nan 0
6.141481 -5.100491 -1.103692 32
8.208599 -6.936213 -1.014004 26
9.613825 -8.065327 -0.8023627 8
8.886407 -8.938621 -0.8785827 15
7.34 -8.894691 -0.8681414 15
5.899031 -8.637724 -0.8512112 40
9.663312 -7.998628 -0.5087969 16
7.225414 -7.197958 -0.4737535 18
9.581433 -11.50132 -0.7824225 12
7.70342 -11.16146 -0.786785 8
9.644345 -8.042516 -0.2185041 8
16.20041 -16.25398 -0.5318753 21
13.26893 -16.01941 -0.6052974 30
10.58788 -15.43622 -0.6457515 9
nan nan nan 0
4.811798 -7.062512 -0.9571434 19
59.20747 -86.81768 4.219055 15
nan nan nan 0
11.48007 -17.02253 1.666773 45
63.55964 -53.71901 10.21326 12
11.24899 -16.68598 3.660764 36
nan nan nan 0
57.47922 -47.96517 0.4309587 10
nan nan nan 0
21.68282 -26.27248 -0.1781537 30
15.38072 -22.5461 -0.3187047 18
63.15841 -52.6476 2.424815 8
nan nan nan 0
59.13486 -71.37758 1.584886 11
nan nan nan 0
nan nan nan 0
0.2510509 -0.2139595 -0.07582346 9
6.116039 -5.115548 -1.102316 28
8.169166 -6.951926 -1.012118 28
10.71421 -9.051562 -0.8970972 13
8.837628 -8.95184 -0.8768388 15
7.299428 -8.908685 -0.8670115 16
5.860463 -8.645883 -0.8499899 38
9.623816 -8.022719 -0.5081871 16
11.912 -11.94806 -0.7849307 11
9.531681 -11.52315 -0.7816375 11
7.647495 -11.16356 -0.7850424 11
nan nan nan 0
16.05214 -16.21807 -0.5288579 21
13.20976 -16.06177 -0.6051517 32
10.51144 -15.44003 -0.6443694 10
3.348848 -4.874229 -1.065399 22
4.781555 -7.071031 -0.9560252 20
nan nan nan 0
63.45639 -53.49922 4.827009 6
11.40673 -17.04179 1.664747 45
63.60605 -54.13996 10.25104 12
11.12232 -16.62292 3.638349 33
17.7803 -15.23564 6.263421 4
57.13536 -48.01756 0.429634 11
nan nan nan 0
21.56245 -26.3132 -0.177918 18
15.3832 -22.71973 -0.3204002 21
nan nan nan 0
nan nan nan 0
nan nan nan 0
nan nan nan 0
nan nan nan 0
0.2540284 -0.2179201 -0.07708719 10
6.090565 -5.13049 -1.100939 28
8.129726 -6.967451 -1.010232 28
10.67495 -9.082443 -0.8964571 13
8.802835 -8.979074 -0.87649 14
7.261996 -8.926375 -0.8662583 16
5.830246 -8.666286 -0.8499899 29
nan nan nan 0
11.85616 -11.97538 -0.783999 12
9.478725 -11.54092 -0.7805908 11
7.591651 -11.16541 -0.7832998 9
nan nan nan 0
15.9674 -16.24549 -0.5279295 21
13.18206 -16.14262 -0.6064631 24
10.4407 -15.45178 -0.6433329 10
3.331813 -4.88589 -1.065399 23
4.751311 -7.079423 -0.9549071 19
58.07343 -86.44509 4.181131 14
63.42527 -53.85285 4.838917 18
11.37473 -17.12302 1.6688 32
63.67291 -54.58128 10.29248 13
11.11591 -16.73952 3.655384 32
17.60267 -15.19036 6.219421 41
56.81474 -48.08751 0.4284821 7
nan nan nan 0
nan nan nan 0
15.33446 -22.81894 -0.3210434 23
63.63282 -53.80031 2.457403 13
nan nan nan 0
nan nan nan 0
42.4941 -62.99056 0.9278812 6
nan nan nan 0
0.2532662 -0.2188055 -0.07708719 10
6.06884 -5.148518 -1.100251 30
8.086506 -6.979533 -1.007875 27
10.62423 -9.103424 -0.8948569 12
8.774918 -9.01332 -0.8768388 13
7.221396 -8.940033 -0.8651283 15
5.797195 -8.682439 -0.8495828 38
14.68916 -12.41625 -0.7809818 25
11.81779 -12.02025 -0.7842319 13
9.409986 -11.5391 -0.7782357 12
7.538678 -11.17115 -0.7818477 9
27.7081 -23.58866 -0.6344822 12
15.95599 -16.34762 -0.5294382 19
13.09101 -16.14583 -0.6048602 27
10.36723 -15.45907 -0.6421236 9
3.311985 -4.893413 -1.064507 22
4.721066 -7.08769 -0.9537889 21
57.97362 -86.95073 4.195779 10
63.4228 -54.23286 4.853148 15
11.33409 -17.19175 1.671637 38
nan nan nan 0
nan nan nan 0
nan nan nan 0
nan nan nan 0
nan nan nan 0
nan nan nan 0
15.21034 -22.80577 -0.3201079 28
63.41039 -53.99294 2.456076 17
nan nan nan 0
nan nan nan 0
42.44362 -63.39194 0.9316074 8
nan nan nan 0
0.2599093 -0.2259113 -0.07961464 9
6.043296 -5.163241 -1.098875 29
8.04706 -6.994664 -1.00599 29
10.58105 -9.130679 -0.8938968 12
8.726066 -9.025968 -0.875095 14
7.180789 -8.953515 -0.8639984 16
5.775105 -8.71509 -0.8508041 42
nan nan nan 0
11.77576 -12.06143 -0.7842319 12
9.33195 -11.52531 -0.7750955 11
7.499637 -11.1974 -0.7818477 10
27.71289 -23.76006 -0.6364892 16
15.88839 -16.39246 -0.52909 21
12.90609 -16.0318 -0.598886 35
10.2966 -15.47021 -0.6410872 9
3.294883 -4.904944 -1.064507 21
4.690822 -7.095834 -0.9526707 19
nan nan nan 0
63.49789 -54.68191 4.873478 13
nan nan nan 0
17.76847 -15.45293 2.886475 15
10.58701 -16.18674 3.518206 32
nan nan nan 0
53.17684 -45.64985 0.403428 8
nan nan nan 0
nan nan nan 0
15.18858 -22.94629 -0.3213357 25
63.41503 -54.37987 2.463596 13
nan nan nan 0
57.38318 -71.26562 1.564447 9
nan nan nan 0
nan nan nan 0
nan nan nan 0
6.02148 -5.181077 -1.098187 30
8.007607 -7.009602 -1.004104 27
10.53028 -9.1512 -0.8922965 12
8.677231 -9.038384 -0.873351 14
7.143282 -8.970725 -0.8632452 17
5.733703 -8.718535 -0.8491757 39
nan nan nan 0
11.74402 -12.11322 -0.7849307 13
9.301047 -11.56949 -0.7758805 11
7.457743 -11.21935 -0.7815572 8
21.09791 -18.21849 -0.485875 8
15.7444 -16.35779 -0.5261887 18
12.719 -15.91277 -0.592766 39
10.22327 -15.47686 -0.6398779 8
3.272291 -4.908224 -1.062722 22
4.660579 -7.103853 -0.9515526 19
56.44107 -85.94598 4.128157 11
63.57815 -55.13866 4.894389 12
11.00491 -16.94856 1.640426 83
17.65095 -15.45929 2.876117 40
10.51706 -16.20297 3.513723 28
nan nan nan 0
53.21764 -46.00848 0.4049543 7
33.90895 -35.39967 0 8
20.25236 -25.43046 -0.1700117 9
15.09467 -22.97827 -0.3210434 24
63.46314 -54.80667 2.472886 11
33.89373 -35.28514 1.135008 9
57.04354 -71.35226 1.561967 12
35.41952 -53.70685 0.7855531 12
nan nan nan 0
17.42211 -14.85075 -5.969834 37
5.995868 -5.195584 -1.096811 31
7.964412 -7.021062 -1.001747 28
10.47949 -9.171479 -0.8906963 12
8.628418 -9.05057 -0.8716071 14
7.10265 -8.98387 -0.8621153 16
5.686907 -8.713448 -0.8467332 39
14.45621 -12.48128 -0.7754934 15
11.67048 -12.12176 -0.7828345 14
9.251262 -11.59018 -0.7750955 10
7.415789 -11.24115 -0.7812667 9
21.24548 -18.47569 -0.4907616 27
15.42815 -16.14165 -0.5174847 15
12.70066 -16.00406 -0.5945145 31
10.14727 -15.47901 -0.6384958 9
3.252427 -4.915512 -1.06183 22
4.633045 -7.115913 -0.9509935 20
55.96069 -85.86622 4.114913 14
17.78721 -15.54046 1.372009 7
10.94568 -16.98687 1.640426 45
nan nan nan 0
12.641 -19.62705 4.248028 20
nan nan nan 0
53.21135 -46.32857 0.406135 8
33.79551 -35.52868 0 9
19.98051 -25.26959 -0.1684671 9
14.98434 -22.98474 -0.3204002 27
63.55806 -55.27711 2.484093 9
nan nan nan 0
56.62008 -71.33166 1.557178 12
35.42347 -54.12301 0.7898291 32
nan nan nan 0
17.36649 -14.90832 -5.96857 62
5.970229 -5.209974 -1.095435 27
7.928683 -7.038912 -1.000333 28
10.43243 -9.194812 -0.889416 12
8.583055 -9.066147 -0.870212 14
7.065092 -9.000763 -0.861362 16
5.640216 -8.708141 -0.8442907 36
14.39747 -12.51855 -0.7746804 16
11.6281 -12.16242 -0.7828345 15
9.223152 -11.63805 -0.7761422 11
7.371039 -11.25861 -0.7806859 10
21.35765 -18.70451 -0.4948629 28
15.5369 -16.36942 -0.5230553 19
12.64781 -16.05222 -0.5946603 31
10.07139 -15.48082 -0.6371138 10
3.232552 -4.92272 -1.060937 22
4.605484 -7.127867 -0.9504344 20
56.06757 -86.69032 4.145012 14
17.6504 -15.52993 1.36562 39
10.90242 -17.05017 1.642858 29
63.99097 -56.82094 10.5027 9
12.54593 -19.6296 4.239062 21
nan nan nan 0
17.70801 -15.53146 0.1354359 16
33.61635 -35.58828 0 10
19.70078 -25.09534 -0.166844 8
14.87415 -22.99072 -0.3197571 27
17.7275 -15.5322 0.6942366 11
67.38053 -71.13126 2.273845 9
56.36146 -71.51709 1.556922 10
35.53386 -54.70755 0.7965484 11
nan nan nan 0
17.29238 -14.94987 -5.960988 70
5.944561 -5.224249 -1.094059 26
7.892927 -7.056597 -0.9989185 29
10.38534 -9.217928 -0.8881359 11
8.541104 -9.085152 -0.8691656 14
7.027502 -9.017504 -0.8606088 15
5.590939 -8.698421 -0.8414412 37
14.31985 -12.53912 -0.7728509 18
11.54086 -12.15586 -0.7798066 16
9.1516 -11.63093 -0.7735254 11
7.326259 -11.2759 -0.780105 8
17.64349 -15.56215 -0.409957 28
15.61682 -16.56905 -0.5276974 24
12.53935 -16.02934 -0.5921831 29
9.995614 -15.48229 -0.6357318 9
3.212667 -4.929849 -1.060045 21
4.577896 -7.139715 -0.9498754 21
55.93731 -87.15459 4.157854 11
17.62224 -15.61461 1.367653 12
nan nan nan 0
64.05491 -57.27882 10.54596 11
13.62556 -21.48468 4.629974 12
nan nan nan 0
17.59747 -15.54354 0.135004 43
33.44745 -35.658 0 12
18.5896 -23.85068 -0.1581261 18
14.84781 -23.12666 -0.3209264 29
17.60946 -15.53779 0.6917299 41
66.7859 -70.9983 2.262124 8
nan nan nan 0
35.46184 -55.01617 0.7992362 7
nan nan nan 0
17.21455 -14.98791 -5.952142 41
5.918867 -5.238409 -1.092682 28
7.860846 -7.077449 -0.9979757 31
10.33821 -9.240829 -0.8868557 12
8.495722 -9.100328 -0.8677705 15
6.989882 -9.034092 -0.8598555 16
5.571251 -8.734695 -0.8430695 38
14.24976 -12.56591 -0.771428 24
11.48123 -12.1779 -0.7786419 15
9.095578 -11.64313 -0.772217 10
7.278744 -11.28882 -0.7792338 9
17.58158 -15.61701 -0.4097825 41
15.64771 -16.71834 -0.5307148 17
12.48333 -16.07302 -0.5921831 32
9.922649 -15.48763 -0.6345225 9
3.192771 -4.9369 -1.059153 21
4.550281 -7.151456 -0.9493163 20
55.65153 -87.37882 4.159259 10
nan nan nan 0
11.74657 -18.65699 1.789998 35
nan nan nan 0
13.35929 -21.22816 4.564523 17
nan nan nan 0
17.56552 -15.62481 0.1351767 12
nan nan nan 0
18.34101 -23.70188 -0.1567124 21
14.78311 -23.20365 -0.3212772 34
nan nan nan 0
76.16024 -81.53191 2.589396 6
55.65225 -71.64035 1.551107 11
nan nan nan 0
nan nan nan 0
nan nan nan 0
5.893147 -5.252452 -1.091306 31
7.825025 -7.09482 -0.9965614 28
10.29477 -9.266849 -0.8858956 12
8.457122 -9.122613 -0.8670729 14
6.952232 -9.050527 -0.8591022 15
5.543391 -8.758302 -0.8434765 38
14.16097 -12.57578 -0.7689886 20
11.41475 -12.19238 -0.7770116 15
9.036522 -11.65113 -0.7706469 12
7.231229 -11.30154 -0.7783624 9
21.1606 -18.92713 -0.4948629 26
15.64371 -16.83144 -0.5325717 16
12.43935 -16.13233 -0.592766 28
9.852449 -15.49687 -0.633486 9
3.172864 -4.943872 -1.05826 22
4.51734 -7.154687 -0.947639 20
54.96721 -86.97282 4.130765 6
63.86877 -57.37392 4.993137 9
11.6893 -18.71056 1.791214 32
64.37772 -58.38132 10.666 6
10.7119 -17.15186 3.678695 10
nan nan nan 0
nan nan nan 0
nan nan nan 0
13.59498 -17.69517 -0.1166311 15
14.72072 -23.2847 -0.3216865 25
nan nan nan 0
nan nan nan 0
13.50187 -17.50445 0.3774719 6
nan nan nan 0
nan nan nan 0
nan nan nan 0
5.860024 -5.259769 -1.088554 27
7.792856 -7.115382 -0.9956186 29
10.25126 -9.292677 -0.8849354 12
8.41509 -9.141072 -0.8660266 14
6.914551 -9.066811 -0.858349 16
5.515433 -8.781819 -0.8438836 37
14.07229 -12.58518 -0.7665493 21
11.35171 -12.21021 -0.775614 15
8.962293 -11.63908 -0.7677684 12
7.183713 -11.31406 -0.7774911 9
21.11298 -19.01761 -0.4952992 44
15.59164 -16.89329 -0.5328038 17
12.37689 -16.16771 -0.5924746 24
9.782306 -15.5058 -0.6324495 9
3.155588 -4.954917 -1.05826 21
4.487068 -7.161989 -0.9465209 18
54.71105 -87.24036 4.134377 14
nan nan nan 0
13.61075 -21.9582 2.098059 18
64.33479 -58.75293 10.69282 17
10.62347 -17.14314 3.668833 29
nan nan nan 0
56.55733 -51.0035 0.4384173 11
nan nan nan 0
13.54526 -17.75842 -0.1167358 29
14.68185 -23.40371 -0.322622 28
