# .PCD v0.7 - Point Cloud Data file format
VERSION 0.7
FIELDS x y z intensity
SIZE 4 4 4 4
TYPE F F F F
COUNT 1 1 1 1
WIDTH 1688
HEIGHT 1
VIEWPOINT 0 0 0 1 0 0 0
POINTS 1688
DATA ascii
nan nan nan 0
nan nan nan 0
-17.5664 16.46901 0.1384597 18
-14.17687 16.04373 0 28
nan nan nan 0
-9.943699 16.54507 -0.2252741 43
-17.86683 16.73304 0.7210742 48
-14.32468 16.16556 0.5005407 27
-12.43768 16.90422 0.3583161 21
-10.1509 16.81703 0.2395143 41
nan nan nan 0
-0.2774073 0.2641645 -0.08972443 9
-12.71384 11.93413 -2.41725 9
-16.37512 15.63916 -2.140674 36
-16.54515 15.69164 -1.460063 41
-13.59877 15.45999 -1.436983 26
-11.64453 16.01219 -1.492601 29
-9.60421 16.10028 -1.528191 13
-16.63253 15.56669 -0.925307 91
nan nan nan 0
-11.7192 15.95662 -1.035467 11
nan nan nan 0
-16.84859 15.88486 -0.4034996 39
-14.06038 15.94553 -0.4926491 21
-12.334 16.89242 -0.6086489 26
-9.60779 16.02379 -0.6445422 34
-6.700847 11.08041 -2.341379 11
-9.464787 15.91066 -2.078656 29
-10.2546 17.19834 0.8026358 43
-18.3527 17.38104 1.468433 23
nan nan nan 0
nan nan nan 0
nan nan nan 0
nan nan nan 0
-17.38517 16.41356 0.1374806 42
-14.04163 16.00293 0 17
-12.61538 17.34141 -0.1120758 16
-9.798868 16.43366 -0.2232862 29
-17.96105 16.93929 0.7272675 37
-14.34742 16.30552 0.5033261 30
-11.79777 16.15219 0.3414692 19
-10.0562 16.7923 0.2386591 28
nan nan nan 0
-0.251689 0.2420665 -0.08087836 9
-12.71531 12.01925 -2.425507 9
-16.3276 15.70313 -2.141617 35
-16.696 15.94568 -1.478306 35
-13.59723 15.56747 -1.442564 13
-11.5448 15.9921 -1.486951 35
-9.484531 16.02647 -1.518014 8
-16.45082 15.50475 -0.9181923 109
-13.70466 15.53689 -0.9642769 43
-11.67814 16.0176 -1.036775 30
nan nan nan 0
-16.4703 15.6373 -0.3957333 37
-14.00463 15.99451 -0.4926491 11
-12.25736 16.91109 -0.6077746 39
-9.579886 16.10448 -0.6464425 18
-6.669717 11.11639 -2.344056 11
-9.361233 15.86229 -2.068033 31
nan nan nan 0
-18.18353 17.34167 1.45972 34
nan nan nan 0
nan nan nan 0
nan nan nan 0
-19.32891 18.72517 7.200346 43
nan nan nan 0
-13.9167 15.97269 0 17
-12.51673 17.33264 -0.1117355 36
-9.736356 16.45915 -0.2231693 31
nan nan nan 0
-14.30686 16.37432 0.5039063 35
nan nan nan 0
-9.977096 16.79291 0.2381704 42
nan nan nan 0
-0.247312 0.2396363 -0.07961464 10
-12.69121 12.08063 -2.428947 9
-16.29773 15.78426 -2.144917 41
-16.39563 15.76872 -1.456543 44
-13.56242 15.63744 -1.444656 20
-11.59054 16.17416 -1.500133 49
-9.45627 16.10676 -1.522491 15
-16.64668 15.79933 -0.9322184 98
-13.67667 15.61469 -0.9661402 40
-11.91195 16.45874 -1.062682 18
-9.461348 15.93054 -1.075767 40
-16.41923 15.69815 -0.3958206 35
-13.91591 16.00558 -0.4914885 15
-12.14864 16.8848 -0.6052974 45
-9.279923 15.72462 -0.6298581 26
-6.640932 11.15652 -2.347625 11
-9.363515 15.9935 -2.080892 30
nan nan nan 0
nan nan nan 0
-9.71121 16.75483 1.571923 33
-19.85768 19.25082 3.391014 18
nan nan nan 0
-19.34642 18.87346 7.231404 41
-16.90893 16.18884 0.1346008 33
-13.96555 16.14216 0 20
nan nan nan 0
-9.671256 16.4801 -0.2229939 34
-17.23904 16.48753 0.7026418 43
nan nan nan 0
-11.82488 16.42893 0.3455741 14
-9.910805 16.81471 0.2379872 42
nan nan nan 0
-0.242955 0.2371785 -0.07835092 10
-12.67758 12.15226 -2.434452 9
-16.09995 15.70207 -2.12606 44
nan nan nan 0
nan nan nan 0
-12.34887 17.3603 -1.606344 36
-9.334814 16.02769 -1.511907 15
-16.51918 15.78832 -0.9281529 60
-13.57947 15.61335 -0.9631123 48
-11.99424 16.69488 -1.075242 35
-9.37529 15.91185 -1.072281 36
nan nan nan 0
-13.77175 15.9519 -0.4883551 25
-12.01121 16.81729 -0.6013632 42
-9.272922 15.83887 -0.6331404 14
-6.611947 11.19658 -2.351194 10
-9.260243 15.94444 -2.07027 23
-9.880493 16.97227 0.7871851 32
-17.4268 16.85413 1.408313 35
-9.660113 16.80159 1.573139 39
-19.77615 19.30615 3.388577 26
nan nan nan 0
-19.2942 18.9544 7.23658 33
-16.7083 16.10898 0.1334489 33
-13.89935 16.17943 0 26
-12.0302 16.90627 -0.1084368 32
-9.653898 16.5829 -0.2239294 37
-17.2606 16.62386 0.7058859 34
nan nan nan 0
-11.74422 16.43756 0.3448899 23
nan nan nan 0
nan nan nan 0
-0.2491404 0.2446889 -0.08087836 9
-12.65647 12.21707 -2.438581 10
-15.96334 15.67797 -2.115218 44
-15.95643 15.56236 -1.427098 46
-13.53721 15.8303 -1.453725 20
nan nan nan 0
-9.184125 15.89618 -1.496438 8
-16.50358 15.88398 -0.9303889 95
-13.54121 15.67955 -0.9642769 47
-11.77066 16.50492 -1.060326 43
-9.337314 15.97466 -1.074314 36
-16.46001 15.95851 -0.3994856 39
-13.66393 15.93916 -0.4864982 27
-11.92931 16.82649 -0.6001974 43
-9.516068 16.38544 -0.6536981 17
-6.582764 11.23658 -2.354763 10
-9.177259 15.9293 -2.06412 29
-9.836173 17.03262 0.7883891 39
-17.38216 16.92878 1.409475 43
-9.596472 16.82655 1.572328 39
-19.71572 19.38202 3.389796 23
nan nan nan 0
-19.23135 19.02504 7.237875 24
-16.35774 15.88169 0.1310875 45
-13.82007 16.20122 0 28
-11.99708 16.98492 -0.1086724 15
-9.578461 16.58619 -0.2235201 33
nan nan nan 0
-14.15411 16.54604 0.5046027 18
nan nan nan 0
-9.660286 16.65424 0.2347497 14
nan nan nan 0
nan nan nan 0
-12.6244 12.27153 -2.440645 11
-15.9333 15.75809 -2.118518 31
-15.91269 15.62845 -1.428059 52
-13.43989 15.82803 -1.449191 29
-11.30608 16.13132 -1.485068 40
-9.041901 15.77678 -1.48219 13
-16.15738 15.65993 -0.9139236 108
-13.7888 16.0793 -0.9859381 47
-11.73028 16.57035 -1.061896 36
-9.371588 16.16263 -1.08477 22
-16.41494 16.02635 -0.3997473 28
-13.50775 15.86877 -0.4829006 22
-11.93665 16.96204 -0.6035488 40
-9.421415 16.3536 -0.6511068 19
-6.553382 11.27651 -2.358333 9
-9.109282 15.93967 -2.061325 25
-9.746872 17.01482 0.7859811 36
-17.39069 17.05574 1.414993 46
-9.542582 16.86862 1.573139 40
-19.75024 19.55196 3.407467 28
nan nan nan 0
nan nan nan 0
-16.28432 15.92121 0.1309435 40
-13.86039 16.36382 0 27
-10.95618 15.62647 -0.09971894 17
-9.431084 16.46332 -0.2214153 18
-16.49681 16.11205 0.6791958 34
nan nan nan 0
-10.90693 15.49303 0.3234251 22
-9.58963 16.66619 0.2344442 30
nan nan nan 0
-0.25091 0.2497785 -0.08214208 10
-12.61335 12.34669 -2.446838 10
-15.84645 15.78201 -2.114275 36
-15.86514 15.69091 -1.428699 39
-13.28167 15.75283 -1.43803 22
-10.82267 15.55672 -1.428573 45
-8.927697 15.70426 -1.47242 16
-16.09904 15.71275 -0.9137204 91
-13.98519 16.42392 -1.004106 100
-11.81302 16.8114 -1.074719 47
-9.302674 16.17361 -1.083318 24
-16.27689 16.00296 -0.3977403 38
-13.45873 15.92346 -0.4831326 26
-11.96035 17.12244 -0.6077746 39
-9.344449 16.35167 -0.6497248 20
-6.523802 11.31637 -2.361902 10
-9.11236 16.07512 -2.074743 24
-9.660283 17.00095 0.7837738 23
-17.34526 17.13037 1.416155 38
-9.500704 16.93225 1.575976 41
-20.80677 20.74176 3.602458 23
nan nan nan 0
nan nan nan 0
nan nan nan 0
nan nan nan 0
-10.87872 15.63179 -0.09950949 30
-9.314307 16.3918 -0.2200121 22
-16.44047 16.16954 0.6791958 39
-13.24537 15.70454 0.4760534 18
-10.73253 15.35888 0.3198334 21
nan nan nan 0
nan nan nan 0
nan nan nan 0
-12.60546 12.4254 -2.453719 10
nan nan nan 0
-15.92697 15.86237 -1.43926 34
-13.25862 15.83734 -1.441517 22
-10.71165 15.51235 -1.42104 38
-8.836129 15.6702 -1.466314 12
nan nan nan 0
-13.76006 16.27433 -0.991994 52
-11.72285 16.80748 -1.07184 32
-9.221438 16.16262 -1.080414 18
-16.05036 15.89089 -0.3935517 24
-13.35165 15.90909 -0.4812758 25
-11.43355 16.49045 -0.5838774 11
-9.220816 16.2668 -0.6450605 16
-6.491581 11.35189 -2.364579 11
-9.17545 16.31909 -2.102137 20
-9.608236 17.04763 0.7843759 34
-17.22518 17.13099 1.411218 39
-9.443962 16.96967 1.576382 10
-20.72723 20.80723 3.601239 16
-9.980989 17.9427 3.73518 16
nan nan nan 0
-15.91352 15.77759 0.1288412 42
nan nan nan 0
nan nan nan 0
-9.232497 16.38065 -0.2194274 29
-16.13175 15.97719 0.6687263 29
-13.19047 15.75068 0.4760534 26
-10.61048 15.29766 0.317781 23
nan nan nan 0
nan nan nan 0
nan nan nan 0
-12.60771 12.51466 -2.462664 10
-15.34353 15.49618 -2.061477 59
-15.68826 15.73417 -1.422618 37
-13.30211 16.00242 -1.45233 17
-10.69408 15.60311 -1.425936 42
-8.847019 15.8184 -1.477305 10
-15.76165 15.5999 -0.9007107 100
-13.47835 16.05451 -0.9756898 47
-11.62148 16.78671 -1.067915 38
-9.174793 16.21209 -1.081575 17
-15.90981 15.86213 -0.3914575 34
-13.32804 15.99399 -0.4824364 27
-11.37875 16.53438 -0.5840231 17
-9.205587 16.37294 -0.6479973 11
-6.461618 11.3916 -2.368148 10
-9.164385 16.43348 -2.11276 14
-9.577908 17.1334 0.7867838 39
-17.20761 17.23339 1.414703 30
-9.427996 17.08108 1.583678 32
-23.73682 23.99424 4.139292 33
-9.894546 17.93435 3.726214 77
nan nan nan 0
-15.84419 15.81892 0.1287261 45
nan nan nan 0
-11.18206 16.30947 -0.1033317 31
-9.172824 16.40841 -0.2193689 20
-16.37674 16.33332 0.6812603 22
-13.12902 15.78894 0.4758213 24
-12.74524 18.51374 0.3838001 17
-8.729496 15.54489 0.2173404 11
nan nan nan 0
-0.2482807 0.2523923 -0.08214208 10
-12.59899 12.5936 -2.469545 12
-15.1951 15.45383 -2.048749 47
-15.78073 15.93772 -1.43606 17
-13.25252 16.05645 -1.453027 22
-10.64515 15.64859 -1.42669 39
-8.789331 15.84483 -1.476898 12
-15.6894 15.63719 -0.8996943 113
-13.43502 16.11681 -0.9766215 49
-11.38186 16.56378 -1.051168 43
nan nan nan 0
-15.70613 15.76884 -0.3877924 34
-13.28169 16.05197 -0.4827845 35
nan nan nan 0
nan nan nan 0
-6.429048 11.42695 -2.370825 9
-9.114176 16.47842 -2.114437 14
-9.549521 17.22354 0.7893924 31
nan nan nan 0
-9.342006 17.06579 1.579219 22
-23.71553 24.14067 4.15026 38
-9.874361 18.04646 3.742353 42
nan nan nan 0
-15.57021 15.6544 0.1269406 44
-12.79783 15.54448 0 16
-11.06319 16.25745 -0.1027558 33
-9.088838 16.39223 -0.2187258 17
-15.80113 15.86989 0.6595838 37
-13.03881 15.79227 0.4745447 20
-12.71156 18.60352 0.3847408 20
-8.67275 15.5709 0.2172794 18
nan nan nan 0
-0.2370877 0.2430436 -0.07835092 10
-12.6178 12.70072 -2.48193 17
-15.2141 15.58156 -2.058649 27
-15.76349 16.03184 -1.43958 17
-13.28176 16.20677 -1.462444 20
-10.48725 15.53275 -1.412754 55
-8.702759 15.81864 -1.471606 13
-15.77933 15.83693 -0.9080286 98
-13.36275 16.14437 -0.9754568 24
-10.98078 16.10013 -1.019243 17
-8.879377 15.9486 -1.059793 16
-15.5877 15.7596 -0.3862217 39
-13.24779 16.12527 -0.4835969 26
-11.20976 16.53481 -0.5812545 32
-8.65112 15.64084 -0.6165562 18
-6.398703 11.46651 -2.374394 10
-9.078095 16.54935 -2.119469 15
-9.520619 17.31368 0.7920009 16
nan nan nan 0
-8.944927 16.47627 1.52166 17
-23.57219 24.16292 4.139901 43
-9.823032 18.10244 3.746836 31
nan nan nan 0
-15.45573 15.64819 0.126451 44
-12.70551 15.54261 0 22
-11.09311 16.42442 -0.1035674 38
-8.872645 16.13466 -0.214867 17
-15.7843 15.96403 0.6612059 40
-12.96142 15.81063 0.4737323 26
-12.57641 18.54434 0.3826029 34
-8.565187 15.50478 0.2159355 25
nan nan nan 0
-0.2362379 0.2438698 -0.07835092 9
-12.58035 12.75174 -2.483306 36
nan nan nan 0
-15.43198 15.80479 -1.414296 28
-13.19048 16.21047 -1.458608 25
-10.38302 15.49471 -1.405975 49
-8.618863 15.79642 -1.466721 11
-15.63257 15.7996 -0.9027435 122
nan nan nan 0
nan nan nan 0
-8.794714 15.92706 -1.056308 20
-15.60617 15.8888 -0.3880542 37
-13.21986 16.20628 -0.4846413 30
-11.01528 16.37064 -0.5741146 43
-8.630097 15.73229 -0.6189747 17
-6.368161 11.506 -2.377963 9
nan nan nan 0
nan nan nan 0
-16.52007 16.89526 1.37259 39
-8.88972 16.51178 1.522066 36
-24.16807 24.94714 4.259943 26
nan nan nan 0
nan nan nan 0
-15.46755 15.76985 0.1269982 42
-12.67955 15.6218 0 23
-10.99952 16.40905 -0.103227 31
-9.000496 16.50357 -0.2193689 13
-15.7565 16.04755 0.6623855 42
-12.83988 15.77438 0.4712952 24
-12.36087 18.36416 0.377985 32
-8.477401 15.47319 0.2150803 27
nan nan nan 0
-0.2285592 0.2378359 -0.07582346 10
-12.54616 12.80618 -2.485371 38
-15.21201 15.79852 -2.073263 62
-15.36629 15.84782 -1.413336 24
-13.15889 16.28745 -1.461398 25
-10.32059 15.5184 -1.404845 37
-8.637149 15.9623 -1.479341 11
-15.56682 15.84338 -0.9021336 88
-13.18656 16.15988 -0.9707986 50
-10.84306 16.13909 -1.016888 37
-8.803764 16.07589 -1.064149 13
-15.63092 16.02547 -0.3900613 36
-13.0342 16.09307 -0.4798831 28
-10.92754 16.36327 -0.5725117 40
-8.651503 15.90281 -0.6245028 15
-6.337421 11.54541 -2.381532 10
nan nan nan 0
-9.382888 17.34896 0.7905962 7
-16.33231 16.82035 1.361844 47
-8.874253 16.62186 1.529362 43
-21.4277 22.27433 3.790136 23
nan nan nan 0
nan nan nan 0
-15.4159 15.82733 0.127027 36
-12.94813 16.06693 0 26
-10.82311 16.26834 -0.1021013 35
-8.59814 15.89713 -0.2108912 14
-15.60267 16.00229 0.6582567 42
-12.68104 15.69081 0.4674654 25
-10.98608 16.44499 0.337621 10
-8.432879 15.52027 0.2153246 29
nan nan nan 0
-0.2277276 0.2386323 -0.07582346 10
-12.52211 12.87119 -2.489499 18
-15.15677 15.85153 -2.073263 18
-15.30395 15.89417 -1.412696 43
-13.04889 16.26715 -1.455469 27
-10.26361 15.55017 -1.404468 32
-8.6167 16.05823 -1.485447 12
-15.41022 15.79395 -0.8962387 113
-13.14265 16.22133 -0.9717302 76
-10.78942 16.18099 -1.017149 41
nan nan nan 0
-15.48095 15.983 -0.3877052 33
-12.99988 16.16574 -0.4806955 20
-10.82067 16.32633 -0.5698889 54
-8.512943 15.77896 -0.6184565 13
-6.306484 11.58475 -2.385101 9
-8.876185 16.59092 -2.11276 6
-9.329353 17.39482 0.7911983 19
-16.26656 16.87007 1.361263 41
-8.816178 16.65273 1.529362 37
-21.51097 22.51762 3.818776 30
-9.276514 17.53031 3.607865 14
nan nan nan 0
-15.26668 15.78403 0.1262494 45
-13.01068 16.26037 0 19
-10.74973 16.28098 -0.1019442 37
-8.521339 15.88738 -0.210365 16
-15.42153 15.92742 0.6529481 41
-12.56987 15.66481 0.4653764 18
-10.90651 16.4499 0.3369368 35
-8.376282 15.54521 0.2152635 31
nan nan nan 0
nan nan nan 0
-12.51152 12.95043 -2.49638 14
-15.07049 15.87185 -2.06902 40
-15.11041 15.80327 -1.399894 32
-13.00135 16.32431 -1.456515 26
-10.28848 15.70686 -1.415391 42
-8.523162 16.01781 -1.478934 9
-15.52538 16.02341 -0.9061991 76
-13.1423 16.33715 -0.9759227 47
-10.58685 15.99786 -1.00328 31
-8.627447 16.01828 -1.056308 8
-15.29681 15.90366 -0.3844765 20
nan nan nan 0
-11.06294 16.81916 -0.5857717 98
-8.375353 15.65435 -0.6124101 11
-6.273013 11.61968 -2.387778 9
nan nan nan 0
-9.256853 17.40522 0.7901949 22
-16.23175 16.95198 1.363296 35
nan nan nan 0
-21.30584 22.45938 3.79623 17
-9.089631 17.32298 3.558553 78
nan nan nan 0
-15.18377 15.80839 0.1260191 38
-12.83876 16.16085 0 17
-10.68461 16.30586 -0.1018657 42
-8.454098 15.89496 -0.2100726 13
-14.99509 15.59577 0.6371701 40
-12.50577 15.69687 0.4650283 16
-10.89299 16.55469 0.3383051 26
-8.331388 15.59199 0.2155079 23
nan nan nan 0
-0.2429405 0.2575365 -0.08214208 9
-12.4731 13.00117 -2.497756 14
-15.13796 16.05471 -2.085991 44
-15.04485 15.84507 -1.398934 40
nan nan nan 0
nan nan nan 0
nan nan nan 0
nan nan nan 0
-13.01038 16.28927 -0.9703327 55
-10.56931 16.09314 -1.006944 33
-8.775957 16.43141 -1.081575 10
-15.07887 15.78709 -0.3803752 45
-13.50782 17.03947 -0.5039063 17
-10.77744 16.51029 -0.5736774 50
-8.262145 15.57311 -0.6080913 15
-6.241695 11.65886 -2.391347 9
-8.392546 15.9532 -2.023866 10
nan nan nan 0
nan nan nan 0
nan nan nan 0
-21.1184 22.41804 3.776731 37
-8.697827 16.71741 3.427651 9
nan nan nan 0
-15.18028 15.91555 0.126451 29
-12.81323 16.24482 0 14
-10.63853 16.35982 -0.1019704 36
-8.379915 15.88898 -0.2096049 11
-15.01651 15.72752 0.6404142 32
nan nan nan 0
-10.83514 16.59261 0.3383051 23
-8.269892 15.60772 0.2153246 30
nan nan nan 0
nan nan nan 0
-12.42423 13.04104 -2.497068 15
-15.00696 16.02754 -2.07562 17
-14.95178 15.85756 -1.395413 39
-13.53088 17.23457 -1.529411 22
-10.58122 16.40261 -1.471509 25
-8.415746 16.08576 -1.479748 8
-15.20601 15.91474 -0.8940027 101
-12.97516 16.36198 -0.9719632 45
-10.49671 16.10484 -1.005374 31
-8.429017 15.91489 -1.045561 12
-15.11314 15.93391 -0.382644 37
-12.79896 16.26171 -0.479535 35
-10.53771 16.26675 -0.5639146 29
-8.186808 15.56205 -0.6065365 18
-6.207876 11.69362 -2.394024 9
-8.316138 15.94275 -2.018835 16
-8.781099 16.79196 0.7594941 7
-15.69825 16.62583 1.328153 44
-9.395082 18.2058 1.663125 9
-21.06714 22.52061 3.781605 40
-8.630404 16.73018 3.424065 37
nan nan nan 0
-14.96643 15.8015 0.1251263 36
-12.93219 16.51381 0 11
-10.60304 16.43047 -0.1021798 27
-8.349873 15.96688 -0.210248 14
-15.16446 15.99377 0.6491143 37
nan nan nan 0
nan nan nan 0
-8.220009 15.64535 0.2154468 28
nan nan nan 0
nan nan nan 0
-12.37522 13.08074 -2.49638 16
-14.75089 15.86479 -2.047807 18
-14.83834 15.84775 -1.389973 14
-13.5105 17.33283 -1.533945 15
-10.51852 16.43104 -1.470756 17
-8.338904 16.07522 -1.476084 10
nan nan nan 0
-12.88398 16.36401 -0.9694011 74
nan nan nan 0
-8.308464 15.82045 -1.037429 17
-14.99229 15.91744 -0.380986 39
nan nan nan 0
-10.45114 16.25719 -0.5623117 47
-8.120887 15.56837 -0.6056727 16
-6.17389 11.72828 -2.396701 8
-8.547866 16.52785 -2.089278 12
-8.694851 16.76928 0.7570863 28
-15.68793 16.73149 1.33222 44
-8.927649 17.44866 1.590974 17
-21.01543 22.62309 3.78648 40
-8.556284 16.72954 3.417789 32
nan nan nan 0
-14.82209 15.75897 0.1243776 22
-12.81922 16.48781 0 12
-10.5618 16.49265 -0.1023369 36
-8.310186 16.027 -0.2106573 13
-15.10169 16.03933 0.6488193 40
nan nan nan 0
-10.57574 16.44499 0.3337727 33
-8.188431 15.71829 0.2160577 22
nan nan nan 0
-0.2302091 0.2495688 -0.07835092 10
-12.31592 13.10942 -2.493628 17
-14.64814 15.865 -2.041207 32
nan nan nan 0
nan nan nan 0
-10.61614 16.71176 -1.492601 12
-8.248573 16.03774 -1.469978 12
-14.66274 15.56246 -0.86839 68
-12.78064 16.34986 -0.9659073 50
-10.12514 15.77431 -0.9802524 29
-8.248583 15.8405 -1.036849 15
-14.89906 15.92952 -0.3800261 21
-12.70658 16.37831 -0.4803474 36
-10.31639 16.17137 -0.558086 13
-8.061906 15.58775 -0.6053272 17
-6.139737 11.76285 -2.399378 8
-8.225027 16.04021 -2.023866 10
-9.608765 18.69263 0.842567 11
-15.61242 16.76789 1.330767 38
-8.391267 16.5418 1.505447 13
-20.94306 22.7036 3.787699 31
-8.562307 16.88655 3.44379 60
nan nan nan 0
-14.92061 15.97501 0.1256735 26
-12.95103 16.77783 0 14
-10.51757 16.55051 -0.1024678 33
-8.304451 16.15375 -0.2119436 10
-14.98073 16.0226 0.6460176 35
nan nan nan 0
-10.51289 16.47337 0.3336017 33
-8.158739 15.79565 0.2167296 16
nan nan nan 0
-0.2226801 0.2433491 -0.07582346 9
-12.25657 13.13785 -2.490875 28
-14.84167 16.18748 -2.076091 44
-14.52081 15.72737 -1.37045 22
nan nan nan 0
-9.996841 15.85872 -1.413131 25
-8.140505 15.96431 -1.460615 12
-14.6015 15.60626 -0.8679835 87
-12.83986 16.5443 -0.9747581 38
-10.06733 15.80535 -0.9799908 33
-8.271051 16.02002 -1.046723 12
nan nan nan 0
-12.63407 16.40276 -0.4797671 35
-10.24384 16.18194 -0.5572117 12
-8.009724 15.62024 -0.6055 14
-6.107678 11.80169 -2.402947 8
-8.105977 15.94479 -2.008212 14
-11.9151 23.38268 1.052456 6
-14.96062 16.18105 1.279942 41
-8.158939 16.22366 1.47383 26
-20.34736 22.2131 3.69386 32
-8.706435 17.32074 3.526276 76
nan nan nan 0
-14.75252 15.90605 0.1247232 32
-12.96843 16.92215 0 17
-10.49174 16.63788 -0.102782 39
-8.125487 15.94206 -0.2087864 11
-14.8805 16.02719 0.6441007 25
nan nan nan 0
-10.5302 16.62824 0.3359962 31
-8.146825 15.9086 0.2178902 19
nan nan nan 0
nan nan nan 0
-12.19717 13.16603 -2.488123 30
-14.45658 15.87855 -2.029893 25
-14.43884 15.74855 -1.367889 35
nan nan nan 0
-9.999582 15.98652 -1.421417 27
-8.060015 15.9437 -1.456137 10
-14.58775 15.70104 -0.8704228 102
-12.83387 16.65627 -0.9787178 31
-10.0041 15.82773 -0.9792057 32
-8.176438 15.97325 -1.041786 13
nan nan nan 0
-12.55852 16.42294 -0.4790708 33
-10.24046 16.30225 -0.5601259 45
-7.964203 15.66593 -0.606191 12
-6.073177 11.83607 -2.405624 9
-8.050269 15.97299 -2.008212 11
-10.10853 20.00798 0.8987514 7
-15.46459 16.8434 1.328153 45
-8.053371 16.15391 1.464912 48
-20.22293 22.2326 3.685329 40
-8.472713 17.00316 3.455446 17
nan nan nan 0
-14.76129 16.02731 0.1252703 38
nan nan nan 0
-10.40708 16.63201 -0.1025202 38
-7.97965 15.79181 -0.2064477 15
-14.54998 15.78148 0.6321564 42
nan nan nan 0
-10.47476 16.66913 0.3360817 34
-8.073149 15.90127 0.2174015 17
nan nan nan 0
nan nan nan 0
-12.13772 13.19395 -2.485371 30
-14.25414 15.76649 -2.009151 36
-14.34346 15.75459 -1.364049 32
nan nan nan 0
nan nan nan 0
-8.008774 15.98065 -1.456951 10
-14.48542 15.70047 -0.867577 96
-12.70888 16.6137 -0.9735936 76
-9.879819 15.75257 -0.972402 35
-8.104828 15.97053 -1.039753 13
-16.18373 17.66957 -0.4175488 27
-12.5253 16.49853 -0.4799992 37
-10.16763 16.31245 -0.5592517 40
nan nan nan 0
-6.040741 11.87474 -2.409193 9
-7.976711 15.96543 -2.003739 13
-8.734921 17.43855 0.7817673 31
nan nan nan 0
-8.096229 16.383 1.483153 31
-20.13855 22.29569 3.68411 26
-8.341463 16.88707 3.425858 34
nan nan nan 0
-14.85376 16.24104 0.1265374 39
nan nan nan 0
-10.31732 16.61726 -0.102206 40
-7.834963 15.64073 -0.204109 14
-14.4948 15.83217 0.6321564 39
-12.44757 16.432 0.4776781 17
-10.3927 16.66741 0.335312 35
-8.01984 15.93382 0.2174626 17
nan nan nan 0
-0.2267021 0.2527587 -0.07835092 10
-12.08156 13.22527 -2.483306 32
-14.08925 15.69394 -1.993594 49
-14.3252 15.84527 -1.367569 14
-12.06387 16.04709 -1.401059 39
-11.10584 18.0344 -1.596928 8
-7.939647 15.98173 -1.454509 8
-14.4339 15.75462 -0.8677802 99
-12.56622 16.5466 -0.9670719 28
-9.76674 15.69369 -0.9666451 26
-8.071451 16.04332 -1.042657 10
nan nan nan 0
-12.68729 16.83353 -0.4884712 30
-9.987088 16.14805 -0.5524032 39
-8.403712 16.82097 -0.6486883 13
-6.005894 11.90893 -2.41187 9
-7.969416 16.09114 -2.016039 10
-8.631804 17.38391 0.7779548 35
-14.82051 16.37012 1.282555 43
-7.973264 16.27688 1.470992 30
nan nan nan 0
-8.120336 16.5847 3.358614 42
nan nan nan 0
-14.82052 16.31869 0.126739 28
-12.67351 16.90102 0 12
-10.15174 16.47863 -0.1011326 38
-7.786987 15.68142 -0.2042844 13
-14.48317 15.93073 0.6340734 41
-12.42018 16.5153 0.4788387 8
-10.32131 16.68232 0.3348844 36
-8.222947 16.48074 0.2245485 18
nan nan nan 0
-0.2258184 0.2535485 -0.07835092 10
-12.01535 13.24536 -2.479178 33
-14.05095 15.7616 -1.995951 51
-14.32315 15.95457 -1.37269 16
-12.0227 16.10909 -1.402803 37
-9.82123 16.07334 -1.41991 8
-7.921215 16.08536 -1.461429 10
-14.40572 15.83447 -0.8694064 71
-12.71588 16.86552 -0.9831432 69
-9.711899 15.72769 -0.9666451 25
-8.133402 16.30817 -1.05805 9
-16.73366 18.5277 -0.4350885 13
nan nan nan 0
-9.894071 16.12317 -0.5503631 41
-8.371542 16.90394 -0.6507613 7
-5.973081 11.94743 -2.415439 9
-7.91101 16.1144 -2.01548 13
-8.502717 17.27496 0.7717344 26
-14.70653 16.35866 1.277618 35
-7.907698 16.28668 1.469371 41
-20.48752 23.00266 3.77734 39
-8.090298 16.67049 3.37027 34
nan nan nan 0
-14.65628 16.25153 0.1258175 38
-12.52188 16.82084 0 11
-10.06548 16.46704 -0.1008447 37
-7.73882 15.72197 -0.2044598 16
-14.42077 15.97377 0.6337785 33
-12.72734 17.04719 0.4929973 21
-10.399 16.93981 0.3393313 39
-8.180875 16.54072 0.2249761 11
nan nan nan 0
-0.2183992 0.2471983 -0.07582346 11
-11.98231 13.30193 -2.48193 37
-13.92324 15.72857 -1.98558 82
-14.11127 15.82945 -1.357648 22
-12.00203 16.19905 -1.406988 31
-9.860682 16.26528 -1.433846 12
-7.895603 16.17562 -1.467128 10
-14.25656 15.78088 -0.8637147 101
-12.25583 16.37404 -0.9519323 68
-9.683022 15.80407 -0.9692619 24
-8.076427 16.33647 -1.05805 10
-14.96951 16.69201 -0.3906721 12
-12.62014 16.98991 -0.4904441 16
-9.788352 16.0765 -0.5475945 47
nan nan nan 0
-5.937888 11.98143 -2.418116 10
nan nan nan 0
-8.236569 16.8824 0.7528724 24
-14.61277 16.36895 1.274423 41
-7.883192 16.38155 1.475451 37
-20.38737 23.05174 3.773684 37
-8.078935 16.79616 3.389994 33
nan nan nan 0
-14.54942 16.24674 0.1253855 37
-12.70084 17.18611 0 18
-10.00534 16.4978 -0.1008185 33
-7.659794 15.69945 -0.2038167 16
-14.35157 16.00913 0.6331887 39
-12.06644 16.28036 0.4695543 6
-10.35541 17.00163 0.3398444 35
-8.191273 16.70836 0.2268697 14
nan nan nan 0
-0.2207889 0.251539 -0.07708719 9
-11.9292 13.3363 -2.480554 36
-13.84524 15.75091 -1.98228 39
-13.86405 15.66196 -1.339085 44
-11.8863 16.16049 -1.400012 38
-9.770443 16.24405 -1.428949 11
-7.867287 16.2614 -1.47242 6
-14.11796 15.7376 -0.8586328 99
-11.40611 15.35041 -0.8899763 13
-9.671882 15.91031 -0.9737104 22
-8.04789 16.42284 -1.061826 15
-14.3857 16.15441 -0.3768847 30
-12.56075 17.03386 -0.4904441 27
-9.853615 16.31164 -0.5544431 38
-8.272991 17.00242 -0.6523161 13
-5.904699 12.01975 -2.421685 9
-7.994609 16.57656 -2.066356 12
-8.175415 16.90655 0.7526717 31
-14.58204 16.44973 1.276747 39
-7.81953 16.39547 1.474235 37
-20.96514 23.87215 3.896163 42
-7.899682 16.57113 3.338889 25
nan nan nan 0
-14.23671 16.0098 0.1231681 34
nan nan nan 0
-9.883259 16.42551 -0.100164 35
-7.591894 15.69908 -0.2034658 15
-14.82081 16.64881 0.6564872 29
nan nan nan 0
-10.24946 16.96065 0.3383051 12
-8.191863 16.85828 0.228519 14
nan nan nan 0
-0.2263924 0.2594904 -0.07961464 10
-11.89573 13.39267 -2.483306 37
-13.73124 15.73166 -1.973795 36
-13.71044 15.59785 -1.329483 31
nan nan nan 0
-9.44802 15.83276 -1.38978 17
-7.79971 16.26629 -1.470385 5
-14.06294 15.78679 -0.8586328 99
-11.25757 15.26152 -0.882523 36
-9.500258 15.75156 -0.9619348 27
-7.973078 16.41491 -1.059502 15
-14.29941 16.17083 -0.3760993 23
-12.48941 17.06147 -0.4899798 25
-9.83515 16.41025 -0.5566289 40
-8.239623 17.08521 -0.6543891 9
-5.869163 12.05356 -2.424362 9
nan nan nan 0
-8.122825 16.94851 0.7532738 15
-14.36287 16.31698 1.262515 49
-7.847379 16.60292 1.490449 13
-20.54239 23.55626 3.832791 42
-7.948881 16.82546 3.384615 35
nan nan nan 0
-14.15425 16.02942 0.1229377 43
-12.61882 17.3269 0 10
-9.874549 16.54148 -0.1006614 32
-7.508974 15.66687 -0.2027058 10
-14.91159 16.86891 0.6631228 26
-11.82274 16.1866 0.464448 28
-10.37783 17.30934 0.3445478 16
-8.332435 17.30124 0.2341388 5
nan nan nan 0
nan nan nan 0
-11.85547 13.44153 -2.484683 38
-13.64037 15.73812 -1.968609 13
-13.59683 15.57796 -1.323722 37
-11.5302 15.9079 -1.371063 36
-9.387616 15.85707 -1.389026 27
-7.72792 16.26191 -1.467535 10
-13.79585 15.59635 -0.8456233 92
-11.1334 15.20402 -0.8769329 34
-9.65542 16.13599 -0.9833925 16
-7.928713 16.46963 -1.061245 11
-14.14059 16.10422 -0.3733942 15
-12.45329 17.13731 -0.4909083 25
-9.749715 16.39722 -0.555026 38
-8.192858 17.14093 -0.6554256 7
-5.833462 12.08727 -2.427039 10
nan nan nan 0
nan nan nan 0
-14.27626 16.3332 1.259902 38
-7.80205 16.65729 1.492881 16
-20.4243 23.58656 3.826088 36
-7.931787 16.94222 3.402547 40
nan nan nan 0
-14.24989 16.25162 0.1242624 44
-12.62565 17.46403 0 10
-9.82439 16.58876 -0.1007399 30
-7.449953 15.68395 -0.2025888 13
-14.43708 16.4477 0.644543 50
-12.05082 16.62029 0.4757052 24
-10.1257 17.0232 0.3381341 32
nan nan nan 0
nan nan nan 0
-0.2149265 0.2502235 -0.07582346 11
-11.74319 13.40834 -2.470921 38
-13.77373 16.00442 -1.995951 19
-13.55218 15.63664 -1.324683 47
-11.47169 15.944 -1.370715 38
-9.322109 15.87254 -1.38752 30
-7.711422 16.37446 -1.47527 9
-13.81717 15.73072 -0.8502985 87
-11.05382 15.20643 -0.8748367 44
-9.474161 15.95919 -0.9705703 18
nan nan nan 0
-14.01527 16.07437 -0.3715617 37
-12.45188 17.26175 -0.4932294 18
-9.705112 16.45268 -0.5557545 35
-7.40182 15.62475 -0.5963441 10
-5.797597 12.12088 -2.429716 10
-7.698202 16.39846 -2.03393 18
-8.678371 18.43791 0.8168826 19
-14.26825 16.43947 1.264258 40
-8.827839 19.0218 1.702444 17
-20.43245 23.76306 3.84315 40
-7.862254 16.94748 3.398064 38
nan nan nan 0
-13.96318 16.03736 0.1222466 33
nan nan nan 0
-9.774021 16.63588 -0.1008185 24
-7.378137 15.67367 -0.2021211 14
-14.44528 16.57333 0.6474922 26
-12.07743 16.7799 0.4790708 27
-10.04843 17.0283 0.3375354 41
-7.65165 16.17472 0.2181346 17
nan nan nan 0
nan nan nan 0
-11.66055 13.40816 -2.463352 37
-14.03155 16.41939 -2.041678 21
-13.61147 15.81619 -1.335884 47
-11.39857 15.95959 -1.368622 38
-9.259118 15.89206 -1.38639 21
-7.694234 16.48709 -1.483004 9
-13.80488 15.82779 -0.8529412 110
-14.0377 19.45276 -1.116838 22
-9.489332 16.11264 -0.9778973 16
-7.743174 16.37564 -1.051661 11
-13.84779 15.99472 -0.3685948 23
-12.40611 17.32543 -0.4938096 12
-9.07219 15.5029 -0.5225317 9
-7.338746 15.63239 -0.5956531 33
-5.761569 12.15438 -2.432393 9
-7.640914 16.42523 -2.03393 15
-8.947433 19.18356 0.8485868 5
-14.24011 16.5232 1.266872 45
-8.32232 18.09702 1.616916 21
-20.36872 23.85687 3.846806 52
-7.72503 16.80497 3.363994 30
nan nan nan 0
-14.00197 16.19567 0.1230817 36
-12.17846 17.09567 0 16
-9.647923 16.55326 -0.1001116 25
-7.342391 15.74011 -0.2026473 11
-14.38407 16.61987 0.6473447 45
-12.02169 16.82602 0.4791868 31
-10.01923 17.11505 0.3385617 31
-7.590902 16.19228 0.2180124 15
nan nan nan 0
nan nan nan 0
-11.6072 13.44128 -2.461976 39
nan nan nan 0
-13.6113 15.92808 -1.341325 41
-11.2245 15.83247 -1.354322 41
-9.188622 15.89838 -1.38413 22
-7.887471 17.05671 -1.531854 8
-13.65467 15.76639 -0.8470461 68
-12.16621 16.9844 -0.972429 45
-9.400291 16.08962 -0.9744954 17
-7.673264 16.37545 -1.049918 9
-13.73319 15.97473 -0.3670241 24
nan nan nan 0
-9.01802 15.53448 -0.5225317 22
-7.273602 15.63526 -0.5947893 18
-5.725377 12.18778 -2.43507 10
-7.593925 16.47437 -2.036725 9
-8.941163 19.34621 0.8544058 6
-14.11418 16.49318 1.260773 43
-8.748518 19.20088 1.712983 25
-20.4105 24.07544 3.87057 50
-7.637798 16.76915 3.351441 37
nan nan nan 0
nan nan nan 0
-12.07829 17.08093 0 15
-9.545042 16.50892 -0.09964038 21
-7.295788 15.7838 -0.2028812 15
nan nan nan 0
-12.04964 16.9902 0.4826685 14
-10.02218 17.258 0.3406996 18
-7.481709 16.10531 0.2164852 8
nan nan nan 0
nan nan nan 0
-11.52797 13.44413 -2.455095 38
-13.67596 16.23151 -2.006322 6
-14.05939 16.5689 -1.391253 50
-11.12036 15.80221 -1.348393 39
-9.10332 15.87845 -1.379611 17
-7.952354 17.356 -1.556279 6
-13.58 15.79124 -0.8458266 98
nan nan nan 0
-9.431688 16.27354 -0.9836543 10
-7.57614 16.3161 -1.0444 12
-13.81046 16.17843 -0.3706018 17
-11.25018 15.94541 -0.4521463 13
-8.933816 15.51388 -0.5207831 31
-7.223162 15.66963 -0.5951348 16
-5.689023 12.22108 -2.437747 10
-7.495116 16.41037 -2.025543 18
-8.763395 19.13652 0.8437709 29
-14.14058 16.64122 1.268324 40
-8.769558 19.42664 1.730412 35
nan nan nan 0
-7.563041 16.75984 3.344269 17
nan nan nan 0
-13.72958 16.10662 0.1216706 30
-11.9755 17.0616 0 28
-9.377927 16.35129 -0.09848848 16
-7.24689 15.82281 -0.2030566 12
-14.13788 16.56785 0.6414464 31
nan nan nan 0
-9.916967 17.2149 0.3391603 27
nan nan nan 0
nan nan nan 0
-0.2177429 0.2605165 -0.07835092 11
-11.46491 13.46544 -2.451654 37
-13.54574 16.19136 -1.99548 42
-13.66378 16.21729 -1.357648 21
-11.028 15.78778 -1.343858 28
-9.001017 15.82778 -1.372454 16
-7.813492 17.2112 -1.54081 7
-13.45989 15.76258 -0.8417611 111
-11.22641 15.90604 -0.9060476 85
-9.359897 16.28039 -0.9820842 15
-7.462845 16.22 -1.036558 13
-13.86384 16.35618 -0.3735687 17
-11.24033 16.05009 -0.4540031 29
-8.889522 15.56233 -0.5213659 31
nan nan nan 0
-5.652504 12.25426 -2.440423 10
-7.443928 16.45002 -2.027221 15
-8.64084 19.04415 0.8383531 14
-14.12426 16.74006 1.2721 42
-8.337724 18.64271 1.657856 18
nan nan nan 0
-7.43628 16.63343 3.313785 33
nan nan nan 0
-13.63127 16.10484 0.1212962 34
-14.08268 20.21281 0 17
-9.288656 16.32742 -0.09814814 20
-7.216387 15.90265 -0.2037582 14
-14.0735 16.60947 0.6411515 39
-11.18622 16.00864 0.4524944 11
nan nan nan 0
-7.763021 17.02155 0.2280914 17
nan nan nan 0
-0.2105267 0.2539364 -0.07582346 10
-11.45942 13.55453 -2.460599 44
-13.24097 15.93994 -1.95871 45
-13.3765 15.98939 -1.334604 12
-10.88471 15.69912 -1.333046 35
-8.852649 15.69407 -1.358142 18
-7.749281 17.22928 -1.539996 7
-13.48235 15.90089 -0.8466396 101
-11.64948 16.62821 -0.9449448 84
-9.038383 15.84884 -0.9540845 16
-7.408251 16.25049 -1.036849 12
-13.67786 16.25151 -0.3700783 14
-11.94898 17.18914 -0.4851056 35
-8.842535 15.60632 -0.5218031 29
-7.482104 16.5347 -0.6260576 13
-5.615825 12.28734 -2.4431 11
-7.396617 16.49857 -2.030016 15
nan nan nan 0
-14.06895 16.79309 1.27239 47
-8.621616 19.46005 1.72798 18
nan nan nan 0
-7.429927 16.77624 3.337096 32
nan nan nan 0
-13.82597 16.45082 0.1235424 45
-11.93005 17.25171 0 12
-9.283199 16.4512 -0.09869792 14
-7.144444 15.89126 -0.2032904 15
-14.02509 16.66997 0.6415938 15
-11.64313 16.78687 0.4733841 18
-8.753936 15.44391 0.3029866 16
-7.76528 17.18524 0.229924 13
nan nan nan 0
-0.2159188 0.2620302 -0.07835092 9
-11.50759 13.70821 -2.481242 46
-14.4272 17.49106 -2.143503 10
-13.23449 15.93238 -1.325963 34
-10.77894 15.66306 -1.326768 37
-8.778342 15.69007 -1.355129 18
-7.603962 17.06502 -1.522899 8
-13.47505 16.00517 -0.8496888 107
-11.73681 16.87789 -0.9568235 101
-9.034623 15.97156 -0.9595797 16
-7.339161 16.24895 -1.035106 9
-13.38696 16.01918 -0.3637081 15
-11.93433 17.29657 -0.4869624 21
-8.80759 15.67195 -0.5229688 33
-7.450899 16.62 -0.6283034 13
-5.578983 12.32032 -2.445777 11
-7.371228 16.59696 -2.038961 11
-9.561895 21.47293 0.9424951 15
-14.11881 16.97254 1.282265 62
nan nan nan 0
nan nan nan 0
-7.99536 18.2257 3.620417 31
nan nan nan 0
-13.70117 16.41838 0.1229377 28
nan nan nan 0
-9.269665 16.56204 -0.09916915 10
-7.080799 15.89783 -0.2030566 15
-14.63991 17.52411 0.6725602 32
-11.7829 17.11561 0.4815079 10
-8.699974 15.47437 0.3029866 16
nan nan nan 0
nan nan nan 0
-0.2087488 0.2554 -0.07582346 10
-11.51043 13.80915 -2.492251 37
-13.23032 16.1552 -1.973795 32
nan nan nan 0
-10.71857 15.69236 -1.326071 40
nan nan nan 0
-7.490049 16.96835 -1.511907 7
nan nan nan 0
-11.76295 17.04206 -0.963811 47
-8.927518 15.91155 -0.9540845 17
-7.292584 16.29726 -1.036558 10
nan nan nan 0
-11.79762 17.22678 -0.483829 24
-8.713905 15.63274 -0.5206374 29
-7.344193 16.53629 -0.6241574 10
-5.541979 12.35319 -2.448454 10
-7.283257 16.55436 -2.030575 12
-7.443365 16.87071 0.7390269 29
-14.18985 17.17948 1.294173 26
-7.977241 18.34962 1.624212 17
nan nan nan 0
-7.917978 18.22191 3.614141 27
nan nan nan 0
-14.25965 17.20899 0.1284957 26
-11.23497 16.49165 0 8
-9.187532 16.55058 -0.09890736 12
-6.970808 15.79893 -0.201478 13
-14.50204 17.48281 0.6690212 18
nan nan nan 0
-8.658078 15.52648 0.3034142 8
-7.104291 16.01859 0.2136142 11
nan nan nan 0
nan nan nan 0
-11.35159 13.71575 -2.468168 27
-12.6838 15.59892 -1.900255 18
-13.79654 16.84648 -1.394133 33
-10.62454 15.67188 -1.321187 38
-8.687818 15.78592 -1.358142 17
-7.466685 17.07659 -1.519235 7
-13.22254 15.92975 -0.8407447 102
nan nan nan 0
-8.888916 15.97316 -0.9559162 16
-7.257887 16.37282 -1.039753 11
-13.13806 15.94638 -0.3599559 34
-11.02357 16.21787 -0.4543512 25
-8.637524 15.6237 -0.519326 29
-7.358819 16.72651 -0.6303764 10
-5.504813 12.38595 -2.451131 10
-7.312706 16.78012 -2.055175 10
-7.406422 16.94695 0.7412342 14
-14.07597 17.16331 1.289235 22
-7.379373 17.13677 1.514364 16
nan nan nan 0
-7.691086 17.86986 3.538828 31
nan nan nan 0
nan nan nan 0
-11.19974 16.5639 0 24
-8.915123 16.19271 -0.09657735 16
-6.891608 15.76819 -0.2007764 12
nan nan nan 0
-11.23941 16.5728 0.4639838 17
-8.56996 15.49535 0.3022169 20
-7.114649 16.19437 0.2156301 15
nan nan nan 0
-0.2100619 0.260564 -0.07708719 10
-11.40116 13.87387 -2.489499 33
-12.8232 15.88318 -1.929483 43
-13.82897 17.00678 -1.403415 22
-10.42218 15.48955 -1.302702 36
-8.615945 15.78551 -1.355506 18
-7.424844 17.14371 -1.522899 5
-13.17639 15.98737 -0.8413545 111
nan nan nan 0
-8.792095 15.92977 -0.9514677 17
-7.200692 16.39805 -1.039753 11
-13.12348 16.04243 -0.3610902 27
-10.94453 16.2231 -0.4534228 29
-8.56852 15.62745 -0.5184516 25
-7.104883 16.3031 -0.6134466 10
-5.465507 12.41409 -2.452916 10
-7.259992 16.81923 -2.056852 8
nan nan nan 0
-13.94976 17.13107 1.283136 42
-7.313648 17.14866 1.513148 15
nan nan nan 0
-7.703835 18.0731 3.573795 38
nan nan nan 0
-12.79757 15.66667 0.1162854 23
-11.03318 16.44099 0 26
-8.928022 16.351 -0.09733657 15
-6.838509 15.79673 -0.2008348 13
-12.7529 15.59544 0.5932273 15
-11.15637 16.57462 0.4629393 33
-8.460531 15.42436 0.3002501 17
-7.109911 16.33831 0.2172183 21
nan nan nan 0
-0.2122392 0.2650194 -0.07835092 8
-11.40904 13.98264 -2.501885 46
-12.72408 15.87348 -1.922883 51
-13.47166 16.6862 -1.37301 39
-10.31264 15.44288 -1.295726 32
-8.636724 15.95581 -1.367558 16
-7.321765 17.06875 -1.513943 7
-13.15848 16.07965 -0.8437937 107
nan nan nan 0
-8.741231 15.96913 -0.9519911 17
nan nan nan 0
-13.10839 16.13858 -0.3622247 35
-10.82108 16.16153 -0.4506375 37
-8.509144 15.64849 -0.5181602 28
-7.065742 16.3691 -0.6150014 11
-5.42607 12.44212 -2.4547 10
-7.203189 16.84904 -2.057411 7
-6.941681 16.19 0.7059183 14
-13.90558 17.19907 1.284588 14
-7.319623 17.3302 1.52693 14
nan nan nan 0
-7.04616 16.69034 3.294956 12
nan nan nan 0
-12.78061 15.75784 0.116631 30
-10.93968 16.42531 0 34
-8.78996 16.23257 -0.09644645 12
-6.781358 15.81591 -0.2007764 9
-12.70469 15.64762 0.5935223 22
-11.02069 16.49709 0.4596898 22
-8.409026 15.45819 0.3003356 17
-7.127985 16.53752 0.2195395 14
nan nan nan 0
nan nan nan 0
nan nan nan 0
-12.58177 15.80877 -1.909683 62
-13.55069 16.9044 -1.387092 35
-10.31654 15.56609 -1.303051 29
-8.588049 15.99904 -1.368688 16
-7.31082 17.20889 -1.52412 6
-13.16845 16.20689 -0.8480625 81
-10.88448 16.25027 -0.9102401 50
-8.70687 16.03904 -0.9543461 16
nan nan nan 0
-12.98919 16.10642 -0.3604794 30
-10.7895 16.23667 -0.451682 36
-8.440238 15.6517 -0.5172859 24
-7.020338 16.42124 -0.6160379 9
-5.388453 12.47453 -2.457377 10
-7.144331 16.87408 -2.057411 8
-6.889029 16.22333 0.7063196 37
-12.10132 15.0759 1.122526 19
-7.297516 17.44761 1.535037 27
nan nan nan 0
-6.987856 16.71484 3.294956 26
nan nan nan 0
-12.69416 15.76342 0.116343 30
-10.8354 16.39249 0 25
-8.742702 16.28077 -0.09655118 18
nan nan nan 0
-12.5841 15.61018 0.5904256 21
-10.93264 16.48963 0.4584132 34
-8.286193 15.35984 0.2978556 16
-7.138868 16.72326 0.2216775 16
nan nan nan 0
-0.2073218 0.2627495 -0.07708719 9
-12.58118 15.63986 -2.783313 10
-12.57282 15.91117 -1.916754 39
-13.37971 16.81107 -1.37557 30
-10.24021 15.56868 -1.300261 25
-8.550885 16.06413 -1.371701 17
-7.214013 17.14701 -1.516385 5
-13.1777 16.3344 -0.8523313 58
-10.81939 16.27569 -0.9095414 55
-8.582204 15.94183 -0.9467574 16
nan nan nan 0
-13.00478 16.24141 -0.3624865 27
-10.70523 16.23251 -0.4505215 36
-8.45153 15.80448 -0.5213659 27
-6.962975 16.44564 -0.6160379 6
-5.348742 12.50232 -2.459162 10
-7.079627 16.88517 -2.055734 13
-6.840097 16.2657 0.7071221 23
-12.04239 15.11025 1.121946 25
-7.293733 17.61112 1.547197 32
nan nan nan 0
-6.916308 16.70731 3.28868 26
nan nan nan 0
-12.64218 15.81154 0.1163718 33
-10.85766 16.55145 0 31
-8.685819 16.31119 -0.09655118 9
nan nan nan 0
-12.43893 15.54088 0.5861493 35
nan nan nan 0
-8.303262 15.52093 0.3004211 17
-7.642692 18.0791 0.2393311 8
nan nan nan 0
-0.2125014 0.2709832 -0.07961464 10
-12.48941 15.63726 -2.775055 17
-12.51412 15.95104 -1.916283 38
nan nan nan 0
-10.11764 15.49991 -1.291541 30
nan nan nan 0
-7.177096 17.2273 -1.52127 5
nan nan nan 0
-10.62497 16.10492 -0.8978955 54
-8.441866 15.81311 -0.9373369 15
nan nan nan 0
-12.92 16.25149 -0.3617011 28
-10.65946 16.2865 -0.4509857 35
-8.328423 15.70582 -0.5171402 28
nan nan nan 0
-5.308904 12.52997 -2.460946 10
-7.003509 16.86847 -2.050702 13
nan nan nan 0
-12.03296 15.20698 1.126012 23
-7.235993 17.64569 1.548008 9
nan nan nan 0
-6.880316 16.78597 3.299439 23
nan nan nan 0
nan nan nan 0
-10.81619 16.61438 0 23
-8.887926 16.83221 -0.09945713 9
nan nan nan 0
-13.15913 16.55826 0.6228665 29
-10.83092 16.58648 0.4589934 39
-8.307592 15.66023 0.302559 26
-7.537091 18.00419 0.2379872 13
nan nan nan 0
-0.217626 0.2792563 -0.08214208 9
-12.27468 15.47902 -2.739275 18
-12.49203 16.03781 -1.921468 42
-12.79064 16.30354 -1.326603 32
-10.05804 15.52676 -1.290843 15
-8.426973 16.10135 -1.369818 14
nan nan nan 0
-12.19546 15.33531 -0.7956176 51
-10.41272 15.90374 -0.8846192 47
-8.412309 15.89102 -0.9402155 21
nan nan nan 0
-12.87558 16.31218 -0.3620501 22
nan nan nan 0
-8.301455 15.78789 -0.5188888 30
-7.372618 17.75854 -0.6633723 9
-5.268937 12.5575 -2.462731 9
-6.923819 16.84226 -2.044552 14
-6.57794 15.95275 0.6914707 30
nan nan nan 0
-8.071674 19.88289 1.742167 20
-11.76004 15.11508 2.346594 31
-6.928879 17.07428 3.351441 30
nan nan nan 0
nan nan nan 0
-10.49219 16.24048 0 34
nan nan nan 0
-6.93885 16.82898 -0.2124113 11
-13.09816 16.60017 0.6227191 45
-10.76209 16.6074 0.4585292 44
-8.283128 15.74665 0.3036707 23
-7.403407 17.85948 0.235727 10
nan nan nan 0
nan nan nan 0
-12.19606 15.49065 -2.73377 25
-12.40551 16.04195 -1.916754 9
-12.72752 16.34022 -1.325963 34
-10.27894 15.98971 -1.326419 18
-8.379902 16.14837 -1.371325 15
nan nan nan 0
-12.16353 15.40523 -0.7970406 37
-10.21834 15.72641 -0.8727404 48
-8.345187 15.89819 -0.9389071 23
-6.893885 16.6375 -1.045561 8
-12.73528 16.2508 -0.3596941 30
-10.50216 16.2933 -0.4491289 10
-8.116929 15.56858 -0.5107288 14
-7.320077 17.80728 -0.6642361 11
-5.230729 12.58945 -2.465408 9
-6.864986 16.86633 -2.044552 18
-6.505233 15.93398 0.6896648 23
-12.5315 16.06581 1.183227 8
-7.913075 19.68897 1.722711 26
-11.86502 15.36022 2.37828 42
-6.852745 17.05728 3.343372 17
nan nan nan 0
-12.88587 16.46665 0.1202019 7
-10.47322 16.33594 0 33
-8.774806 16.90273 -0.09950949 7
-6.880064 16.8531 -0.2124113 6
-12.96922 16.55532 0.6193275 40
-10.79599 16.78781 0.4624751 36
-8.262784 15.84196 0.3049535 20
nan nan nan 0
nan nan nan 0
-0.2006235 0.2618309 -0.07582346 9
-12.09004 15.46681 -2.722072 30
-12.27059 15.98252 -1.904498 43
-12.66735 16.3806 -1.325643 32
-10.22842 16.03391 -1.327117 19
-8.289273 16.11101 -1.365675 13
-6.929096 17.13517 -1.506615 4
-12.11893 15.45939 -0.7976503 34
-10.13089 15.71162 -0.8699454 44
-8.282725 15.91393 -0.938122 16
-6.894458 16.80463 -1.054565 9
-12.60784 16.20443 -0.357687 23
-10.40481 16.2667 -0.4473881 28
-8.165792 15.79662 -0.5172859 17
-7.22399 17.7494 -0.6611265 11
-5.190491 12.61673 -2.467192 8
-6.785658 16.83949 -2.038402 20
-6.524403 16.14189 0.6976912 23
-12.46336 16.0998 1.182356 37
-7.303513 18.36549 1.60435 10
-11.93279 15.57108 2.403873 37
-6.759978 17.01488 3.329923 30
nan nan nan 0
-12.76446 16.44716 0.1196835 17
-10.34587 16.28079 0 36
-8.72449 16.97936 -0.09974511 11
-6.762688 16.76584 -0.2109496 10
-12.98563 16.72 0.6234564 42
-10.79515 16.94858 0.4656085 27
-8.234841 15.95784 0.3064928 15
-6.671677 16.45739 0.2164852 8
nan nan nan 0
nan nan nan 0
-12.0272 15.5032 -2.720696 40
-12.23306 16.0551 -1.907798 36
-12.58005 16.39746 -1.323082 24
-9.902777 15.65577 -1.292587 27
-8.174754 16.04642 -1.357389 13
-6.808505 17.03327 -1.495217 4
nan nan nan 0
-10.02734 15.69499 -0.8666846 40
-8.227424 15.97068 -0.9394304 21
-6.792973 16.76515 -1.050208 8
-12.70802 16.48095 -0.3625737 19
-10.26701 16.20038 -0.4443707 39
-8.035358 15.71195 -0.5133517 29
-7.171293 17.85156 -0.6637178 9
-5.132827 12.64561 -2.468085 7
-6.719066 16.9036 -2.042316 18
-6.396494 16.0425 0.6920727 17
-13.06172 17.03136 1.246542 46
-7.163703 18.25461 1.591785 24
-11.93379 15.71388 2.417888 17
-6.650404 16.96294 3.313785 35
nan nan nan 0
-12.72917 16.55025 0.1200291 24
-10.26142 16.30462 0 33
-7.919097 15.57171 -0.09126285 13
-6.656195 16.71157 -0.2098972 9
-12.19594 15.84597 0.5888035 23
-10.71072 16.97252 0.4650283 38
-8.202026 16.05897 0.3077755 18
-6.567389 16.397 0.2153246 8
nan nan nan 0
-0.2044257 0.2710921 -0.07835092 10
-11.97484 15.58117 -2.724825 22
-12.23224 16.21189 -1.919583 9
-12.44209 16.37096 -1.316361 34
-9.889877 15.79354 -1.300261 17
-8.102417 16.07748 -1.357012 15
nan nan nan 0
-14.64857 19.01702 -0.9751093 39
-9.934724 15.70061 -0.8645883 41
-8.159928 16.01088 -0.9396921 23
-6.650393 16.61271 -1.038882 14
-12.52043 16.37917 -0.3591705 18
-10.20685 16.26196 -0.4448348 33
-7.973988 15.75439 -0.5136431 27
-6.740956 16.98493 -0.6303764 4
-5.087514 12.67981 -2.470762 8
-6.649341 16.92581 -2.041757 13
-6.359498 16.13778 0.6950826 18
-12.84815 16.89299 1.232601 36
-7.599922 19.5983 1.706497 12
nan nan nan 0
-6.594105 17.01129 3.318268 34
nan nan nan 0
-12.78385 16.75399 0.1211522 9
-10.23845 16.40753 0 34
nan nan nan 0
-6.580246 16.69864 -0.2094295 8
-12.1833 15.95012 0.5910154 35
-10.51051 16.79135 0.4589934 35
-8.11377 16.03094 0.3066638 17
-6.540376 16.50463 0.2164242 8
nan nan nan 0
nan nan nan 0
-12.04434 15.80239 -2.755101 33
-12.23257 16.34241 -1.929483 11
-12.38815 16.43057 -1.317322 32
-9.76338 15.72547 -1.291541 28
-8.069565 16.16647 -1.361909 13
nan nan nan 0
nan nan nan 0
-9.930223 15.82152 -0.8692467 44
-8.110193 16.0585 -0.9407388 24
-6.582113 16.61841 -1.03772 13
-12.45427 16.41698 -0.358996 17
-10.16567 16.32896 -0.4456472 33
-7.929631 15.81031 -0.5145174 23
-6.71449 17.09208 -0.633486 24
-5.046851 12.70664 -2.472546 7
nan nan nan 0
-6.314013 16.18781 0.6962866 23
-12.89141 17.07315 1.242476 42
-7.474367 19.4758 1.693526 21
nan nan nan 0
-6.608621 17.22712 3.355924 38
nan nan nan 0
-12.67093 16.72679 0.1206339 9
-10.19164 16.46017 0 35
-7.793571 15.60697 -0.09113195 10
-6.514656 16.70287 -0.2091956 13
-12.1638 16.04033 0.5927849 10
-10.44392 16.81519 0.4586453 40
-8.026379 15.9966 0.3054666 14
-6.466306 16.48547 0.2158744 8
nan nan nan 0
-0.2082848 0.2802874 -0.08087836 10
-11.88148 15.70219 -2.73033 43
-12.09823 16.28115 -1.917226 47
nan nan nan 0
-9.601151 15.58535 -1.277241 15
-8.030768 16.23029 -1.364922 11
nan nan nan 0
nan nan nan 0
-9.906623 15.90696 -0.8720417 49
-8.042913 16.06439 -0.9394304 27
-6.578678 16.78072 -1.046433 11
nan nan nan 0
-10.08234 16.32182 -0.4444867 13
-7.79876 15.68573 -0.5095631 28
-6.67469 17.16665 -0.6353863 19
-5.006063 12.73334 -2.474331 9
-6.456127 16.77704 -2.018275 17
-6.246681 16.18178 0.6950826 9
nan nan nan 0
-7.385122 19.44586 1.688662 22
nan nan nan 0
-6.525771 17.19029 3.344269 33
nan nan nan 0
-13.40611 17.82565 0.1282365 40
-10.24669 16.67883 0 37
-7.719087 15.59375 -0.09089633 17
-6.510283 16.86545 -0.2109496 10
nan nan nan 0
-10.39565 16.86857 0.4591095 41
nan nan nan 0
nan nan nan 0
nan nan nan 0
-0.1984963 0.2694788 -0.07708719 10
-11.77006 15.66835 -2.717256 45
-12.08566 16.38335 -1.924297 52
nan nan nan 0
-9.598722 15.70388 -1.284217 18
-7.971871 16.25375 -1.364545 12
nan nan nan 0
nan nan nan 0
-9.940323 16.0859 -0.8799609 41
-8.011202 16.14157 -0.9423088 26
-6.532692 16.83615 -1.048466 10
nan nan nan 0
-9.991342 16.30151 -0.442978 27
-7.713034 15.65009 -0.5075231 25
nan nan nan 0
-4.968713 12.76908 -2.4779 11
-6.321551 16.59978 -1.994235 20
-6.558916 17.16968 0.7366191 7
-12.22042 16.42205 1.188745 43
-7.119245 18.94432 1.642858 27
nan nan nan 0
-6.835577 18.19851 3.536138 27
nan nan nan 0
nan nan nan 0
-10.15197 16.65472 0 35
-7.662405 15.61611 -0.09087015 17
-6.478115 16.95814 -0.2118267 15
-11.74622 15.71661 0.5777441 36
-10.3341 16.90049 0.4589934 41
-7.958714 16.14193 0.3071769 14
-6.505147 16.93162 0.2211277 19
nan nan nan 0
-0.2034001 0.2778798 -0.07961464 10
-11.70049 15.68949 -2.713815 54
-11.94308 16.30899 -1.910626 31
-12.08207 16.37873 -1.302919 8
-9.564543 15.7714 -1.287007 16
-7.860602 16.16937 -1.355129 10
nan nan nan 0
nan nan nan 0
-9.693498 15.80968 -0.862958 49
-7.93718 16.13359 -0.9402155 27
-6.448852 16.79361 -1.0444 8
-12.72579 17.14451 -0.371998 33
-9.942171 16.3491 -0.4433262 29
-7.634232 15.62752 -0.5059202 25
-6.725267 17.66119 -0.6519706 9
-4.92941 12.80012 -2.480577 12
-6.197046 16.44505 -1.97299 17
-6.468935 17.11301 0.7332079 9
-12.19862 16.51278 1.19223 45
-7.337695 19.7352 1.709334 6
-12.15059 16.61067 2.522086 41
-6.775436 18.23148 3.537931 34
nan nan nan 0
-12.98351 17.5172 0.1253567 8
-10.07565 16.66011 0 20
-7.614407 15.65625 -0.09094869 21
-6.410048 16.95727 -0.2115343 12
-11.68534 15.74949 0.5774492 14
nan nan nan 0
nan nan nan 0
-6.438902 16.93553 0.2208834 10
nan nan nan 0
-0.2053382 0.2824531 -0.08087836 9
-11.56311 15.61881 -2.694549 50
nan nan nan 0
-12.00713 16.39666 -1.300999 32
nan nan nan 0
-7.84955 16.29104 -1.363039 6
nan nan nan 0
-11.41515 15.37431 -0.7775262 107
-9.529211 15.66422 -0.8531755 42
nan nan nan 0
-6.41854 16.89069 -1.049047 9
-12.65994 17.18078 -0.3718235 21
-9.890207 16.39227 -0.4435582 28
nan nan nan 0
-6.672381 17.70794 -0.6528344 15
-4.8917 12.83564 -2.484146 12
-6.170823 16.55039 -1.983053 19
-6.4249 17.17761 0.7350138 13
-12.09071 16.48684 1.187293 44
-6.319777 17.17864 1.485585 12
-12.10421 16.66904 2.524523 39
-6.737196 18.32428 3.55138 30
nan nan nan 0
-13.66335 18.56903 0.1325562 12
nan nan nan 0
-7.538004 15.63769 -0.09068689 17
nan nan nan 0
-11.60657 15.758 0.5762695 35
-10.41696 17.30625 0.4680456 33
-8.203181 16.935 0.3212017 14
-7.132632 18.96092 0.2470278 10
nan nan nan 0
-0.2014552 0.279293 -0.07961464 10
-11.61121 15.79872 -2.718632 46
nan nan nan 0
-11.70035 16.09547 -1.273795 62
-9.395394 15.73929 -1.278985 16
-7.790488 16.31384 -1.362662 9
nan nan nan 0
-11.34065 15.38592 -0.7761033 43
-9.484798 15.71449 -0.8541071 38
-8.037249 16.6292 -0.9658601 18
-6.371829 16.94569 -1.05108 10
-12.5556 17.16435 -0.3705146 16
-9.840631 16.43956 -0.4439064 29
