# .PCD v0.7 - Point Cloud Data file format
VERSION 0.7
FIELDS x y z intensity
SIZE 4 4 4 4
TYPE F F F F
COUNT 1 1 1 1
WIDTH 1637
HEIGHT 1
VIEWPOINT 0 0 0 1 0 0 0
POINTS 1637
DATA ascii
-1.291566 -3.396693 -0.08344281 20
-1.4194 -2.905389 -0.09311147 10
-1.621467 -2.680484 -0.1069342 29
-1.648031 -2.746508 -0.5737449 8
-1.699367 -2.787006 -0.3628423 8
-1.763016 -2.897706 0.1346422 9
nan nan nan 0
-1.991574 -3.23296 0.3056292 9
-24.90997 -87.42776 11.15714 12
-38.75573 -62.68828 13.42639 14
nan nan nan 0
-6.451093 -23.17817 0.1383445 34
-1.682447 -4.393827 0 9
-1.471388 -2.998307 -0.01727868 24
nan nan nan 0
-6.55793 -23.61008 0.7218115 20
-1.579867 -4.142713 0.1020114 7
-1.46114 -2.99171 0.05627016 10
-1.751092 -2.890295 0.04080478 10
nan nan nan 0
-0.1131579 -0.3962455 -0.09730678 50
-0.8028884 -2.860903 -0.4073476 9
-0.8895282 -3.069213 -0.2988741 9
-0.9533445 -3.333947 -0.2198736 8
-1.139761 -2.955117 -0.2186865 14
nan nan nan 0
-1.6271 -2.655495 -0.2511704 7
-1.110059 -3.984448 -0.1666854 38
-1.217383 -3.202673 -0.1579178 6
-1.398194 -2.856817 -0.1645966 18
-1.642405 -2.710552 -0.182102 4
nan nan nan 0
-1.298043 -3.378163 -0.08309464 20
-1.429533 -2.900417 -0.09311147 10
-1.63864 -2.687593 -0.1074525 11
-1.660161 -2.744944 -0.5746372 8
-1.714302 -2.789515 -0.3639605 9
-1.775739 -2.895789 0.1348428 10
-7.54173 -26.57866 1.605227 53
-1.989672 -3.204839 0.3036025 9
-24.9136 -86.29607 11.02369 11
-39.00554 -62.60271 13.43715 14
nan nan nan 0
nan nan nan 0
nan nan nan 0
-1.477404 -2.984193 -0.01722632 27
-1.936945 -3.157604 -0.04285645 11
-6.638951 -23.58224 0.721664 18
-1.562 -4.053202 0.09992246 8
-1.464939 -2.973141 0.05601361 23
nan nan nan 0
nan nan nan 0
-0.1132614 -0.3911826 -0.09604306 55
-0.8195997 -2.881913 -0.410788 8
-0.8960527 -3.051754 -0.2974599 8
-0.9580702 -3.306625 -0.2182734 7
-1.14826 -2.946472 -0.2183377 14
nan nan nan 0
-1.638985 -2.654035 -0.2515775 7
nan nan nan 0
-1.223191 -3.184414 -0.1572191 6
-1.408158 -2.851919 -0.1645966 17
-1.646639 -2.696291 -0.1815211 5
-6.302536 -22.10517 -0.4005327 14
-1.306214 -3.36429 -0.08286253 19
-1.439649 -2.895409 -0.09311147 10
nan nan nan 0
-1.674867 -2.747526 -0.5764218 9
-1.726653 -2.787733 -0.3645196 10
-1.791103 -2.898064 0.1352441 10
-7.656515 -26.62893 1.609874 27
-1.9717 -3.151446 0.2991437 10
nan nan nan 0
-39.25784 -62.52033 13.4488 14
nan nan nan 0
nan nan nan 0
nan nan nan 0
-1.476629 -2.956658 -0.01709542 36
-1.950591 -3.155072 -0.04291492 8
nan nan nan 0
-1.596068 -4.098971 0.1011991 9
-1.468625 -2.954583 0.05575706 23
nan nan nan 0
nan nan nan 0
-0.1159214 -0.3954459 -0.09730678 51
-0.8255666 -2.86475 -0.4087237 9
-0.9038773 -3.039061 -0.2965171 8
-0.9640149 -3.284101 -0.2169932 8
-1.158539 -2.942446 -0.2183377 14
-1.417991 -2.813977 -0.2350196 19
-1.642958 -2.639845 -0.2507633 7
nan nan nan 0
-1.236103 -3.184782 -0.157452 7
-1.420333 -2.851454 -0.1648583 18
-1.671782 -2.716005 -0.1832637 4
nan nan nan 0
-1.314303 -3.350401 -0.08263043 19
-1.449747 -2.890366 -0.09311147 10
nan nan nan 0
-1.68703 -2.74585 -0.5773141 10
-1.741649 -2.79011 -0.3656377 7
-1.801208 -2.891794 0.1352441 10
nan nan nan 0
-1.985353 -3.148755 0.299549 7
-25.36182 -85.60138 10.95727 7
-39.5074 -62.43279 13.45956 14
nan nan nan 0
nan nan nan 0
nan nan nan 0
-1.477933 -2.93363 -0.0169907 16
-1.961592 -3.148245 -0.04291492 7
nan nan nan 0
-1.656065 -4.209686 0.1041004 8
-1.4722 -2.936035 0.05550051 22
-2.497243 -4.02207 0.05735882 12
nan nan nan 0
-0.1173011 -0.3950388 -0.09730678 48
-0.8341823 -2.857095 -0.4080356 9
-0.91448 -3.035887 -0.2965171 8
-0.9641554 -3.242436 -0.2144328 8
-1.166962 -2.933748 -0.217989 14
nan nan nan 0
-1.649507 -2.629878 -0.2503562 7
nan nan nan 0
-1.225363 -3.124638 -0.154657 7
-1.432522 -2.85094 -0.1651199 18
nan nan nan 0
-1.308658 -4.455688 -0.08036833 15
-1.320472 -3.331849 -0.08228226 19
-1.462086 -2.889746 -0.09325718 10
-2.36183 -3.779718 -0.1527138 32
-1.701798 -2.748301 -0.5790987 9
-1.754031 -2.788214 -0.3661968 9
-1.819281 -2.89817 0.1358461 9
nan nan nan 0
-1.945429 -3.061965 0.2918475 6
-24.98593 -83.26396 10.66905 11
-39.75948 -62.34842 13.47122 15
nan nan nan 0
nan nan nan 0
-1.369695 -3.43168 0 20
-1.490432 -2.932909 -0.01701688 13
-1.980564 -3.154069 -0.04309032 8
-7.552227 -25.78985 0.791707 14
-1.703945 -4.287507 0.1061894 8
-1.475664 -2.917498 0.05524396 22
-2.474072 -3.954035 0.05650363 10
nan nan nan 0
-0.1186793 -0.394627 -0.09730678 47
-0.8413588 -2.844662 -0.4066595 9
-0.9236271 -3.027913 -0.2960457 9
-0.9768991 -3.243831 -0.2147529 8
-1.175338 -2.925027 -0.2176402 14
-1.410272 -2.750786 -0.2305 10
-1.656007 -2.619896 -0.2499491 7
nan nan nan 0
-1.243611 -3.138919 -0.1555886 7
-1.440205 -2.84147 -0.1648583 20
-1.68009 -2.687356 -0.182102 5
-1.327043 -4.460679 -0.08054285 15
-1.328383 -3.317936 -0.08205015 17
-1.472164 -2.884624 -0.09325718 11
-2.41236 -3.830603 -0.1551324 34
-1.713993 -2.746514 -0.579991 9
-1.76642 -2.786267 -0.3667559 9
-1.821353 -2.879149 0.1352441 8
nan nan nan 0
-1.904924 -2.975493 0.284146 7
-24.98788 -82.22655 10.54718 13
-40.01145 -62.26303 13.48287 15
nan nan nan 0
-6.827581 -22.97099 0.1377973 45
-1.366727 -3.389773 0 19
-1.502943 -2.932137 -0.01704306 14
-1.986203 -3.138694 -0.04297339 7
-7.636523 -25.74416 0.7911172 16
-1.71704 -4.276894 0.1060733 9
-1.467644 -2.876714 0.05455982 25
-2.466487 -3.911566 0.05601495 10
nan nan nan 0
-0.1214001 -0.3988575 -0.0985705 50
-0.8512834 -2.841708 -0.4066595 10
-0.9327297 -3.019912 -0.2955743 8
-0.9867681 -3.235626 -0.2144328 9
-1.183668 -2.916284 -0.2172914 15
-1.422158 -2.750273 -0.2308767 8
-1.657087 -2.601504 -0.2487279 7
nan nan nan 0
-1.211937 -3.027884 -0.1502315 7
-1.461491 -2.858648 -0.1661666 16
-1.68946 -2.681474 -0.182102 4
-1.325366 -4.398559 -0.07949571 13
-1.334342 -3.299374 -0.08170199 20
-1.484514 -2.883911 -0.0934029 11
-2.503515 -3.944418 -0.1601422 7
-1.728821 -2.748835 -0.5817755 9
-1.7815 -2.788449 -0.367874 9
-1.855624 -2.910649 0.1370501 8
nan nan nan 0
-1.91259 -2.964643 0.2837406 15
-25.22806 -81.98705 10.52768 10
-40.26063 -62.17254 13.49363 15
nan nan nan 0
-6.910603 -22.95659 0.1378549 42
-1.393619 -3.422034 0 19
-1.515468 -2.931313 -0.01706924 15
-1.997147 -3.131742 -0.04297339 7
-7.686104 -25.58332 0.7869883 18
-1.731959 -4.270874 0.1060733 8
-1.484547 -2.884905 0.05481637 18
-2.501616 -3.936666 0.05650363 10
nan nan nan 0
-0.1227916 -0.3984313 -0.0985705 45
-0.8597687 -2.833977 -0.4059714 9
-0.9388322 -3.002378 -0.29416 8
-0.9965919 -3.227392 -0.2141128 8
-1.19384 -2.912135 -0.2172914 15
-1.394816 -2.674584 -0.2248505 10
-1.666158 -2.595704 -0.2487279 6
nan nan nan 0
-1.241192 -3.069951 -0.1525607 8
-1.471461 -2.853529 -0.1661666 9
nan nan nan 0
nan nan nan 0
-1.340187 -3.280811 -0.08135383 21
-1.496878 -2.883146 -0.09354862 11
nan nan nan 0
-1.741046 -2.746934 -0.5826678 8
-1.793919 -2.786386 -0.3684331 8
-1.860358 -2.895756 0.1366488 4
nan nan nan 0
-1.922927 -2.957948 0.2837406 14
-25.54066 -81.98377 10.53865 10
-40.51236 -62.08518 13.50529 14
-24.97742 -79.29749 22.2662 15
-7.002349 -22.97059 0.1380853 39
-1.382759 -3.361648 0 17
-1.525691 -2.926006 -0.01706924 15
-2.010775 -3.128954 -0.04303186 6
-7.744832 -25.45592 0.7838917 32
nan nan nan 0
-1.510745 -2.910757 0.05541499 21
-2.512641 -3.923703 0.05644254 9
nan nan nan 0
-0.1241816 -0.3980003 -0.0985705 45
-0.8696558 -2.830959 -0.4059714 10
-0.9463181 -2.989586 -0.2932172 9
-1.00637 -3.219129 -0.2137927 8
-1.202093 -2.90334 -0.2169426 14
-1.406468 -2.674111 -0.2252272 10
-1.650782 -2.552258 -0.2450641 8
-1.125794 -3.688437 -0.155302 17
nan nan nan 0
nan nan nan 0
-1.700047 -2.657015 -0.1812306 4
nan nan nan 0
-1.344015 -3.257626 -0.08088961 21
-1.509253 -2.882329 -0.09369433 11
-1.665846 -2.587997 -0.1050339 4
-1.75328 -2.744982 -0.5835602 8
-1.806345 -2.784271 -0.3689922 8
nan nan nan 0
-8.015864 -25.82866 1.571247 31
-1.930503 -2.947054 0.2833353 13
-25.10738 -79.61279 10.24495 10
-40.76396 -61.99681 13.51694 14
-25.02673 -78.49659 22.06562 14
-7.081016 -22.94123 0.1380565 28
-1.394485 -3.356801 0 17
-1.538225 -2.925086 -0.01709542 14
-2.021685 -3.121916 -0.04303186 7
nan nan nan 0
nan nan nan 0
-1.539462 -2.94089 0.05609913 23
-2.526322 -3.914908 0.05644254 10
nan nan nan 0
-0.1269627 -0.4021972 -0.09983423 43
-0.8795325 -2.827906 -0.4059714 9
-0.9537261 -2.976779 -0.2922744 8
-1.014605 -3.206077 -0.2131526 8
-1.21222 -2.899126 -0.2169426 15
-1.429828 -2.695603 -0.227487 11
-1.667866 -2.558989 -0.2462854 9
-1.143066 -3.69881 -0.1559118 21
-1.253086 -3.038119 -0.1513961 8
nan nan nan 0
-1.701175 -2.638493 -0.1803594 5
nan nan nan 0
-1.345777 -3.229839 -0.08030935 20
-1.523978 -2.88588 -0.09398576 11
nan nan nan 0
-1.76552 -2.742978 -0.5844525 9
-1.818779 -2.782103 -0.3695513 8
nan nan nan 0
-8.10448 -25.79576 1.570956 13
-1.946283 -2.948606 0.284146 12
-25.09996 -78.6311 10.12978 13
-41.01545 -61.90746 13.5286 13
-25.07074 -77.69631 21.86503 12
nan nan nan 0
-1.404262 -3.347301 0 16
-1.548426 -2.919699 -0.01709542 15
-2.032571 -3.11484 -0.04303186 8
-7.906 -25.34874 0.7822697 24
nan nan nan 0
-1.568408 -2.970857 0.05678326 27
nan nan nan 0
nan nan nan 0
-0.1283659 -0.4017516 -0.09983423 44
-0.8879198 -2.820092 -0.4052833 8
-0.9610563 -2.963957 -0.2913316 8
-1.021246 -3.188253 -0.2121924 9
-1.22427 -2.899473 -0.2172914 16
-1.441584 -2.69499 -0.2278636 8
-1.701478 -2.590595 -0.2499491 9
-1.12182 -3.585085 -0.1512365 16
-1.282861 -3.079844 -0.1537253 6
nan nan nan 0
-1.691288 -2.603271 -0.1783263 5
-1.314492 -4.150768 -0.07530713 7
-1.380278 -3.280422 -0.08170199 20
-1.534042 -2.880543 -0.09398576 10
nan nan nan 0
-1.780452 -2.745045 -0.586237 9
-1.831219 -2.779882 -0.3701104 9
nan nan nan 0
nan nan nan 0
-1.95933 -2.94594 0.2845513 11
-25.30717 -78.33523 10.10297 9
-41.2668 -61.81708 13.54025 13
-25.081 -76.80947 21.63986 11
-7.281686 -23.01996 0.1388341 25
-1.402302 -3.310144 0 13
-1.560969 -2.918684 -0.0171216 15
-2.046184 -3.111899 -0.04309032 6
-7.526782 -23.83869 0.7364099 16
nan nan nan 0
-1.559956 -2.930071 0.05609913 34
nan nan nan 0
nan nan nan 0
-0.1297675 -0.4013011 -0.09983423 44
-0.8977584 -2.816976 -0.4052833 9
-0.9683086 -2.951119 -0.2903888 8
-1.029307 -3.17517 -0.2115524 9
-1.234384 -2.895182 -0.2172914 16
-1.462831 -2.711875 -0.2297468 23
-1.732573 -2.617847 -0.2532058 7
-1.150843 -3.633561 -0.1534725 18
-1.268464 -3.015482 -0.1506974 7
nan nan nan 0
-1.71133 -2.614038 -0.179488 5
-1.335053 -4.165205 -0.07565618 6
-1.403435 -3.303194 -0.08239832 21
-1.539354 -2.866367 -0.09369433 9
nan nan nan 0
-1.792721 -2.742927 -0.5871294 8
-1.843666 -2.777608 -0.3706694 9
-2.426044 -3.660045 0.174774 19
nan nan nan 0
-1.975163 -2.947354 0.285362 10
-25.60821 -78.33132 10.11394 9
-41.52077 -61.7298 13.55281 12
-25.09598 -75.95561 21.42375 11
-7.406177 -23.1325 0.1396692 26
-1.404027 -3.282239 0 13
-1.571147 -2.913217 -0.0171216 15
-2.057034 -3.104738 -0.04309032 6
nan nan nan 0
nan nan nan 0
-1.574908 -2.933415 0.05627016 17
-2.45956 -3.725643 0.05406022 10
nan nan nan 0
-0.1326085 -0.4054638 -0.1010979 40
-0.9090974 -2.818541 -0.4059714 9
-0.9754831 -2.938268 -0.2894459 11
-1.035741 -3.157327 -0.2105922 7
-1.244482 -2.890856 -0.2172914 16
-1.469903 -2.702374 -0.2293701 23
-1.744473 -2.615924 -0.2536129 7
-1.165038 -3.634281 -0.1536758 13
-1.296531 -3.05242 -0.1527936 7
nan nan nan 0
-1.728712 -2.620534 -0.1803594 6
-1.354194 -4.174791 -0.07591797 8
-1.43464 -3.344223 -0.08355886 24
-1.561262 -2.882943 -0.09442291 6
-2.189406 -3.296424 -0.1354385 38
-1.80771 -2.744861 -0.5889139 8
-1.85612 -2.775281 -0.3712285 8
-2.422126 -3.626648 0.17357 21
nan nan nan 0
-1.988235 -2.944566 0.2857673 10
-25.16 -76.05991 9.831808 9
-41.77464 -61.64149 13.56536 13
-25.12367 -75.15755 21.22316 12
-7.468398 -23.04943 0.1393236 13
-1.403595 -3.249771 0 12
-1.583698 -2.912106 -0.01714778 15
-2.065077 -3.093384 -0.04303186 7
nan nan nan 0
nan nan nan 0
-1.582756 -2.923504 0.05618464 16
-2.475324 -3.721194 0.05412131 10
nan nan nan 0
-0.134023 -0.4049984 -0.1010979 42
-0.9204584 -2.820061 -0.4066595 9
-0.9841565 -2.930123 -0.2889745 12
-1.043627 -3.144216 -0.2099521 9
-1.254566 -2.886494 -0.2172914 16
-1.474527 -2.688486 -0.2286168 22
-1.753593 -2.609819 -0.2536129 8
-1.13935 -3.511335 -0.1485939 21
-1.299314 -3.02951 -0.151862 6
nan nan nan 0
-1.746159 -2.62694 -0.1812306 7
-1.373418 -4.184294 -0.07617975 8
-1.46218 -3.375898 -0.08448729 26
nan nan nan 0
-2.337359 -3.492065 -0.1439034 4
-1.820007 -2.742629 -0.5898062 9
-1.86858 -2.772901 -0.3717876 8
-2.141355 -3.183328 0.1525008 30
nan nan nan 0
-2.001311 -2.941724 0.2861727 10
-25.15923 -75.17628 9.728829 13
-42.02839 -61.55216 13.57791 14
-25.14766 -74.36481 21.02387 12
-1.460659 -4.440437 0.02669554 7
-1.40495 -3.221931 0 12
-1.593853 -2.90656 -0.01714778 15
-2.078659 -3.090301 -0.04309032 10
nan nan nan 0
nan nan nan 0
-1.595349 -2.922348 0.05627016 16
-2.502241 -3.73328 0.05442674 9
nan nan nan 0
-0.1354359 -0.4045281 -0.1010979 43
-0.9302966 -2.816831 -0.4066595 9
-0.9927852 -2.921954 -0.2885031 11
-1.049854 -3.126356 -0.208992 9
-1.264634 -2.882097 -0.2172914 16
-1.486318 -2.687685 -0.2289935 24
-1.75709 -2.595438 -0.2527987 7
-1.1516 -3.507336 -0.1485939 17
-1.292044 -2.983696 -0.1497657 7
-1.593509 -2.913071 -0.1719236 22
-1.766457 -2.637399 -0.1823924 8
-1.386446 -4.174728 -0.07609249 8
-1.485958 -3.398259 -0.08518361 28
nan nan nan 0
-2.332738 -3.459048 -0.1428669 6
-1.835051 -2.74443 -0.5915908 9
-1.881045 -2.770468 -0.3723467 8
-2.166498 -3.196492 0.1535041 16
nan nan nan 0
-2.017215 -2.942933 0.2869834 9
-25.24487 -74.5662 9.661192 9
-42.28481 -61.46587 13.59136 13
-25.1586 -73.54998 20.81811 11
-1.490309 -4.478024 0.02695472 10
-1.410151 -3.203275 0 13
-1.606411 -2.905353 -0.01717396 15
-2.092244 -3.087161 -0.04314879 7
nan nan nan 0
-1.505638 -3.433291 0.08611204 16
-1.610366 -2.925518 0.0564412 15
-2.464804 -3.650003 0.05332721 9
nan nan nan 0
-0.1368472 -0.4040529 -0.1010979 42
-0.9432451 -2.822966 -0.4080356 8
-1.001369 -2.913761 -0.2880317 13
-1.057566 -3.113218 -0.2083519 9
-1.276704 -2.882227 -0.2176402 17
-1.478674 -2.652009 -0.226357 27
-1.76614 -2.589289 -0.2527987 6
-1.154428 -3.474834 -0.1473742 14
-1.290463 -2.951702 -0.1483682 10
-1.603668 -2.90749 -0.1719236 23
-1.761657 -2.610553 -0.1809402 7
-1.391492 -4.141418 -0.07556891 9
-1.497811 -3.393051 -0.08518361 10
nan nan nan 0
nan nan nan 0
-1.850131 -2.746159 -0.5933754 9
-1.896329 -2.772078 -0.3734648 9
-2.282104 -3.341415 0.1609285 6
nan nan nan 0
-2.030314 -2.939969 0.2873887 10
-25.25584 -73.74988 9.566743 9
-42.54115 -61.37853 13.60481 15
-25.17521 -72.76794 20.62141 11
-1.477314 -4.387467 0.02643635 7
-1.413212 -3.180052 0 12
-1.61898 -2.904094 -0.01720014 15
-2.111484 -3.092214 -0.04332419 7
nan nan nan 0
-1.513571 -3.418871 0.08587993 17
-1.622996 -2.924249 0.05652671 13
nan nan nan 0
nan nan nan 0
-0.1382567 -0.4035727 -0.1010979 42
-0.9515162 -2.814962 -0.4073476 8
-1.011533 -2.910247 -0.2880317 11
-1.063585 -3.095343 -0.2073917 8
-1.286757 -2.877753 -0.2176402 17
-1.512383 -2.690276 -0.2301234 16
-1.789316 -2.603618 -0.2548341 6
nan nan nan 0
-1.284647 -2.910615 -0.1465049 15
-1.584658 -2.849526 -0.1687835 31
-1.770759 -2.604388 -0.1809402 7
-1.462039 -4.302272 -0.07862309 8
nan nan nan 0
nan nan nan 0
-2.13906 -3.125466 -0.1295649 8
-1.865245 -2.747817 -0.59516 9
-1.90882 -2.769528 -0.3740239 9
-2.296592 -3.33754 0.1611291 12
nan nan nan 0
-2.04627 -2.941037 0.2881994 10
-25.53098 -73.71285 9.573446 10
-42.79738 -61.29015 13.61826 12
-25.18349 -71.97757 20.42212 10
nan nan nan 0
-1.416127 -3.156847 0 10
-1.629107 -2.898425 -0.01720014 15
-2.130784 -3.097169 -0.0434996 8
nan nan nan 0
-1.474568 -3.299449 0.08297858 16
-1.638081 -2.927289 0.05669774 13
-2.314652 -3.377246 0.04953994 10
nan nan nan 0
-0.1396646 -0.4030876 -0.1010979 36
-0.9613364 -2.811624 -0.4073476 9
-1.021686 -2.906699 -0.2880317 11
-1.069493 -3.077463 -0.2064316 9
-1.296795 -2.873244 -0.2176402 17
-1.531609 -2.702325 -0.2316299 27
-1.764264 -2.548251 -0.2499491 5
nan nan nan 0
-1.28668 -2.88786 -0.1455732 15
-1.599483 -2.852684 -0.1693068 8
-1.774183 -2.589964 -0.1803594 5
-1.460854 -4.249845 -0.07775047 9
nan nan nan 0
nan nan nan 0
-2.161327 -3.134419 -0.1302559 7
-1.880393 -2.749402 -0.5969446 9
-1.924157 -2.771001 -0.3751421 9
-2.302524 -3.3213 0.1607278 11
nan nan nan 0
-2.05939 -2.937953 0.2886047 9
nan nan nan 0
-43.05635 -61.20476 13.6326 13
nan nan nan 0
nan nan nan 0
-1.420958 -3.138217 0 10
-1.641682 -2.897069 -0.01722632 15
-2.14729 -3.097922 -0.04361653 8
-8.019502 -23.39236 0.7284471 12
-1.486076 -3.294281 0.08297858 16
-1.650748 -2.925906 0.05678326 13
-2.329273 -3.373257 0.04960102 9
nan nan nan 0
-0.1395334 -0.3980108 -0.09983423 41
-0.969535 -2.803567 -0.4066595 9
-1.031826 -2.903115 -0.2880317 10
-1.075289 -3.059581 -0.2054714 9
-1.306816 -2.868699 -0.2176402 17
-1.632656 -2.857074 -0.2455654 9
-1.750282 -2.50942 -0.2466925 6
nan nan nan 0
-1.304935 -2.901576 -0.1465049 15
-1.609431 -2.847084 -0.1693068 7
-1.783213 -2.583755 -0.1803594 7
nan nan nan 0
nan nan nan 0
-1.591608 -2.797503 -0.09267433 22
-2.160827 -3.110456 -0.1295649 7
-1.895574 -2.750915 -0.5987291 9
-1.936673 -2.768334 -0.3757011 9
-2.305504 -3.300966 0.1601259 12
nan nan nan 0
-2.072514 -2.934812 0.2890101 10
nan nan nan 0
-43.31241 -61.11429 13.64605 13
nan nan nan 0
nan nan nan 0
-1.419449 -3.105946 0 11
-1.65675 -2.900001 -0.01727868 14
-2.158091 -3.090408 -0.04361653 7
nan nan nan 0
-1.516187 -3.330027 0.08402307 15
-1.663425 -2.92447 0.05686878 13
-2.343894 -3.369206 0.04966211 6
nan nan nan 0
-0.1409219 -0.3975213 -0.09983423 39
-0.9809417 -2.804844 -0.4073476 9
-1.040278 -2.894808 -0.2875603 11
-1.082636 -3.0464 -0.2048313 8
-1.318903 -2.868653 -0.217989 17
-1.650093 -2.864314 -0.2466953 5
-1.74754 -2.487006 -0.2450641 6
nan nan nan 0
-1.310933 -2.887905 -0.146039 14
-1.611936 -2.828439 -0.1685218 16
-1.803648 -2.593889 -0.1815211 6
-1.554928 -4.423556 -0.08115369 10
-1.393196 -3.039999 -0.07671167 26
-1.573983 -2.744257 -0.09107147 36
-2.180285 -3.115164 -0.1300832 6
-1.907977 -2.748318 -0.5996214 9
-1.952063 -2.76967 -0.3768193 8
-2.319893 -3.29698 0.1603265 13
-9.665648 -27.38482 1.68742 53
-2.088537 -2.935672 0.2898208 10
-25.19234 -70.34375 9.169449 13
-43.57121 -61.02678 13.6604 13
-25.20336 -69.68425 19.84495 13
-1.463916 -4.154113 0.02514045 6
-1.419824 -3.078264 0 10
-1.661867 -2.885538 -0.01722632 9
-2.171748 -3.086941 -0.04367499 7
nan nan nan 0
-1.515293 -3.297456 0.08332675 16
-1.673623 -2.918646 0.05686878 13
-2.347016 -3.348732 0.04947885 8
nan nan nan 0
-0.1407392 -0.392451 -0.0985705 42
-0.9940115 -2.810747 -0.4087237 10
-1.052068 -2.895841 -0.2880317 11
-1.096622 -3.052 -0.2054714 9
-1.328908 -2.864032 -0.217989 17
-1.645043 -2.832677 -0.2444355 5
-1.733117 -2.448394 -0.2418075 8
nan nan nan 0
-1.321005 -2.883311 -0.146039 16
-1.629268 -2.835779 -0.1693068 16
-1.815562 -2.59166 -0.1818115 5
-1.58371 -4.455801 -0.08185178 9
-1.40799 -3.044194 -0.07694378 26
-1.651167 -2.855527 -0.09500576 17
-2.191145 -3.107534 -0.1300832 10
-1.923211 -2.749696 -0.601406 9
-1.967485 -2.770932 -0.3779374 9
-2.331388 -3.288862 0.1603265 7
nan nan nan 0
-2.104591 -2.936456 0.2906315 11
-25.22321 -69.66275 9.092062 15
-43.82705 -60.93421 13.67384 14
-25.211 -68.95174 19.66119 16
-1.506837 -4.229081 0.02563002 7
-1.420022 -3.050619 0 10
-1.661878 -2.862429 -0.0171216 5
-2.185407 -3.083416 -0.04373346 7
-8.352486 -23.55677 0.7362625 16
-1.524693 -3.287611 0.0832107 15
-1.683801 -2.912786 0.05686878 14
-2.358691 -3.340519 0.04947885 8
nan nan nan 0
-0.1421083 -0.3919573 -0.0985705 48
-1.007134 -2.816592 -0.4100999 9
-1.06217 -2.892151 -0.2880317 10
-1.119141 -3.081002 -0.2077118 8
-1.338898 -2.859376 -0.217989 17
-1.672571 -2.857026 -0.2470719 24
-1.811275 -2.539578 -0.2515775 8
nan nan nan 0
-1.331062 -2.878682 -0.146039 15
-1.644167 -2.838713 -0.1698302 19
-1.833253 -2.597527 -0.1826828 6
-1.589143 -4.422006 -0.08132821 9
-1.397491 -2.993954 -0.07578324 27
nan nan nan 0
-2.20198 -3.099867 -0.1300832 8
-1.935637 -2.746983 -0.6022983 9
-1.980043 -2.768084 -0.3784965 9
-2.345763 -3.284766 0.1605272 7
-9.629692 -26.68747 1.648502 44
-2.120675 -2.937164 0.2914422 8
-25.23769 -68.94977 9.010409 20
-44.08567 -60.84459 13.68819 15
-25.26739 -68.36499 19.51884 16
-1.492882 -4.143792 0.02514045 8
-1.415799 -3.013957 0 8
nan nan nan 0
-2.201979 -3.083898 -0.0438504 5
-8.643674 -24.1109 0.7545474 15
-1.53616 -3.282269 0.0832107 13
-1.696478 -2.911209 0.05695429 13
-2.364531 -3.324125 0.04935668 8
nan nan nan 0
-0.1450769 -0.3960238 -0.09983423 39
-1.02031 -2.822381 -0.4114761 9
-1.072259 -2.888425 -0.2880317 10
-1.114477 -3.034896 -0.2048313 9
-1.348871 -2.854685 -0.217989 17
-1.652096 -2.799662 -0.2425523 24
-1.828874 -2.545366 -0.2527987 9
-1.195217 -3.323294 -0.1420891 24
-1.341102 -2.874019 -0.146039 15
-1.651546 -2.828646 -0.1695685 9
-1.848107 -2.599238 -0.1832637 6
-1.601165 -4.407031 -0.08115369 9
-1.393041 -2.957394 -0.07497086 14
-1.660925 -2.8267 -0.09442291 5
-2.218615 -3.100281 -0.1304287 7
-1.948068 -2.744216 -0.6031906 10
-1.995516 -2.769208 -0.3796147 8
-2.357215 -3.276558 0.1605272 12
-9.709113 -26.61617 1.646178 44
-2.13679 -2.937794 0.2922528 8
-25.30432 -68.39116 8.948866 16
-44.34709 -60.75786 13.70343 13
-25.27944 -67.6701 19.34543 14
-1.543145 -4.237259 0.02574521 8
-1.415615 -2.9864 0 22
nan nan nan 0
-2.215656 -3.080248 -0.04390886 9
nan nan nan 0
-1.539079 -3.258802 0.08274648 12
-1.70663 -2.905269 0.05695429 13
-2.37612 -3.315851 0.04935668 8
nan nan nan 0
-0.1480756 -0.4000743 -0.1010979 43
-1.030156 -2.818802 -0.4114761 8
-1.084076 -2.889328 -0.2885031 10
-1.11815 -3.012264 -0.2035511 9
-1.360971 -2.854462 -0.2183377 17
-1.649101 -2.77246 -0.2406691 26
nan nan nan 0
-1.20511 -3.314404 -0.1418858 13
-1.349001 -2.8648 -0.1458061 15
-1.663945 -2.827165 -0.1698302 9
-1.857169 -2.592771 -0.1832637 9
-1.619975 -4.410804 -0.08132821 11
-1.386209 -2.916386 -0.07404242 17
-1.680979 -2.83808 -0.09500576 5
-2.235279 -3.100616 -0.1307742 7
-1.963372 -2.745394 -0.6049752 10
-2.008096 -2.766242 -0.3801738 9
-2.368638 -3.26831 0.1605272 9
-9.843386 -26.69453 1.653149 49
-2.155887 -2.942364 0.2934689 8
-25.32217 -67.71206 8.871478 15
-44.60553 -60.66609 13.71778 13
-25.31424 -67.04827 19.19273 17
-1.568256 -4.260012 0.025918 8
-1.408792 -2.945346 0 23
nan nan nan 0
-2.232273 -3.080583 -0.0440258 7
-1.623846 -4.418609 0.1377266 17
-1.544001 -3.239869 0.08239832 12
-1.71676 -2.899294 0.05695429 14
-2.384748 -3.303487 0.0492956 7
nan nan nan 0
-0.1511044 -0.4041087 -0.1023617 40
-1.039989 -2.815189 -0.4114761 9
-1.094155 -2.885527 -0.2885031 9
-1.119933 -2.984969 -0.2019509 9
-1.368767 -2.845198 -0.217989 17
-1.645937 -2.745314 -0.238786 28
-2.026136 -2.777841 -0.2776308 14
-1.201228 -3.26795 -0.1400564 10
-1.358993 -2.860073 -0.1458061 15
-1.678903 -2.829926 -0.1703535 8
-1.872063 -2.594358 -0.1838446 9
-1.628424 -4.386367 -0.08097916 9
-1.405017 -2.929564 -0.07450665 16
-1.71139 -2.866514 -0.09617148 6
-2.251973 -3.100873 -0.1311197 6
-1.978707 -2.746499 -0.6067598 8
-2.023618 -2.767227 -0.3812919 8
-2.37708 -3.255991 0.1603265 7
nan nan nan 0
-2.169111 -2.938826 0.2938742 9
-25.50574 -67.48398 8.853198 18
-44.86681 -60.57722 13.73302 12
-25.53092 -66.91438 19.17978 23
-1.574427 -4.231071 0.02577401 9
-1.414723 -2.931402 0 23
-1.709401 -2.851808 -0.01720014 5
-2.245967 -3.076807 -0.04408427 8
-1.627116 -4.380103 0.1366944 16
-1.553137 -3.229954 0.08228226 12
-1.731999 -2.901867 0.05712533 13
-2.399211 -3.299182 0.04935668 8
nan nan nan 0
-0.1541631 -0.4081267 -0.1036254 44
-1.04981 -2.811542 -0.4114761 10
-1.104221 -2.88169 -0.2885031 9
-1.121539 -2.957699 -0.2003506 8
-1.385217 -2.853868 -0.2190353 16
-1.650347 -2.731021 -0.2380327 8
-2.050607 -2.790807 -0.2796662 10
-1.209163 -3.254365 -0.1396498 12
-1.368968 -2.855312 -0.1458061 15
nan nan nan 0
-2.213521 -3.043494 -0.2166636 13
-1.666485 -4.441531 -0.08211357 8
-1.413059 -2.920141 -0.07439059 15
-1.726545 -2.869084 -0.09646291 6
-2.271652 -3.10508 -0.1316379 6
-1.994074 -2.747529 -0.6085443 9
-2.036219 -2.764142 -0.381851 9
-2.385466 -3.243652 0.1601259 5
nan nan nan 0
-2.185315 -2.939225 0.2946849 6
-25.73938 -67.3899 8.852589 20
-45.12799 -60.48726 13.74826 12
-25.77128 -66.84288 19.18496 17
-1.597958 -4.24896 0.025918 8
-1.420574 -2.917452 0 16
-1.734872 -2.871492 -0.01735722 6
-2.262628 -3.076995 -0.0442012 7
nan nan nan 0
-1.546966 -3.188525 0.08135383 11
-1.747276 -2.904369 0.05729637 9
-2.416632 -3.298846 0.04947885 7
nan nan nan 0
-0.1555868 -0.4075861 -0.1036254 45
-1.059618 -2.80786 -0.4114761 10
-1.116063 -2.882463 -0.2889745 11
-1.126523 -2.939779 -0.1993905 10
-1.39517 -2.849015 -0.2190353 15
-1.662467 -2.7295 -0.2384093 7
-2.066278 -2.791634 -0.2804804 9
-1.21352 -3.231406 -0.1388367 9
-1.378927 -2.850516 -0.1458061 15
nan nan nan 0
-2.235955 -3.051837 -0.2178253 13
-1.676678 -4.421657 -0.08185178 7
-1.421053 -2.910697 -0.07427453 15
-1.744332 -2.875855 -0.09690005 7
-2.288417 -3.105168 -0.1319834 7
-2.009472 -2.748486 -0.610329 9
-2.05179 -2.764988 -0.3829692 8
-2.420609 -3.267388 0.1617311 6
nan nan nan 0
-2.198555 -2.935563 0.2950902 4
-25.98697 -67.33205 8.856853 16
-45.3891 -60.3962 13.7635 13
-26.00796 -66.76151 19.18755 20
-1.626945 -4.280764 0.02614838 8
-1.454972 -2.961855 0 21
nan nan nan 0
-2.279318 -3.077105 -0.04431814 7
nan nan nan 0
-1.54272 -3.15167 0.08054145 12
-1.767781 -2.915346 0.05763843 12
-2.398394 -3.2502 0.048868 7
nan nan nan 0
-0.1586893 -0.4115768 -0.1048891 42
-1.069412 -2.804144 -0.4114761 10
-1.124312 -2.87391 -0.2885031 9
-1.14216 -2.949797 -0.2003506 8
-1.405107 -2.844128 -0.2190353 5
-1.669373 -2.719433 -0.2380327 8
-2.07601 -2.784404 -0.2804804 8
-1.221262 -3.217803 -0.1384301 12
-1.393244 -2.854665 -0.1462719 15
-1.695471 -2.79086 -0.1690451 6
-2.323809 -3.148325 -0.2253766 8
nan nan nan 0
-1.428999 -2.901233 -0.07415848 16
-1.759578 -2.878275 -0.09719148 16
-2.308195 -3.109185 -0.1325017 7
-2.024901 -2.749368 -0.6121135 9
-2.06441 -2.761784 -0.3835282 9
-2.44996 -3.282918 0.1629351 4
nan nan nan 0
nan nan nan 0
-26.21824 -67.23169 8.855636 17
-45.6531 -60.30799 13.77964 13
-26.24969 -66.69279 19.19402 16
-1.624008 -4.228361 0.0258604 7
-1.489696 -3.006052 0 22
-1.943348 -3.166027 -0.01924217 11
-2.296037 -3.077136 -0.04443507 7
nan nan nan 0
-1.538236 -3.114883 0.07972907 11
nan nan nan 0
-2.388809 -3.213748 0.04844041 8
nan nan nan 0
-0.160125 -0.4110204 -0.1048891 48
-1.079194 -2.800394 -0.4114761 9
-1.134337 -2.869968 -0.2885031 10
-1.15245 -2.945792 -0.2003506 9
nan nan nan 0
-1.678856 -2.713589 -0.2380327 8
-2.091716 -2.785101 -0.2812946 8
-1.225362 -3.19485 -0.1376171 9
-1.407608 -2.858749 -0.1467378 15
-1.692155 -2.76364 -0.1677367 7
-2.301962 -3.096177 -0.2221818 7
nan nan nan 0
-1.439117 -2.896228 -0.07415848 16
nan nan nan 0
-2.328029 -3.113102 -0.13302 9
-2.037423 -2.74623 -0.6130059 9
-2.077033 -2.758526 -0.3840873 9
-2.440353 -3.246421 0.1615305 4
-10.39634 -26.74666 1.66738 44
nan nan nan 0
-26.47276 -67.19055 8.862339 15
-45.91404 -60.21476 13.79488 14
-26.48946 -66.61871 19.1992 17
nan nan nan 0
-1.49348 -2.987413 0 24
-1.962285 -3.171976 -0.01932071 9
-2.309773 -3.073095 -0.04449353 7
-1.601713 -4.133162 0.1296164 6
-1.533514 -3.078167 0.0789167 12
nan nan nan 0
-2.372996 -3.169407 0.04789064 8
nan nan nan 0
-0.1615588 -0.4104589 -0.1048891 47
-1.088963 -2.79661 -0.4114761 8
-1.144348 -2.865991 -0.2885031 10
-1.164552 -2.946395 -0.2006707 8
nan nan nan 0
-1.685677 -2.703483 -0.2376561 9
-2.10745 -2.785721 -0.2821087 8
-1.231113 -3.17657 -0.1370072 12
-1.419797 -2.858293 -0.1469707 14
-1.68342 -2.727982 -0.165905 7
-2.348729 -3.136017 -0.225667 9
nan nan nan 0
-1.451456 -2.895657 -0.07427453 16
-2.362814 -3.803941 -0.1293944 6
-2.344905 -3.112931 -0.1333655 9
-2.052899 -2.746974 -0.6147904 8
-2.092667 -2.759167 -0.3852055 8
nan nan nan 0
nan nan nan 0
-2.13205 -2.785895 0.2821192 8
-26.71265 -67.11156 8.864166 15
-46.17788 -60.12434 13.81102 14
-26.73264 -66.55272 19.20696 15
nan nan nan 0
-1.490406 -2.955388 0 28
-1.973346 -3.165107 -0.01932071 9
-2.326534 -3.072977 -0.04461047 7
-1.597968 -4.080984 0.1281418 7
-1.542008 -3.068327 0.07880064 12
nan nan nan 0
-2.378013 -3.153129 0.04776847 8
nan nan nan 0
-0.1647187 -0.4144109 -0.1061528 49
-1.098718 -2.792792 -0.4114761 9
-1.154345 -2.861979 -0.2885031 10
-1.176672 -2.946949 -0.2009907 8
nan nan nan 0
-1.692448 -2.693362 -0.2372794 8
-2.120188 -2.782307 -0.2825158 8
-1.23131 -3.144323 -0.1357876 10
-1.432001 -2.857786 -0.1472036 14
-1.685014 -2.709373 -0.1651199 6
-2.368696 -3.139741 -0.2265383 9
nan nan nan 0
-1.463807 -2.895034 -0.07439059 16
-2.445073 -3.905785 -0.1331829 16
-2.364835 -3.116656 -0.1338837 8
-2.06544 -2.743717 -0.6156827 8
-2.105308 -2.755789 -0.3857645 8
nan nan nan 0
-10.47425 -26.39966 1.650245 49
-2.163104 -2.80603 0.2849566 12
-26.93564 -66.99029 8.860511 16
-46.44166 -60.03281 13.82716 14
-26.97205 -66.4769 19.21214 17
nan nan nan 0
-1.491655 -2.932336 0 36
-1.992368 -3.170897 -0.01939925 9
-2.340284 -3.068809 -0.04466894 6
-1.621366 -4.09863 0.1288791 8
-1.543678 -3.045087 0.07833643 11
nan nan nan 0
-2.389005 -3.144809 0.04776847 7
nan nan nan 0
-0.1644204 -0.4093211 -0.1048891 54
-1.10846 -2.788939 -0.4114761 9
-1.166198 -2.862546 -0.2889745 8
-1.186952 -2.942824 -0.2009907 8
-1.476447 -2.886418 -0.2239183 21
-1.70184 -2.687438 -0.2372794 9
-2.132928 -2.778837 -0.2829229 8
-1.249599 -3.1586 -0.1366007 11
-1.439717 -2.848311 -0.1469707 15
-1.705078 -2.720392 -0.1661666 7
-2.37359 -3.123513 -0.2259575 8
-1.363568 -3.411636 -0.0634395 22
-1.476173 -2.894361 -0.07450665 15
-2.493381 -3.952163 -0.1350772 12
-2.38482 -3.12028 -0.134402 9
-2.080962 -2.744322 -0.6174673 9
-2.120987 -2.756289 -0.3868827 9
nan nan nan 0
-10.55521 -26.33514 1.648502 40
-2.237202 -2.881021 0.2934689 12
-27.17865 -66.91884 8.863557 15
-46.70536 -59.94017 13.8433 14
-27.2021 -66.37788 19.21084 16
nan nan nan 0
-1.497321 -2.918211 0 16
-2.000748 -3.159699 -0.01937306 9
-2.366237 -3.080424 -0.04496127 8
-1.689276 -4.227602 0.1331554 9
-1.549752 -3.030776 0.07810432 10
nan nan nan 0
-2.390837 -3.124551 0.04758522 7
nan nan nan 0
-0.1676078 -0.4132509 -0.1061528 56
-1.118189 -2.785053 -0.4114761 9
-1.176183 -2.858457 -0.2889745 10
-1.199092 -2.943287 -0.2013108 9
-1.491083 -2.890114 -0.2246158 19
-1.708526 -2.67728 -0.2369028 10
-2.145669 -2.775312 -0.28333 7
-1.258771 -3.149577 -0.1363974 9
-1.458714 -2.861072 -0.1479024 14
-1.711894 -2.710204 -0.165905 7
-2.384479 -3.115209 -0.2259575 6
-1.382927 -3.42541 -0.06378854 23
-1.488551 -2.893637 -0.0746227 16
-2.528627 -3.977168 -0.1362429 7
-2.401804 -3.119847 -0.1347475 10
-2.096514 -2.744852 -0.6192519 9
-2.136696 -2.756713 -0.3880009 8
-2.402748 -3.105461 0.1561127 20
-10.65456 -26.31664 1.649664 36
-2.308773 -2.951607 0.3015758 12
nan nan nan 0
-46.96897 -59.84642 13.85944 11
nan nan nan 0
nan nan nan 0
-1.509794 -2.917409 0 15
-2.011765 -3.152696 -0.01937306 8
-2.395366 -3.095845 -0.04531208 6
-1.702158 -4.217043 0.133008 9
-1.546589 -2.998685 0.077408 12
nan nan nan 0
-2.407844 -3.124098 0.04770739 5
nan nan nan 0
-0.1672739 -0.4081632 -0.1048891 58
-1.127903 -2.781133 -0.4114761 9
-1.188057 -2.858934 -0.2894459 11
-1.21314 -2.948318 -0.2019509 11
nan nan nan 0
-1.71786 -2.6713 -0.2369028 11
-2.155344 -2.767806 -0.28333 8
-1.269757 -3.145164 -0.1363974 9
-1.470974 -2.860406 -0.1481353 13
-1.729395 -2.716844 -0.16669 6
-2.398392 -3.110816 -0.2262479 5
-1.404279 -3.443721 -0.06422485 23
-1.500942 -2.892862 -0.07473876 16
nan nan nan 0
-2.415748 -3.11539 -0.1349203 7
-2.109088 -2.741411 -0.6201442 9
-2.155497 -2.760972 -0.3896781 8
-2.40742 -3.089182 0.1557114 20
-10.74258 -26.27005 1.649083 19
-2.349963 -2.982629 0.3056292 11
nan nan nan 0
-47.2325 -59.75156 13.87558 12
nan nan nan 0
-1.307075 -3.197704 0.01966888 22
-1.52228 -2.916555 0 14
-2.022758 -3.145655 -0.01937306 8
-2.418473 -3.103222 -0.04554595 7
-1.735679 -4.257378 0.1344825 8
-1.536309 -2.953345 0.07636351 19
nan nan nan 0
-2.443304 -3.147235 0.04819607 5
nan nan nan 0
-0.1686977 -0.4075769 -0.1048891 55
-1.139473 -2.781765 -0.4121642 9
-1.198029 -2.85477 -0.2894459 10
-1.231053 -2.962509 -0.2032311 9
-1.520485 -2.897305 -0.226011 13
-1.727175 -2.665287 -0.2369028 12
-2.168074 -2.764182 -0.283737 8
-1.276971 -3.131454 -0.1359909 10
-1.483247 -2.859689 -0.1483682 12
-1.722679 -2.685583 -0.1651199 7
-2.403102 -3.094548 -0.225667 9
-1.414395 -3.434173 -0.06413759 24
-1.513346 -2.892035 -0.07485481 17
nan nan nan 0
-2.429689 -3.110872 -0.135093 8
-2.124683 -2.741801 -0.6219288 10
-2.171276 -2.761233 -0.3907963 9
-2.42746 -3.092536 0.1563133 22
-1.837113 -4.436193 0.2770738 8
-2.388293 -3.009499 0.3092773 9
-27.92389 -66.74045 8.878181 16
-47.499 -59.65944 13.89261 13
-27.87693 -66.04489 19.1979 18
-1.327731 -3.216245 0.01981287 22
-1.532451 -2.911223 0 14
-2.033726 -3.138575 -0.01937306 7
-2.450938 -3.12226 -0.04595521 6
-1.773297 -4.306778 0.1362521 8
-1.574445 -3.001098 0.07775616 23
-2.616143 -4.053274 0.08183973 15
-2.500549 -3.197703 0.04911234 6
nan nan nan 0
-0.1701193 -0.4069855 -0.1048891 61
-1.152946 -2.78693 -0.4135403 9
-1.209921 -2.855157 -0.2899173 10
-1.226001 -2.92136 -0.2006707 11
-1.521266 -2.874341 -0.2246158 12
-1.736468 -2.659242 -0.2369028 13
-2.1839 -2.764408 -0.2845512 7
-1.284104 -3.117733 -0.1355843 10
nan nan nan 0
-1.726617 -2.67117 -0.1645966 8
-2.432373 -3.109706 -0.2274096 5
-1.403416 -3.373791 -0.06309044 24
-1.525763 -2.891157 -0.07497086 17
nan nan nan 0
-2.440533 -3.102371 -0.135093 7
-2.140307 -2.742115 -0.6237134 10
-2.187083 -2.761418 -0.3919144 9
-2.416512 -3.056641 0.1549087 21
-1.823778 -4.360645 0.2727173 15
-2.41437 -3.020585 0.311304 8
-28.1393 -66.60143 8.872698 20
-47.76543 -59.56618 13.90965 13
-28.13381 -66.00938 19.21602 21
-1.340867 -3.216209 0.01984167 21
-1.544946 -2.910274 0 14
-2.05014 -3.139827 -0.01942543 7
-2.458716 -3.109768 -0.04589675 6
-1.765359 -4.245157 0.1344825 8
-1.596587 -3.017682 0.07833643 24
-2.597549 -3.993839 0.08081353 15
-2.520992 -3.200726 0.0492956 4
nan nan nan 0
-0.1715389 -0.4063892 -0.1048891 56
-1.164568 -2.787462 -0.4142284 9
-1.21988 -2.850916 -0.2899173 10
-1.226495 -2.894075 -0.1990705 11
-1.533636 -2.873415 -0.2249646 14
-1.742996 -2.649001 -0.2365262 15
-2.205973 -2.772346 -0.2861795 8
-1.29689 -3.117847 -0.1357876 9
nan nan nan 0
-1.72502 -2.648397 -0.1635499 6
-2.437025 -3.093363 -0.2268288 8
-1.411326 -3.359647 -0.06291592 23
-1.538191 -2.890227 -0.07508691 17
nan nan nan 0
-2.457565 -3.101658 -0.1354385 7
-2.155958 -2.742353 -0.6254979 8
-2.202919 -2.761525 -0.3930326 8
-2.417815 -3.036475 0.1543067 22
-1.775077 -4.202435 0.263133 11
-2.418638 -3.004385 0.3104933 10
nan nan nan 0
-48.03489 -59.47561 13.92758 11
nan nan nan 0
-1.340489 -3.183841 0.01966888 21
-1.557453 -2.909272 0 15
-2.063838 -3.136827 -0.01945161 6
-2.482035 -3.116794 -0.04613062 5
-1.80525 -4.298904 0.1363995 7
-1.614163 -3.025325 0.07868459 23
nan nan nan 0
nan nan nan 0
nan nan nan 0
-0.1747945 -0.4102628 -0.1061528 58
-1.178125 -2.792513 -0.4156046 9
-1.231791 -2.851213 -0.2903888 11
-1.234634 -2.885186 -0.1987504 11
-1.522402 -2.828504 -0.2218256 12
-1.752232 -2.642901 -0.2365262 16
-2.225004 -2.77628 -0.2874008 8
-1.307765 -3.113301 -0.1357876 8
nan nan nan 0
-1.726028 -2.62984 -0.1627648 7
-2.426052 -3.057496 -0.2247957 5
-1.45417 -3.428384 -0.06431212 23
-1.545909 -2.880435 -0.07497086 17
nan nan nan 0
-2.505845 -3.139879 -0.1375116 6
-2.171638 -2.742515 -0.6272826 8
-2.218781 -2.761555 -0.3941507 8
-2.415874 -3.012445 0.1535041 21
-1.754585 -4.113526 0.2579052 7
-2.42911 -2.995924 0.3104933 7
nan nan nan 0
-48.30429 -59.38389 13.94551 14
nan nan nan 0
-1.367185 -3.215979 0.01989926 20
-1.569971 -2.908219 0 15
-2.080304 -3.137936 -0.01950397 7
-2.508567 -3.127591 -0.04642295 5
nan nan nan 0
-1.617616 -3.006463 0.07833643 27
-2.462742 -3.729533 0.07576802 13
nan nan nan 0
nan nan nan 0
-0.1780791 -0.4141186 -0.1074166 52
-1.189798 -2.792943 -0.4162927 9
-1.245701 -2.856028 -0.2913316 10
-1.224985 -2.83502 -0.1955499 10
-1.541774 -2.840713 -0.2232207 12
-1.761447 -2.636768 -0.2365262 16
-2.244091 -2.780115 -0.2886221 8
-1.324455 -3.122525 -0.1363974 8
nan nan nan 0
-1.726928 -2.61131 -0.1619798 8
nan nan nan 0
-1.473974 -3.44168 -0.06466116 21
-1.565461 -2.892611 -0.07543508 16
-2.073816 -3.116406 -0.1079743 21
-2.519926 -3.135003 -0.1376843 5
-2.187345 -2.742602 -0.6290671 9
-2.23467 -2.761509 -0.3952689 9
-2.416941 -2.992347 0.1529021 22
nan nan nan 0
-2.449026 -2.998992 0.3117093 9
nan nan nan 0
-48.57363 -59.29102 13.96344 13
nan nan nan 0
-1.356789 -3.160613 0.01958249 21
-1.580113 -2.902721 0 14
-2.094025 -3.134812 -0.01953015 6
nan nan nan 0
nan nan nan 0
-1.606668 -2.961243 0.07729194 36
-2.497913 -3.754203 0.07645216 13
nan nan nan 0
nan nan nan 0
-0.1795236 -0.4134945 -0.1074166 51
-1.197591 -2.78422 -0.4156046 9
-1.25966 -2.86078 -0.2922744 10
-1.246797 -2.858189 -0.1974702 14
-1.554073 -2.839691 -0.2235695 13
-1.767854 -2.626469 -0.2361495 15
-2.26008 -2.779988 -0.2894362 8
-1.333387 -3.113287 -0.1361941 9
nan nan nan 0
-1.744346 -2.617727 -0.1627648 9
nan nan nan 0
nan nan nan 0
-1.577941 -2.891518 -0.07555113 14
-2.087467 -3.113298 -0.10812 37
nan nan nan 0
-2.203078 -2.742611 -0.6308517 9
-2.247441 -2.757538 -0.395828 8
-2.408422 -2.960666 0.1516982 22
nan nan nan 0
-2.472165 -3.005803 0.3133307 8
nan nan nan 0
-48.84606 -59.20078 13.98227 13
nan nan nan 0
-1.387622 -3.201765 0.01987046 20
-1.592639 -2.901572 0 15
-2.107748 -3.13163 -0.01955632 9
nan nan nan 0
nan nan nan 0
-1.609805 -2.942456 0.07694378 15
-2.488719 -3.71225 0.07576802 14
nan nan nan 0
nan nan nan 0
-0.1828507 -0.4173207 -0.1086803 48
-1.207303 -2.780023 -0.4156046 10
-1.275681 -2.870022 -0.2936887 11
-1.260773 -2.862959 -0.1981103 11
-1.56879 -2.842985 -0.2242671 22
-1.777011 -2.620282 -0.2361495 14
-2.276097 -2.779784 -0.2902504 7
-1.310666 -3.030604 -0.1327385 13
nan nan nan 0
-1.759044 -2.619909 -0.1632882 8
nan nan nan 0
-1.346463 -3.082877 -0.05802925 19
nan nan nan 0
-2.134719 -3.159813 -0.1100143 8
nan nan nan 0
-2.218838 -2.742545 -0.6326363 9
-2.26337 -2.757347 -0.3969462 9
-2.406055 -2.936801 0.1508955 21
-1.805568 -4.113219 0.2590669 8
-2.485827 -3.000988 0.3137361 7
nan nan nan 0
-49.11528 -59.10556 14.0002 14
nan nan nan 0
nan nan nan 0
-1.605177 -2.900372 0 15
-2.121475 -3.12839 -0.0195825 11
nan nan nan 0
nan nan nan 0
-1.617655 -2.932441 0.07682773 16
-2.468063 -3.65384 0.07474183 16
nan nan nan 0
nan nan nan 0
-0.1843063 -0.4166799 -0.1086803 50
-1.216999 -2.775791 -0.4156046 8
-1.289752 -2.874641 -0.2946315 9
-1.274797 -2.867666 -0.1987504 7
-1.581128 -2.841852 -0.2246158 22
-1.786147 -2.614064 -0.2361495 12
-2.29214 -2.779501 -0.2910645 7
-1.329202 -3.044338 -0.1335516 8
nan nan nan 0
-1.770979 -2.617888 -0.1635499 9
-2.313555 -2.834081 -0.2105645 24
-1.331094 -3.018649 -0.05689484 20
nan nan nan 0
-2.134479 -3.135821 -0.1094315 9
nan nan nan 0
-2.237738 -2.746211 -0.6353132 8
-2.279325 -2.757079 -0.3980643 8
-2.425847 -2.939931 0.1514975 21
-1.819915 -4.106892 0.2590669 8
nan nan nan 0
nan nan nan 0
-49.39076 -59.01674 14.01993 11
nan nan nan 0
nan nan nan 0
-1.615291 -2.894751 0 15
-2.135205 -3.125093 -0.01960868 10
nan nan nan 0
nan nan nan 0
-1.630308 -2.931146 0.07694378 16
-2.250027 -3.306391 0.06772943 28
nan nan nan 0
nan nan nan 0
-0.1857596 -0.416034 -0.1086803 47
-1.228677 -2.776058 -0.4162927 8
-1.301824 -2.874659 -0.2951029 11
-1.286835 -2.867755 -0.1990705 9
-1.593476 -2.840667 -0.2249646 20
-1.798091 -2.611917 -0.2365262 11
-2.311398 -2.78297 -0.2922858 7
-1.335806 -3.03053 -0.133145 8
-1.586714 -2.860851 -0.1506974 25
-1.78292 -2.615814 -0.1638115 10
-2.336137 -2.841393 -0.2117262 26
-1.317318 -2.959137 -0.0558477 20
nan nan nan 0
-2.145412 -3.128351 -0.1094315 10
nan nan nan 0
-2.253564 -2.74598 -0.6370978 9
-2.295305 -2.756733 -0.3991825 9
-2.448889 -2.946797 0.1523001 21
-1.834239 -4.100514 0.2590669 10
nan nan nan 0
nan nan nan 0
-49.66304 -58.92296 14.03876 13
nan nan nan 0
nan nan nan 0
-1.627835 -2.893454 0 15
-2.148937 -3.121737 -0.01963487 10
nan nan nan 0
nan nan nan 0
-1.642972 -2.929799 0.07705984 16
-2.275698 -3.319126 0.06815702 33
nan nan nan 0
nan nan nan 0
-0.1872107 -0.4153831 -0.1086803 50
-1.240372 -2.776278 -0.4169808 9
-1.311851 -2.870098 -0.2951029 9
-1.296837 -2.863245 -0.1990705 10
-1.605835 -2.83943 -0.2253134 22
-1.798665 -2.59334 -0.2353963 7
-2.327504 -2.78252 -0.2931 8
-1.316028 -2.957331 -0.1300959 13
-1.594256 -2.850934 -0.1504645 23
-1.794869 -2.613689 -0.1640732 10
-2.330095 -2.814021 -0.210274 8
-1.34397 -2.991029 -0.05654579 19
nan nan nan 0
-2.150633 -3.112622 -0.1091401 9
nan nan nan 0
-2.266275 -2.741884 -0.6379901 8
-2.314509 -2.760111 -0.4008597 8
-2.439889 -2.915271 0.1510962 21
-1.860833 -4.121397 0.2608095 12
-2.323638 -2.746813 0.2894154 19
nan nan nan 0
-49.93846 -58.83175 14.05848 13
nan nan nan 0
nan nan nan 0
-1.640389 -2.892104 0 15
-2.162673 -3.118324 -0.01966104 10
nan nan nan 0
-1.458558 -3.24535 0.1038111 18
-1.655647 -2.928399 0.07717589 16
-2.324231 -3.36462 0.06926873 14
nan nan nan 0
nan nan nan 0
-0.1867127 -0.4102984 -0.1074166 47
-1.252083 -2.77645 -0.4176688 8
-1.317706 -2.856454 -0.29416 10
-1.308891 -2.863243 -0.1993905 8
-1.620673 -2.842476 -0.226011 34
-1.833431 -2.623812 -0.238786 6
-2.346853 -2.785797 -0.2943212 7
-1.291677 -2.875186 -0.1266402 41
-1.609098 -2.854056 -0.1509303 22
-1.803982 -2.607408 -0.1640732 9
-2.330296 -2.794384 -0.2094027 7
-1.362632 -3.004545 -0.05689484 19
nan nan nan 0
-2.158628 -3.100996 -0.1089943 7
nan nan nan 0
-2.285292 -2.745286 -0.640667 8
-2.330553 -2.759597 -0.4019779 8
-2.466177 -2.925813 0.1520995 22
-1.908239 -4.187591 0.2654564 12
-2.317023 -2.719743 0.2873887 20
nan nan nan 0
-50.21065 -58.73558 14.07731 14
nan nan nan 0
nan nan nan 0
-1.652954 -2.890703 0 15
-2.179276 -3.118951 -0.0197134 11
nan nan nan 0
-1.46782 -3.235684 0.1036636 19
-1.668332 -2.926946 0.07729194 16
-2.315959 -3.327771 0.06867012 13
nan nan nan 0
nan nan nan 0
-0.1881438 -0.4096441 -0.1074166 43
-1.261767 -2.772062 -0.4176688 9
-1.333949 -2.865385 -0.2955743 9
-1.318877 -2.858657 -0.1993905 11
-1.638035 -2.849778 -0.2270573 16
-1.839706 -2.613321 -0.2384093 6
-2.366252 -2.788973 -0.2955424 6
-1.314036 -2.897982 -0.1278599 46
-1.61412 -2.839735 -0.1504645 28
-1.81593 -2.60519 -0.1643349 9
-2.340036 -2.786232 -0.2094027 6
-1.323355 -2.890591 -0.05480055 22
-1.648084 -2.87519 -0.07601535 35
-2.163696 -3.085261 -0.1087029 9
nan nan nan 0
-2.301193 -2.744823 -0.6424515 9
-2.346622 -2.759005 -0.403096 9
-2.450465 -2.886755 0.1504942 21
-1.951968 -4.244429 0.2695225 11
-2.310247 -2.692753 0.285362 35
nan nan nan 0
-50.48597 -58.64196 14.09703 12
nan nan nan 0
nan nan nan 0
-1.665529 -2.889248 0 15
-2.19303 -3.115412 -0.01973958 11
nan nan nan 0
-1.468739 -3.207803 0.1029263 18
-1.683514 -2.929775 0.07752405 16
-2.344792 -3.34422 0.06918322 13
-2.524448 -2.984964 0.04727979 7
nan nan nan 0
-0.1875949 -0.40457 -0.1061528 45
-1.273495 -2.772145 -0.418357 10
-1.343943 -2.860712 -0.2955743 9
-1.330946 -2.858562 -0.1997105 10
-1.647973 -2.844043 -0.2270573 17
-1.831497 -2.582493 -0.2361495 4
-2.385702 -2.792048 -0.2967637 8
-1.313789 -2.870645 -0.1268435 44
-1.619062 -2.825413 -0.1499986 34
-1.822141 -2.59475 -0.1640732 11
-2.346519 -2.774241 -0.2091123 7
-1.32717 -2.872329 -0.05453877 26
-1.655612 -2.865091 -0.0758993 16
-2.180224 -3.08585 -0.1089943 7
nan nan nan 0
-2.317119 -2.744282 -0.6442361 9
-2.365952 -2.762102 -0.4047732 8
-2.349962 -2.74923 0.1436718 28
-1.977253 -4.26024 0.2709747 11
-2.505694 -2.899317 0.3084666 20
nan nan nan 0
-50.76126 -58.54713 14.11676 12
nan nan nan 0
nan nan nan 0
-1.678115 -2.887741 0 7
-2.206785 -3.111815 -0.01976576 9
-2.472142 -2.891634 -0.0440258 11
-1.44441 -3.125474 0.1004195 18
-1.693731 -2.923881 0.07752405 16
-2.367995 -3.352343 0.06952529 11
nan nan nan 0
nan nan nan 0
-0.1870129 -0.3995047 -0.1048891 44
-1.285239 -2.772179 -0.419045 9
-1.360295 -2.869507 -0.2969885 8
-1.343031 -2.858419 -0.2000306 10
-1.662917 -2.84689 -0.2277549 7
nan nan nan 0
-2.401946 -2.791248 -0.2975779 8
-1.336323 -2.893277 -0.1280631 46
-1.626418 -2.815418 -0.1497657 18
-1.845617 -2.608747 -0.1653816 9
-2.349704 -2.758443 -0.2085314 7
-1.368762 -2.935696 -0.0558477 23
-1.673144 -2.872256 -0.07624745 9
-2.202583 -3.094503 -0.1095772 9
nan nan nan 0
-2.33307 -2.743664 -0.6460207 9
-2.382082 -2.761342 -0.4058914 8
-2.372605 -2.756136 0.1444744 3
-1.998447 -4.26688 0.271846 11
-2.542018 -2.920587 0.3117093 16
nan nan nan 0
-51.0365 -58.45109 14.13648 14
nan nan nan 0
nan nan nan 0
-1.700809 -2.903445 0 6
-2.223451 -3.112226 -0.01981812 10
-2.426673 -2.818657 -0.04303186 20
-1.459521 -3.129478 0.1007145 19
-1.706445 -2.922269 0.07764011 15
-2.379683 -3.344056 0.06952529 9
-2.434377 -2.838394 0.0452029 22
nan nan nan 0
-0.1884063 -0.3988494 -0.1048891 44
-1.294908 -2.767676 -0.419045 8
nan nan nan 0
-1.353001 -2.853713 -0.2000306 8
-1.64756 -2.798074 -0.2242671 6
-1.852396 -2.573689 -0.2365262 4
-2.418214 -2.790369 -0.2983921 8
-1.346414 -2.888594 -0.1280631 49
-1.653812 -2.839947 -0.1513961 10
-1.840211 -2.581966 -0.1640732 9
-2.349551 -2.738873 -0.2076601 8
-1.395966 -2.967118 -0.05654579 25
-1.685688 -2.87071 -0.07636351 7
-2.225029 -3.103036 -0.1101601 9
nan nan nan 0
-2.349044 -2.742967 -0.6478053 8
-2.398234 -2.760501 -0.4070096 9
-2.310088 -2.664899 0.14006 35
-2.038861 -4.314063 0.2753312 9
-2.558779 -2.919181 0.31252 14
-31.1743 -65.34596 8.884884 23
-51.3117 -58.35386 14.15621 13
-31.17667 -64.82625 19.2639 23
nan nan nan 0
-1.685534 -2.854422 0 5
-2.237224 -3.108503 -0.0198443 11
-2.393847 -2.761124 -0.04227179 10
-1.476799 -3.137941 0.1011568 16
-1.719168 -2.920604 0.07775616 16
-2.391341 -3.335729 0.06952529 9
-2.375527 -2.750521 0.04392012 11
nan nan nan 0
-0.1897974 -0.3981893 -0.1048891 38
-1.304561 -2.763139 -0.419045 8
nan nan nan 0
-1.365099 -2.853478 -0.2003506 9
-1.634425 -2.753691 -0.221128 6
-1.896519 -2.615622 -0.2410458 8
-2.437787 -2.793159 -0.2996133 8
-1.362844 -2.89745 -0.128673 51
-1.683923 -2.868627 -0.1532595 7
-1.869614 -2.603907 -0.165905 16
-2.336215 -2.704249 -0.2056271 7
-1.423406 -2.998384 -0.05724389 25
-1.670261 -2.821778 -0.07520297 8
-2.244632 -3.1074 -0.1105972 9
-2.36593 -2.723273 -0.1233458 18
-2.365041 -2.742192 -0.6495899 9
-2.417688 -2.763317 -0.4086868 8
-2.32596 -2.664336 0.1404613 26
-2.056051 -4.311428 0.2756216 11
-2.58547 -2.928888 0.3145467 11
-31.37854 -65.18755 8.878181 22
-51.59008 -58.25907 14.17683 13
-31.46389 -64.84303 19.30143 22
nan nan nan 0
nan nan nan 0
-2.253934 -3.108768 -0.01989666 11
-2.37712 -2.722661 -0.04180405 13
-1.5027 -3.164394 0.102189 17
-1.731901 -2.918885 0.07787222 16
-2.40297 -3.327362 0.06952529 9
-2.394974 -2.753514 0.04410337 12
nan nan nan 0
-0.1932253 -0.4019113 -0.1061528 43
-1.31632 -2.763044 -0.4197331 9
nan nan nan 0
-1.375051 -2.848696 -0.2003506 9
-1.644027 -2.747969 -0.221128 7
-1.979218 -2.709595 -0.2504616 11
-2.454113 -2.792109 -0.3004275 8
-1.375084 -2.897192 -0.1288762 54
-1.683762 -2.845531 -0.1523278 6
nan nan nan 0
-2.358769 -2.711121 -0.2067888 8
-1.401581 -2.925714 -0.05593496 34
-1.698012 -2.845989 -0.07601535 6
-2.26135 -3.107626 -0.1108886 8
-2.375422 -2.714998 -0.1233458 21
-2.381062 -2.741339 -0.6513745 9
-2.4339 -2.762306 -0.409805 9
-2.513691 -2.858536 0.1512969 22
-2.071088 -4.304224 0.2756216 7
-2.598995 -2.923565 0.3149521 11
nan nan nan 0
-51.86516 -58.1594 14.19656 13
nan nan nan 0
nan nan nan 0
nan nan nan 0
-2.267723 -3.104918 -0.01992284 11
nan nan nan 0
-1.502975 -3.136576 0.1014517 16
-1.744642 -2.917113 0.07798827 17
-2.41457 -3.318954 0.06952529 9
nan nan nan 0
nan nan nan 0
-0.1946271 -0.4012343 -0.1061528 44
-1.328094 -2.762899 -0.4204212 8
nan nan nan 0
-1.384987 -2.843878 -0.2003506 10
-1.65361 -2.742213 -0.221128 7
-2.083297 -2.83112 -0.2625139 13
-2.480387 -2.802158 -0.3024629 7
-1.391639 -2.905904 -0.1294861 44
nan nan nan 0
-2.273233 -3.119232 -0.200185 18
-2.387989 -2.725367 -0.2085314 8
-1.390105 -2.875757 -0.05506234 40
-1.705362 -2.83576 -0.0758993 7
-2.275141 -3.103743 -0.1110343 8
nan nan nan 0
-2.397105 -2.740408 -0.6531591 8
-2.450134 -2.761217 -0.4109231 8
