# .PCD v0.7 - Point Cloud Data file format
VERSION 0.7
FIELDS x y z intensity
SIZE 4 4 4 4
TYPE F F F F
COUNT 1 1 1 1
WIDTH 1549
HEIGHT 1
VIEWPOINT 0 0 0 1 0 0 0
POINTS 1549
DATA ascii
-4.268046 -31.56671 1.277796 29
nan nan nan 0
-6.335427 -45.00587 3.693492 43
2.097459 -15.35093 1.897506 35
-6.31605 -44.81168 8.241426 95
2.001418 -14.99928 4.044047 39
8.002423 -55.84822 0.3247237 33
0.172859 -3.610793 0 26
nan nan nan 0
-4.24577 -31.4017 -0.3700973 33
nan nan nan 0
0.1887046 -3.829255 0.08808496 23
-1.975382 -47.97226 0.8206208 16
-4.176303 -31.34022 0.3858129 29
nan nan nan 0
0.05421379 -0.3987435 -0.09477933 30
1.102522 -7.756747 -1.083049 25
1.360305 -10.19343 -0.9701625 18
1.867466 -13.61901 -0.8791745 12
nan nan nan 0
-0.5610193 -12.02765 -0.9065581 15
-1.557452 -11.26467 -0.9257074 9
2.970057 -20.62461 -0.846233 72
0.1873521 -3.711202 -0.171427 15
-0.6745243 -16.06877 -0.8407772 9
-1.945992 -14.60569 -0.8550369 8
4.48424 -31.9465 -0.5624037 35
0.1758929 -3.754808 -0.08634415 30
nan nan nan 0
nan nan nan 0
-0.8213616 -6.228848 -1.132321 26
-1.237992 -8.88238 -1.004665 14
-4.387834 -31.6209 1.280605 33
nan nan nan 0
-6.486788 -44.94402 3.690249 103
2.036642 -15.30405 1.890803 33
-6.470321 -44.77476 8.238736 97
1.969007 -15.15943 4.085459 40
7.83651 -56.08379 0.3259332 13
0.1607023 -3.621364 0 29
-2.087663 -44.80571 -0.2346497 7
-4.342972 -31.29755 -0.3690449 34
nan nan nan 0
0.1748746 -3.819903 0.08785285 22
nan nan nan 0
-4.310102 -31.50377 0.388012 26
nan nan nan 0
0.05282159 -0.3989303 -0.09477933 32
1.074756 -7.755643 -1.082361 27
1.324715 -10.19812 -0.9701625 18
1.821241 -13.63534 -0.8798146 12
nan nan nan 0
-0.6030002 -12.02562 -0.9065581 15
-1.596061 -11.25424 -0.9253003 9
2.89178 -20.59033 -0.8444036 81
0.1741594 -3.706845 -0.1711941 14
-0.7297011 -16.04636 -0.8397304 10
-1.993572 -14.57408 -0.8535848 11
4.387625 -32.07092 -0.5643235 33
0.1647553 -3.800344 -0.08738863 33
-1.173933 -24.30127 -0.7081718 24
-2.97177 -21.26515 -0.7409385 24
-0.8424349 -6.221068 -1.131428 24
-1.26899 -8.878004 -1.004665 13
-4.523558 -31.78345 1.287829 32
nan nan nan 0
-6.643632 -44.92111 3.690249 110
1.980012 -15.28646 1.887756 30
-6.624412 -44.73731 8.236046 99
1.922756 -15.21892 4.099693 38
nan nan nan 0
0.1476469 -3.611911 0 33
-2.23579 -44.63335 -0.2337858 8
-4.49945 -31.61383 -0.3729622 29
nan nan nan 0
0.1611122 -3.810503 0.08762074 25
nan nan nan 0
-4.417262 -31.46873 0.3877676 33
nan nan nan 0
0.05142874 -0.3991122 -0.09477933 28
1.047011 -7.75444 -1.081673 31
1.289109 -10.20268 -0.9701625 19
1.777505 -13.6713 -0.8817348 10
nan nan nan 0
-0.6455096 -12.0334 -0.9073114 15
-1.635336 -11.2486 -0.9253003 9
2.819889 -20.6003 -0.8444036 87
0.1614387 -3.712419 -0.171427 15
-0.7864432 -16.05868 -0.8405154 9
-2.050693 -14.61152 -0.8561987 10
4.234656 -31.77881 -0.5589132 37
0.153302 -3.845848 -0.08843312 38
-1.257717 -24.27706 -0.7075889 21
-3.04314 -21.23486 -0.7402474 25
-0.8641454 -6.21809 -1.131428 27
-1.299249 -8.868606 -1.004106 14
-4.650361 -31.87622 1.292244 28
3.882308 -29.651 1.737665 15
-6.799648 -44.89272 3.689844 111
1.929129 -15.31297 1.890193 26
-6.779057 -44.70419 8.234253 101
1.870801 -15.23512 4.102282 42
nan nan nan 0
0.1357953 -3.632391 0 24
-2.391844 -44.63027 -0.233812 7
-4.63579 -31.77603 -0.3750671 26
7.499384 -56.32278 1.675281 22
0.1478101 -3.811042 0.08762074 24
-2.477112 -47.93896 0.8204497 9
-4.524942 -31.43828 0.3875843 35
nan nan nan 0
0.05003526 -0.3992894 -0.09477933 28
1.019288 -7.753138 -1.080985 29
1.252878 -10.20218 -0.969691 19
1.726633 -13.65267 -0.8801346 11
nan nan nan 0
-0.6869396 -12.02112 -0.9065581 15
-1.674591 -11.24282 -0.9253003 9
2.747302 -20.60506 -0.8442003 77
0.1486811 -3.717951 -0.1716599 14
-0.8382987 -15.97605 -0.8363286 10
-2.105962 -14.63391 -0.8579413 8
4.115976 -31.73391 -0.5578662 31
0.1396925 -3.841364 -0.08831707 37
-1.352402 -24.45217 -0.7128346 18
-3.136158 -21.35265 -0.7447391 27
-0.8858454 -6.215035 -1.131428 26
-1.330198 -8.864016 -1.004106 13
-4.748294 -31.77086 1.288632 30
nan nan nan 0
-6.954783 -44.85885 3.689033 25
1.885342 -15.39842 1.899943 26
-6.933553 -44.67053 8.23246 102
nan nan nan 0
nan nan nan 0
0.1236307 -3.647834 0 27
-2.540488 -44.49685 -0.2331575 9
-5.395537 -36.09608 -0.4263428 24
7.302735 -56.34862 1.675281 40
0.1345062 -3.811534 0.08762074 23
-2.642506 -47.89508 0.8198511 8
-4.660217 -31.5954 0.3897223 33
nan nan nan 0
0.04798714 -0.3946683 -0.0935156 32
0.9915863 -7.751737 -1.080297 28
1.218442 -10.21637 -0.9706339 19
1.676523 -13.6388 -0.8788545 11
nan nan nan 0
nan nan nan 0
-1.713826 -11.2369 -0.9253003 8
2.680515 -20.65416 -0.8458266 82
0.1358869 -3.723439 -0.1718928 14
-0.8974155 -16.03285 -0.8394687 9
-2.15557 -14.6166 -0.8573604 10
3.983875 -31.57945 -0.5548992 28
0.126616 -3.85182 -0.08854917 39
-1.436572 -24.42734 -0.7122517 15
-3.219609 -21.40086 -0.7468121 26
-0.9068192 -6.207038 -1.130536 24
-1.361131 -8.85932 -1.004106 14
-4.894723 -31.98619 1.298063 15
6.009205 -48.49612 2.841023 29
-7.110548 -44.82939 3.688628 62
1.841569 -15.48868 1.910302 21
-7.087895 -44.63633 8.230666 98
1.833992 -15.84749 4.264044 41
6.068049 -48.34948 0.2804327 18
0.11136 -3.663236 0 20
-2.692769 -44.43781 -0.2328957 9
-4.905212 -32.05424 -0.3787505 12
6.860165 -54.42507 1.61733 42
0.1212006 -3.81198 0.08762074 21
-2.807917 -47.85562 0.819338 9
-4.792158 -31.7223 0.3914938 36
nan nan nan 0
0.04597189 -0.3900379 -0.09225187 31
0.9645215 -7.755151 -1.080297 30
1.180474 -10.20079 -0.9687482 19
1.627124 -13.62971 -0.8778943 12
nan nan nan 0
-0.7721254 -12.03593 -0.9080646 12
-1.753039 -11.23085 -0.9253003 9
2.609029 -20.66835 -0.8460298 69
0.1233909 -3.738865 -0.1725916 14
-0.9551571 -16.05953 -0.8410388 7
-2.205831 -14.60405 -0.85707 9
0.478855 -3.94504 -0.06867521 6
0.113319 -3.857235 -0.08866523 41
-0.511029 -8.220576 -0.2389715 12
-3.301149 -21.43394 -0.7483669 17
-0.9284804 -6.203835 -1.130536 26
-1.391273 -8.849606 -1.003547 15
-5.022596 -32.07256 1.302277 14
5.841676 -48.53167 2.841894 18
-7.266189 -44.79937 3.688223 115
1.794907 -15.5591 1.918223 22
-7.242085 -44.60161 8.228873 102
1.775423 -15.825 4.256279 41
5.915599 -48.50437 0.2812103 12
0.09816124 -3.648608 0 18
-2.842749 -44.3483 -0.2324768 9
-5.630366 -35.94887 -0.4250565 19
5.943934 -48.52563 1.441264 53
0.1078936 -3.812381 0.08762074 20
-2.976499 -47.87048 0.8197656 9
-4.939574 -31.94253 0.3944259 28
nan nan nan 0
0.04461013 -0.390196 -0.09225187 31
0.9368477 -7.753554 -1.079609 29
1.144302 -10.1999 -0.9682768 20
1.580114 -13.64026 -0.8782143 11
nan nan nan 0
-0.8127844 -12.01326 -0.9065581 14
-1.792231 -11.22467 -0.9253003 9
2.532599 -20.64262 -0.8446069 73
0.1100392 -3.729289 -0.1721258 13
nan nan nan 0
-2.246857 -14.53213 -0.8532943 8
0.4615298 -3.916902 -0.06815165 33
0.09998576 -3.862604 -0.08878128 40
-1.591954 -24.18731 -0.7055489 17
-3.387634 -21.49633 -0.7509581 16
-0.9501302 -6.200556 -1.130536 25
-1.422155 -8.844696 -1.003547 14
nan nan nan 0
5.992268 -51.28846 3.002213 49
-7.421708 -44.76882 3.687817 116
1.737266 -15.53568 1.914567 18
-7.396117 -44.56635 8.227079 100
1.717556 -15.8071 4.249809 38
nan nan nan 0
0.08542463 -3.648928 0 18
-2.998886 -44.35806 -0.2325815 8
-5.73761 -35.81545 -0.4237118 36
0.4653102 -3.955586 0.1163451 10
0.09458524 -3.812734 0.08762074 22
-3.141941 -47.83485 0.819338 10
nan nan nan 0
nan nan nan 0
0.04324782 -0.3903493 -0.09225187 34
0.9091966 -7.751859 -1.078921 30
1.108691 -10.20383 -0.9682768 20
1.531932 -13.64074 -0.8778943 11
nan nan nan 0
-0.8547136 -12.01035 -0.9065581 14
-1.831402 -11.21834 -0.9253003 9
2.468229 -20.71582 -0.8472494 68
0.09702088 -3.72965 -0.1721258 14
-1.060282 -15.94784 -0.8355435 11
-2.299134 -14.53406 -0.8538752 10
0.4461306 -3.903591 -0.06788985 35
0.08684499 -3.877922 -0.08912945 36
nan nan nan 0
-3.479373 -21.58797 -0.754586 10
-0.9717683 -6.197202 -1.130536 25
-1.45302 -8.839677 -1.003547 14
-7.725217 -47.15752 1.917698 9
5.580904 -49.26068 2.882264 34
-7.577103 -44.73773 3.687412 119
1.673914 -15.45778 1.904208 18
-7.549992 -44.53057 8.225286 100
1.668447 -15.87063 4.265338 16
0.4468091 -3.934227 0.02257745 44
0.07442258 -3.734186 0 22
-3.146609 -44.24758 -0.2320579 9
-5.862594 -35.79521 -0.4237118 37
0.4480584 -3.927397 0.1154604 40
0.08127573 -3.813041 0.08762074 21
-3.306825 -47.79367 0.8188249 9
-7.651618 -47.27584 0.5846446 74
nan nan nan 0
0.04188498 -0.3904979 -0.09225187 33
0.8815688 -7.750065 -1.078233 34
0.9073044 -8.63843 -0.8188397 9
0.9325324 -8.591477 -0.5517644 8
0.06834932 -3.859998 -0.2671673 31
-0.8958881 -11.99735 -0.9058048 14
-1.87055 -11.21188 -0.9253003 9
2.398202 -20.74416 -0.8480625 41
0.0834261 -3.705 -0.1709612 14
-1.118737 -15.98389 -0.8376369 10
-2.349853 -14.52595 -0.8538752 10
0.43083 -3.890221 -0.06762807 33
0.07350165 -3.888196 -0.08936156 39
nan nan nan 0
-3.524606 -21.39327 -0.7481941 6
-0.9933947 -6.193772 -1.130536 25
-1.483868 -8.834551 -1.003547 14
-7.890605 -47.13519 1.917898 9
0.428453 -3.949773 0.2288618 7
-7.733221 -44.71101 3.687412 119
1.620984 -15.4734 1.905427 23
-7.703707 -44.49425 8.223494 100
nan nan nan 0
0.4319656 -3.925825 0.02251986 48
0.06257241 -3.804413 0 22
-2.417255 -32.39943 -0.169907 16
-5.971812 -35.68083 -0.4226009 42
0.435459 -3.938871 0.1157553 43
0.06833164 -3.833293 0.08808496 20
-2.412503 -33.19251 0.5686023 13
-7.818227 -47.2587 0.5847667 125
nan nan nan 0
0.04052163 -0.3906417 -0.09225187 33
0.8539646 -7.748172 -1.077544 29
0.8837184 -8.705921 -0.8249681 9
0.9098752 -8.664149 -0.5562451 9
0.05516749 -3.880163 -0.2685624 30
nan nan nan 0
-1.908836 -11.20037 -0.9248932 9
0.4656792 -4.195352 -0.170141 131
0.07137137 -3.750211 -0.1730574 13
-1.177457 -16.01973 -0.8397304 10
-2.40136 -14.52258 -0.8541656 8
0.4161682 -3.881761 -0.06745355 36
0.06016703 -3.903424 -0.08970972 39
nan nan nan 0
nan nan nan 0
-1.015009 -6.190267 -1.130536 23
-1.51554 -8.834214 -1.004106 14
-8.052563 -47.09259 1.917296 10
0.4130797 -3.936354 0.2279905 26
-7.889244 -44.68374 3.687412 122
1.575487 -15.5629 1.915786 27
-7.85726 -44.4574 8.221701 100
nan nan nan 0
0.420942 -3.952164 0.02266385 51
0.05043443 -3.889601 0 22
-2.527218 -32.35092 -0.1696976 24
-6.091266 -35.6302 -0.4222501 40
0.422246 -3.945336 0.1159027 43
0.05524715 -3.8535 0.08854917 22
-2.529112 -33.19386 0.5687733 12
-7.983977 -47.23605 0.5848278 130
nan nan nan 0
0.03971131 -0.3955867 -0.0935156 30
0.8263844 -7.746182 -1.076856 31
0.8572303 -8.748583 -0.8287394 6
0.8811467 -8.682165 -0.5572053 8
0.04184571 -3.900281 -0.2699575 28
-0.9792162 -11.98584 -0.9054282 15
-1.947921 -11.19364 -0.9248932 8
0.4548147 -4.231718 -0.1715639 147
0.05884161 -3.785395 -0.1746878 13
nan nan nan 0
-2.450372 -14.50427 -0.8535848 8
0.4010481 -3.868274 -0.06719176 35
0.04685087 -3.928601 -0.09028999 35
-1.911986 -23.94352 -0.6991375 14
nan nan nan 0
-1.036611 -6.186686 -1.130536 22
-1.546368 -8.82887 -1.004106 13
-8.218617 -47.07404 1.917698 10
0.3962738 -3.90798 0.2262479 30
-8.045171 -44.65593 3.687412 121
1.525512 -15.61275 1.92127 31
-8.011524 -44.42485 8.220803 100
1.862549 -19.68558 5.287673 16
0.4045479 -3.928745 0.02251986 57
0.03715533 -3.919752 0 23
-2.642164 -32.36682 -0.1698285 28
-6.221624 -35.6432 -0.4226594 42
0.4074286 -3.936844 0.1156078 44
0.04202241 -3.873663 0.08901339 25
nan nan nan 0
-8.150515 -47.21775 0.58495 126
nan nan nan 0
0.03833021 -0.3957229 -0.0935156 31
0.7988285 -7.744094 -1.076168 31
nan nan nan 0
nan nan nan 0
0.02803942 -3.875466 -0.2682136 30
-1.021049 -11.98235 -0.9054282 15
-1.986982 -11.18677 -0.9248932 9
0.436379 -4.198501 -0.170141 129
0.04581605 -3.80056 -0.1753866 13
nan nan nan 0
-2.497584 -14.47595 -0.852423 9
0.3860272 -3.854729 -0.06692997 33
0.03291475 -3.903749 -0.08970972 32
-1.985162 -23.81219 -0.6954946 25
-3.720753 -21.19769 -0.742666 8
-1.0582 -6.18303 -1.130536 22
-1.577177 -8.823419 -1.004106 14
-8.38464 -47.0549 1.918099 10
0.3885479 -3.968945 0.2297331 18
-8.201001 -44.62758 3.687412 124
1.470536 -15.61304 1.920661 15
-8.164765 -44.38695 8.21901 99
nan nan nan 0
0.3908316 -3.930133 0.02251986 72
0.02363406 -3.944857 0 27
-2.755978 -32.36736 -0.1698809 30
-6.338983 -35.58189 -0.4221916 39
0.3931797 -3.93327 0.1154604 46
0.02877537 -3.908776 0.08982577 25
-2.711833 -32.58752 0.5586823 14
-8.316154 -47.19393 0.5850111 128
nan nan nan 0
0.03746859 -0.4006639 -0.09477933 34
0.7703084 -7.732051 -1.074104 31
0.3555519 -3.941103 -0.3709999 36
nan nan nan 0
0.01472027 -3.925418 -0.2717015 30
-1.061985 -11.96878 -0.9046749 15
-2.02691 -11.18467 -0.9253003 9
nan nan nan 0
0.03254934 -3.800696 -0.1753866 14
-1.339286 -15.93686 -0.8360668 10
-2.545497 -14.4524 -0.8515517 8
0.3711058 -3.841127 -0.06666819 34
0.01923383 -3.893842 -0.08947761 28
nan nan nan 0
-3.79296 -21.17474 -0.7423205 8
-1.079776 -6.179298 -1.130536 22
-1.607967 -8.81786 -1.004106 13
-8.551523 -47.04009 1.918701 10
0.3723122 -3.945433 0.2282809 20
-8.35673 -44.59868 3.687412 124
1.417377 -15.63291 1.922489 18
-8.318748 -44.35334 8.218114 102
4.120845 -46.97224 12.6239 6
0.3775949 -3.93645 0.02254866 77
0.009908298 -3.959915 0 25
-2.872479 -32.39739 -0.1700903 24
-6.456885 -35.52512 -0.4217823 40
0.378474 -3.924671 0.1151654 54
0.01515283 -3.913851 0.08994183 27
-2.832052 -32.65256 0.559965 25
-8.482612 -47.17446 0.5851333 129
nan nan nan 0
0.03606979 -0.4007923 -0.09477933 35
0.7423592 -7.724835 -1.072728 27
0.3404834 -3.927444 -0.3695857 39
0.3539935 -3.925671 -0.2502783 101
0.001007473 -3.910482 -0.2706551 33
-1.106511 -11.99478 -0.9069347 15
-2.065939 -11.17753 -0.9253003 8
0.8368309 -8.57675 -0.3490229 19
0.01950539 -3.840743 -0.1772499 14
-1.396216 -15.94701 -0.8368519 10
-2.590621 -14.41395 -0.8498092 9
0.3562841 -3.827468 -0.0664064 39
0.005603277 -3.873891 -0.08901339 27
nan nan nan 0
-3.868649 -21.1712 -0.742666 9
-1.10134 -6.175492 -1.130536 22
-1.637826 -8.807309 -1.003547 14
-8.717494 -47.01978 1.919102 11
0.3585378 -3.946708 0.2282809 23
-8.512358 -44.56924 3.687412 124
1.47223 -16.88856 2.076653 18
-8.472595 -44.31921 8.217218 103
3.950364 -46.90935 12.60319 8
0.3643189 -3.942722 0.02257745 46
-0.003906593 -3.944926 0 19
-2.978661 -32.31248 -0.1696976 30
-6.571731 -35.4532 -0.4211977 35
0.3633636 -3.911041 0.114723 47
0.001473402 -3.893885 0.08947761 21
-2.950959 -32.69724 0.5609058 20
-8.648132 -47.14948 0.5851943 127
nan nan nan 0
0.0351569 -0.4057289 -0.09604306 36
0.363459 -3.955154 -0.5463412 19
0.3263529 -3.923649 -0.3691143 37
0.3394133 -3.916942 -0.2496382 102
nan nan nan 0
-1.146469 -11.971 -0.9054282 15
-2.105869 -11.17514 -0.9257074 9
nan nan nan 0
0.006203183 -3.890733 -0.1795791 14
-1.447339 -15.89232 -0.8342351 11
-2.645428 -14.42937 -0.8512613 9
0.3415623 -3.813753 -0.06614462 37
-0.007927012 -3.878886 -0.08912945 29
nan nan nan 0
-3.936111 -21.12318 -0.7414567 8
-1.122889 -6.17161 -1.130536 22
-1.668559 -8.801538 -1.003547 14
-8.886213 -47.0136 1.920105 10
0.3452001 -3.952908 0.2285714 33
-8.668833 -44.54414 3.687817 124
nan nan nan 0
-8.627248 -44.28936 8.217218 103
1.581678 -19.63746 5.268261 12
0.3465069 -3.899153 0.02231828 47
-0.01759665 -3.924889 0 22
-3.087145 -32.2571 -0.169462 28
-6.727036 -35.59707 -0.4231856 31
0.3488051 -3.902331 0.1144281 43
-0.01206646 -3.873872 0.08901339 21
-3.045462 -32.47769 0.557314 25
-8.814502 -47.12884 0.5853165 123
nan nan nan 0
0.03374042 -0.4058492 -0.09604306 40
0.3496507 -3.956398 -0.5463412 45
0.312253 -3.919802 -0.3686429 40
0.3236379 -3.893243 -0.2480379 105
nan nan nan 0
-1.188249 -11.96692 -0.9054282 15
-2.146749 -11.17751 -0.9265216 9
0.3545797 -3.950448 -0.159774 142
-0.007364101 -3.880742 -0.1791133 13
-1.504688 -15.90705 -0.8352818 11
-2.697618 -14.42986 -0.8518422 10
0.3273763 -3.804961 -0.06597009 37
-0.0215174 -3.888832 -0.08936156 25
-2.25389 -23.13051 -0.676406 40
-4.002351 -21.07005 -0.7400748 9
-1.143524 -6.162816 -1.129644 23
-1.699272 -8.79566 -1.003547 13
-9.048376 -46.97249 1.919704 11
0.3313998 -3.954089 0.2285714 41
-8.825238 -44.5185 3.688223 125
0.2991775 -3.7846 0.4612754 19
-8.780835 -44.25415 8.216321 104
1.510888 -19.61397 5.260497 16
0.3307328 -3.875432 0.02217429 54
-0.03114686 -3.904804 0 23
-3.162182 -31.86799 -0.1674723 27
-6.80867 -35.35246 -0.4205545 29
0.3338771 -3.888588 0.1139858 42
-0.02549712 -3.85881 0.08866523 18
-3.096812 -31.82997 0.5463679 23
-8.980832 -47.1076 0.5854387 120
nan nan nan 0
0.03277628 -0.4107809 -0.09730678 48
0.3337102 -3.932925 -0.5429007 49
0.2981839 -3.915905 -0.3681715 38
0.3096431 -3.889375 -0.2477179 111
-0.1264237 -12.75825 -0.889395 14
-1.229503 -11.95774 -0.9050515 15
-2.186712 -11.17484 -0.9269286 9
0.3372976 -3.911847 -0.1581478 144
-0.08937477 -17.8903 -0.8324457 16
-1.554835 -15.84704 -0.8324034 11
-2.748908 -14.42526 -0.8521326 8
0.3128375 -3.791136 -0.0657083 38
-0.03517732 -3.89873 -0.08959366 29
nan nan nan 0
-4.066365 -21.00689 -0.7383472 9
-1.165029 -6.158787 -1.129644 22
-1.729964 -8.789676 -1.003547 14
-9.214211 -46.95042 1.920105 11
0.317189 -3.950246 0.2282809 39
-8.982555 -44.49718 3.689033 119
0.2848228 -3.770777 0.4594474 18
-8.936233 -44.22805 8.217218 87
3.449682 -46.82291 12.56955 7
0.3151284 -3.85165 0.0220303 61
-0.04444712 -3.874673 0 21
-3.278516 -31.90649 -0.1677341 25
-6.928179 -35.30885 -0.4203207 28
0.3194668 -3.879769 0.1136908 43
-0.03920664 -3.88369 0.08924551 19
-3.166759 -31.41109 0.5393555 21
-9.149029 -47.09559 0.585683 119
nan nan nan 0
0.03134219 -0.4108928 -0.09730678 54
0.3187546 -3.919258 -0.5408365 51
0.2837788 -3.906994 -0.3672287 36
0.2941377 -3.865558 -0.2461177 106
-0.171156 -12.77269 -0.8904413 14
-1.271236 -11.95338 -0.9050515 15
-2.225706 -11.16714 -0.9269286 9
0.322384 -3.898066 -0.157538 142
-0.1518649 -17.89487 -0.8326787 17
-1.613175 -15.87132 -0.8339734 10
-2.799244 -14.41557 -0.8521326 10
0.2983993 -3.777255 -0.06544652 35
-0.04890661 -3.90858 -0.08982577 24
-2.445465 -23.40252 -0.6848575 31
-4.131924 -20.95335 -0.7369652 9
-1.18652 -6.154682 -1.129644 24
-1.760635 -8.783582 -1.003547 14
-9.380003 -46.92777 1.920507 7
0.3022311 -3.9364 0.2274096 39
-9.139833 -44.47533 3.689844 119
0.2709316 -3.761849 0.4582287 30
-9.086596 -44.17732 8.213632 104
3.282494 -46.78167 12.55531 8
0.3020793 -3.857711 0.02205909 62
-0.05804441 -3.879494 0 18
-3.396744 -31.95949 -0.1680744 31
-7.006284 -35.05893 -0.4176312 31
0.305122 -3.870897 0.1133959 43
-0.05315559 -3.913519 0.08994183 24
-3.269636 -31.33521 0.5382438 17
-9.31531 -47.07318 0.5858052 118
nan nan nan 0
0.03032682 -0.4158192 -0.0985705 63
0.3050718 -3.920347 -0.5408365 50
0.2697892 -3.902996 -0.3667572 36
0.2795385 -3.851633 -0.2451575 102
-0.2155729 -12.76204 -0.8897438 14
-1.312408 -11.94391 -0.9046749 15
-2.26368 -11.15442 -0.9265216 9
0.3055629 -3.85933 -0.1559118 149
-0.2157513 -18.01409 -0.8382687 17
-1.666998 -15.8507 -0.8331884 10
-2.850517 -14.41061 -0.852423 9
0.2840618 -3.76332 -0.06518473 34
-0.06270508 -3.918381 -0.09005788 26
-2.509951 -23.23484 -0.6801946 36
-4.191248 -20.87021 -0.7345466 9
-1.207044 -6.145677 -1.128752 23
-1.791285 -8.777383 -1.003547 14
-9.157957 -45.00018 1.842852 35
0.288117 -3.932454 0.2271192 36
-9.298088 -44.45779 3.69106 120
0.2577987 -3.762772 0.4582287 17
-9.242764 -44.15496 8.215425 81
3.117889 -46.77357 12.55013 9
0.2882314 -3.853756 0.0220303 54
-0.07203541 -3.904263 0 19
nan nan nan 0
-7.114653 -34.96567 -0.4168127 34
0.2912256 -3.866955 0.1132485 46
-0.06714751 -3.933302 0.09040604 27
-3.387043 -31.39816 0.5395265 19
-9.47957 -47.04038 0.5858052 74
nan nan nan 0
0.02887516 -0.4159225 -0.0985705 72
0.2913854 -3.921388 -0.5408365 51
0.2554986 -3.89398 -0.3658144 36
0.2650401 -3.837653 -0.2441974 110
-0.2602204 -12.7662 -0.8900925 13
-1.354092 -11.93926 -0.9046749 15
-2.302603 -11.14645 -0.9265216 9
0.2924737 -3.865354 -0.1561151 148
-0.2785542 -18.00824 -0.8380358 17
-1.721777 -15.83982 -0.8329268 10
-2.900802 -14.40057 -0.852423 9
0.2698252 -3.749331 -0.06492295 34
-0.07676276 -3.938129 -0.0905221 25
-2.621538 -23.49912 -0.6882089 29
-4.247036 -20.77223 -0.7316098 9
-1.22849 -6.141426 -1.128752 24
-1.821913 -8.771077 -1.003547 14
-9.321066 -44.9973 1.844056 18
0.2733256 -3.918499 0.2262479 42
-9.457369 -44.44455 3.692681 83
0.2436759 -3.748794 0.4564007 30
-9.40504 -44.16091 8.222597 39
2.94972 -46.70705 12.52943 10
0.2747775 -3.854738 0.0220303 57
-0.08577073 -3.908987 0 21
-3.545408 -31.27921 -0.1646187 21
-7.192014 -34.72522 -0.4142401 38
0.2773605 -3.862963 0.113101 36
-0.08107752 -3.943038 0.09063815 8
-3.491638 -31.34143 0.5387568 17
nan nan nan 0
nan nan nan 0
0.02780859 -0.420843 -0.09983423 88
0.2773388 -3.917442 -0.5401484 50
0.2415894 -3.889881 -0.365343 37
0.2513092 -3.833576 -0.2438773 106
-0.3048995 -12.7702 -0.8904413 14
-1.39518 -11.92951 -0.9042984 15
-2.34047 -11.13347 -0.9261145 9
0.2760452 -3.826493 -0.1544889 145
-0.3409423 -17.98219 -0.8368713 21
-1.778173 -15.84363 -0.83345 10
-2.952057 -14.39525 -0.8527135 8
0.2556898 -3.735289 -0.06466116 33
-0.09050893 -3.937837 -0.0905221 18
-2.712127 -23.5643 -0.6903946 33
-4.304228 -20.6839 -0.7290185 10
-1.24992 -6.1371 -1.128752 24
-1.852519 -8.764664 -1.003547 13
-8.66046 -41.08796 1.684933 16
0.2599827 -3.924409 0.2265383 41
-9.608233 -44.39179 3.69106 120
0.2296538 -3.734763 0.4545726 26
-8.871404 -40.95498 7.63085 54
2.784071 -46.67367 12.51778 9
0.260975 -3.850687 0.0220015 49
-0.09991422 -3.928658 0 13
-3.642376 -31.16235 -0.1640689 22
nan nan nan 0
0.2635268 -3.858922 0.1129535 46
nan nan nan 0
-3.603304 -31.34892 0.5390989 21
-9.814897 -47.00731 0.5862328 75
nan nan nan 0
0.0263394 -0.4209375 -0.09983423 97
0.2636627 -3.918386 -0.5401484 57
0.2277119 -3.885731 -0.3648716 35
0.2376101 -3.82945 -0.2435572 104
-0.3496098 -12.77404 -0.8907901 13
-1.436215 -11.91961 -0.9039217 15
-2.380363 -11.1301 -0.9265216 9
0.263036 -3.832416 -0.1546921 149
-0.4046023 -18.02083 -0.8387345 16
-1.834616 -15.84725 -0.8339734 10
-3.004331 -14.39463 -0.8532943 9
0.241987 -3.726183 -0.06448664 38
-0.1046439 -3.952488 -0.09087025 12
-2.761372 -23.27676 -0.6822346 34
-4.35982 -20.59054 -0.7262545 9
-1.271335 -6.132699 -1.128752 21
-1.882055 -8.753288 -1.002988 14
-8.815362 -41.11122 1.687141 9
0.2459629 -3.920311 0.2262479 40
-9.76313 -44.35798 3.69106 123
0.2166157 -3.735542 0.4545726 23
-9.012191 -40.91416 7.629056 44
2.618149 -46.63006 12.50355 10
0.2472041 -3.846585 0.0219727 57
-1.373173 -48.19036 0 91
-3.7296 -30.97074 -0.1631265 28
-7.398603 -34.50796 -0.4122522 33
0.250055 -3.859819 0.1129535 43
nan nan nan 0
-3.726833 -31.4553 0.5411513 21
-8.747137 -41.17767 0.5138471 48
nan nan nan 0
0.02522167 -0.4258518 -0.1010979 101
0.2503055 -3.924224 -0.5408365 48
0.2141467 -3.886503 -0.3648716 42
0.2239429 -3.825275 -0.2432372 103
-0.3943505 -12.77773 -0.8911389 14
-1.477814 -11.91453 -0.9039217 15
-2.420261 -11.12659 -0.9269286 9
0.2496567 -3.833311 -0.1546921 149
-0.4676333 -18.02431 -0.8389675 15
-1.88933 -15.83579 -0.8337117 11
-3.056637 -14.39382 -0.8538752 10
0.2283509 -3.717026 -0.06431212 40
nan nan nan 0
-2.832295 -23.18264 -0.6797574 27
-4.417973 -20.51169 -0.7240087 9
-1.291714 -6.123412 -1.127859 25
-1.912598 -8.746666 -1.002988 13
-10.21036 -46.81549 1.922915 9
0.2325791 -3.926128 0.2265383 42
-9.917909 -44.32363 3.69106 121
0.204406 -3.75114 0.4564007 14
nan nan nan 0
2.453074 -46.59551 12.4919 10
0.2334651 -3.842434 0.0219439 58
-1.539464 -48.12531 0 63
-3.833377 -30.9228 -0.1629432 30
-7.495563 -34.37446 -0.4109659 28
0.2365802 -3.860668 0.1129535 42
nan nan nan 0
-3.832369 -31.40736 0.5405527 27
-10.146 -46.95231 0.5864161 121
nan nan nan 0
0.02373502 -0.4259372 -0.1010979 109
0.2369108 -3.930017 -0.5415245 50
0.2003159 -3.882256 -0.3644002 43
0.2103076 -3.821052 -0.2429172 102
-0.4389507 -12.77627 -0.8911389 13
-1.519394 -11.9093 -0.9039217 15
-2.460164 -11.12294 -0.9273357 10
0.2362744 -3.834159 -0.1546921 145
-0.5290828 -17.97264 -0.8366383 14
-1.943377 -15.81919 -0.8331884 11
-3.107917 -14.38794 -0.8541656 9
0.2150782 -3.71281 -0.06422485 44
nan nan nan 0
nan nan nan 0
-4.475629 -20.43269 -0.7217628 9
-1.313081 -6.118865 -1.127859 26
-1.942036 -8.735085 -1.002429 13
-10.37479 -46.78444 1.923115 9
0.2185882 -3.921933 0.2262479 43
-10.07257 -44.28874 3.69106 123
0.19209 -3.766698 0.4582287 10
-9.328188 -40.98454 7.654161 33
2.288271 -46.56037 12.48025 9
0.219758 -3.838234 0.02191511 51
nan nan nan 0
-3.968502 -31.1225 -0.1640689 37
-7.607926 -34.31392 -0.4105567 29
0.2231025 -3.861471 0.1129535 45
-1.594142 -46.76516 1.085453 19
-3.947586 -31.43843 0.5413224 24
-10.31198 -46.92637 0.5865382 120
nan nan nan 0
0.02224807 -0.4260175 -0.1010979 118
0.2249171 -3.960485 -0.545653 48
0.1867631 -3.882931 -0.3644002 40
0.1967047 -3.81678 -0.2425971 103
-0.4831696 -12.7647 -0.8904413 14
-1.560956 -11.90392 -0.9039217 15
-2.500071 -11.11915 -0.9277428 9
0.2225921 -3.829974 -0.1544889 144
-0.5908327 -17.94073 -0.8352408 12
-1.998585 -15.81231 -0.8331884 11
-3.162413 -14.3965 -0.8553274 9
0.2010005 -3.693572 -0.0638758 42
nan nan nan 0
nan nan nan 0
-4.531701 -20.34866 -0.7193443 9
-1.334432 -6.114245 -1.127859 23
-1.972515 -8.728253 -1.002429 14
-10.53694 -46.74307 1.922915 9
0.2043621 -3.912703 0.225667 40
-10.2271 -44.25331 3.69106 121
0.1799103 -3.787173 0.4606661 8
-9.511119 -41.12425 7.686438 38
2.123744 -46.52465 12.46861 10
0.2058075 -3.828993 0.02185751 54
nan nan nan 0
-4.092716 -31.22744 -0.1646972 31
-7.706756 -34.19448 -0.4094458 29
0.209344 -3.857236 0.1128061 44
-1.759061 -46.80426 1.086497 16
-4.021439 -31.14681 0.5365334 17
-10.48008 -46.9096 0.5867826 116
nan nan nan 0
0.02106209 -0.4309208 -0.1023617 113
0.2113614 -3.966191 -0.5463412 52
0.1729796 -3.878587 -0.3639288 38
0.183134 -3.812459 -0.2422771 105
-0.5275184 -12.75795 -0.8900925 13
-1.601833 -11.89346 -0.903545 15
-2.538869 -11.11036 -0.9277428 9
0.2089419 -3.825739 -0.1542856 139
-0.6510972 -17.87367 -0.8322129 13
-2.053124 -15.80028 -0.8329268 12
-3.211557 -14.3805 -0.8550369 9
0.1886296 -3.704236 -0.06405032 39
nan nan nan 0
nan nan nan 0
-4.588344 -20.26937 -0.7170985 9
-1.355767 -6.109549 -1.127859 24
-2.001856 -8.716474 -1.00187 15
-10.70562 -46.73035 1.923918 10
0.1902031 -3.903422 0.2250862 37
-10.38265 -44.22219 3.691465 120
0.1671397 -3.797693 0.4618848 12
-9.676001 -41.18177 7.703474 28
1.959495 -46.48836 12.45696 9
0.1919242 -3.819701 0.02179991 60
-2.042914 -48.09656 0 86
-4.20036 -31.20305 -0.1646449 35
-7.816017 -34.12352 -0.4089195 29
0.1956178 -3.852952 0.1126586 43
-1.969569 -47.94656 1.11319 17
-4.145923 -31.25152 0.5385858 16
-10.64819 -46.89224 0.5870269 115
nan nan nan 0
0.01927339 -0.4261624 -0.1010979 105
0.1985282 -3.986688 -0.5490935 46
0.1594397 -3.879167 -0.3639288 37
0.169825 -3.813076 -0.2422771 106
-0.571826 -12.75105 -0.8897438 13
-1.643339 -11.88779 -0.903545 15
-2.577636 -11.10143 -0.9277428 10
0.1950617 -3.816467 -0.153879 134
-0.7144775 -17.89625 -0.8333774 13
-2.106281 -15.77817 -0.8321417 11
-3.263948 -14.37894 -0.8556178 9
0.1769193 -3.729838 -0.06448664 36
-1.236204 -28.38537 -0.6587223 17
-3.113131 -22.82887 -0.6705775 38
-4.648975 -20.2094 -0.7155437 10
-1.375998 -6.099981 -1.126967 22
-2.03227 -8.709433 -1.00187 13
-10.87208 -46.7073 1.92452 11
0.1763439 -3.899076 0.2247957 37
-10.53695 -44.18568 3.691465 120
0.1540901 -3.803212 0.4624941 17
-10.46976 -43.8701 8.213632 18
1.795712 -46.45631 12.44661 10
0.1790713 -3.830336 0.02185751 62
-2.21079 -48.08913 0 90
-4.316785 -31.24268 -0.1649329 38
-7.929413 -34.07168 -0.4086272 31
0.181924 -3.848619 0.1125112 45
nan nan nan 0
-4.25971 -31.27153 0.5391845 21
-10.81631 -46.87427 0.5872712 117
nan nan nan 0
0.01778569 -0.4262271 -0.1010979 81
0.3617578 -7.702408 -1.065847 27
0.1458979 -3.8797 -0.3639288 41
0.1567254 -3.81863 -0.2425971 104
-0.6160917 -12.74399 -0.889395 14
-1.684124 -11.87705 -0.9031684 15
-2.615225 -11.08751 -0.9273357 9
0.1810038 -3.802155 -0.1532692 127
-0.7762944 -17.87867 -0.8326787 14
-2.15863 -15.75094 -0.831095 11
-3.308501 -14.34314 -0.8541656 9
0.1657129 -3.770386 -0.06518473 34
nan nan nan 0
-3.191414 -22.80796 -0.6702861 40
-4.709244 -20.14926 -0.713989 10
-1.397283 -6.095141 -1.126967 23
-2.062659 -8.702286 -1.00187 14
-11.0385 -46.68364 1.925122 10
0.1627325 -3.899668 0.2247957 35
-10.6923 -44.15347 3.69187 121
nan nan nan 0
-10.61703 -43.80938 8.209148 93
1.632006 -46.41886 12.43496 9
0.1636899 -3.785984 0.02159833 66
-2.377158 -48.05116 0 99
-4.409672 -31.11356 -0.1643307 28
-8.013766 -33.89783 -0.4068732 31
0.1682629 -3.844239 0.1123637 44
nan nan nan 0
-4.375073 -31.30103 0.5399541 24
-10.98329 -46.85083 0.5874545 115
nan nan nan 0
0.01604712 -0.4214554 -0.09983423 73
0.3344319 -7.693729 -1.064471 32
0.1323544 -3.880186 -0.3639288 39
0.1433949 -3.819155 -0.2425971 103
-0.6603152 -12.73678 -0.8890462 13
-1.725573 -11.8711 -0.9031684 16
-2.657402 -11.09285 -0.928557 9
0.1670482 -3.787792 -0.1526594 133
-0.8393985 -17.89082 -0.8333774 11
-2.210119 -15.71859 -0.8297865 11
-3.352844 -14.30721 -0.8527135 9
0.1512947 -3.740972 -0.06466116 41
-1.417202 -28.03658 -0.6508306 15
-3.237627 -22.56417 -0.6634374 33
-4.774928 -20.11325 -0.713298 9
-1.41855 -6.090227 -1.126967 23
-2.091857 -8.690203 -1.001311 15
-11.20606 -46.66426 1.925925 10
0.1491192 -3.900212 0.2247957 33
-10.84636 -44.11588 3.69187 121
nan nan nan 0
-10.77107 -43.77683 8.210045 100
1.468583 -46.38083 12.42331 9
0.1482086 -3.73158 0.02128156 55
-2.542494 -47.99763 0 100
nan nan nan 0
-8.128539 -33.85507 -0.4066978 31
0.1546345 -3.839808 0.1122162 44
-2.472319 -47.93829 1.113538 8
-4.482179 -31.27072 0.5396975 19
-11.1514 -46.83166 0.5876988 111
nan nan nan 0
0.01434208 -0.4166769 -0.0985705 64
0.3087818 -7.72454 -1.068599 16
0.1189681 -3.885599 -0.3644002 37
0.1302395 -3.824618 -0.2429172 102
-0.703671 -12.71448 -0.887651 13
-1.766265 -11.86007 -0.9027917 15
-2.703188 -11.11256 -0.9309995 8
0.1531951 -3.773378 -0.1520496 127
-0.9003383 -17.85785 -0.8319799 13
-2.262121 -15.69101 -0.8287399 12
-3.409712 -14.32455 -0.8544561 8
0.1376596 -3.726491 -0.06439938 40
-1.522335 -28.16623 -0.6539641 16
nan nan nan 0
-4.840417 -20.07703 -0.712607 10
-1.4398 -6.085238 -1.126967 22
-2.122179 -8.682848 -1.001311 14
-11.37243 -46.63942 1.926527 10
0.1356843 -3.905697 0.2250862 25
-11.00149 -44.08259 3.692276 120
1.459994 -46.62673 5.722984 7
-10.92858 -43.75806 8.213632 103
1.305446 -46.34221 12.41167 18
0.1351821 -3.732074 0.02128156 35
-2.70974 -47.98348 0 98
-4.679801 -31.43809 -0.1662157 20
-8.209932 -33.67591 -0.4048854 30
0.1410391 -3.835331 0.1120688 46
-2.638816 -47.91439 1.11319 8
nan nan nan 0
-11.31833 -46.80703 0.5878821 110
nan nan nan 0
0.0126706 -0.4118916 -0.09730678 52
0.1415575 -3.954428 -0.5442769 43
0.1054042 -3.885991 -0.3644002 34
0.1172069 -3.835024 -0.2435572 103
-0.7498026 -12.74182 -0.8897438 10
-1.807653 -11.85383 -0.9027917 15
-2.73837 -11.08854 -0.9297783 7
0.139252 -3.753921 -0.1512365 127
-0.9610582 -17.82468 -0.8305824 12
-2.31688 -15.68301 -0.8287399 9
-3.452645 -14.28345 -0.8527135 9
0.1236041 -3.696971 -0.0638758 41
nan nan nan 0
nan nan nan 0
nan nan nan 0
-1.461033 -6.080175 -1.126967 23
-2.147676 -8.656099 -0.9990743 13
-11.53997 -46.61884 1.927329 11
0.12205 -3.906147 0.2250862 21
-11.15653 -44.04874 3.692681 121
nan nan nan 0
-11.08005 -43.71487 8.212735 105
1.142596 -46.30304 12.40002 9
0.1180497 -3.612596 0.02059041 15
-2.876619 -47.96374 0 97
-4.794034 -31.45122 -0.1663727 14
nan nan nan 0
0.1276505 -3.8358 0.1120688 42
-2.806053 -47.90489 1.11319 9
-7.142569 -47.4635 0.8203642 53
-11.48523 -46.7818 0.5880653 110
nan nan nan 0
0.0110327 -0.4070998 -0.09604306 56
0.1270859 -3.9351 -0.5415245 48
0.09196309 -3.891311 -0.3648716 33
0.1039614 -3.840398 -0.2438773 105
nan nan nan 0
-1.84825 -11.84252 -0.9024151 15
-2.051069 -8.188624 -0.6863424 4
0.1266732 -3.769362 -0.1518463 120
-1.022986 -17.81623 -0.8303495 13
-2.372357 -15.67977 -0.8290015 10
-3.516781 -14.32948 -0.8561987 9
0.1108555 -3.702377 -0.06396306 41
-0.5008619 -8.182415 -0.1894001 14
-3.432588 -22.26229 -0.6555688 33
-2.036972 -8.210667 -0.2910891 5
-1.481078 -6.070259 -1.126075 23
-2.05503 -8.161985 -0.9426073 5
-11.70506 -46.58797 1.927731 11
0.1084143 -3.906549 0.2250862 25
-11.31146 -44.01436 3.693087 120
0.4317998 -17.88535 2.19182 16
-11.23503 -43.68546 8.214527 103
0.9801392 -46.26812 12.38967 11
0.1077421 -3.687949 0.02102237 43
-3.043076 -47.93844 0 100
nan nan nan 0
nan nan nan 0
0.1141042 -3.831227 0.1119213 44
-2.971398 -47.86487 1.112493 9
-7.320385 -47.51733 0.8217325 46
-11.65208 -46.75598 0.5882486 107
nan nan nan 0
0.009245239 -0.3974674 -0.0935156 51
0.1131996 -3.930569 -0.5408365 45
0.07837932 -3.891609 -0.3648716 31
0.09080435 -3.850713 -0.2445174 102
-0.8367758 -12.70641 -0.887651 13
-1.889577 -11.836 -0.9024151 15
-2.059946 -8.104151 -0.6798291 6
0.1136727 -3.774775 -0.1520496 122
nan nan nan 0
-2.42631 -15.66646 -0.8287399 11
nan nan nan 0
0.09807073 -3.707739 -0.06405032 40
nan nan nan 0
-3.519628 -22.30942 -0.6573175 34
-2.037485 -8.092071 -0.2871158 13
-1.502258 -6.065053 -1.126075 24
-2.153797 -8.429115 -0.9744748 12
-11.87008 -46.5565 1.928132 10
0.09477722 -3.906904 0.2250862 26
-11.46629 -43.97943 3.693492 121
0.3701971 -17.92644 2.196695 12
-11.38869 -43.65073 8.215425 103
0.8179396 -46.23263 12.37931 10
0.09650151 -3.74828 0.02136795 44
-3.209726 -47.91755 0 102
nan nan nan 0
-2.060816 -8.101015 -0.09728941 12
0.10073 -3.831602 0.1119213 43
-3.138786 -47.85919 1.112609 8
-5.037477 -31.96065 0.5527816 27
-11.8189 -46.72956 0.5884318 107
nan nan nan 0
0.007691461 -0.3926624 -0.09225187 51
0.09921417 -3.92104 -0.5394603 50
0.06479459 -3.891859 -0.3648716 35
0.07746941 -3.855995 -0.2448374 101
-0.8818133 -12.71337 -0.8883486 13
-1.930881 -11.82933 -0.9024151 16
-2.849346 -11.03996 -0.9281499 15
0.1006359 -3.780143 -0.1522528 132
-1.149265 -17.83856 -0.8317471 9
-2.485673 -15.68748 -0.8303099 11
-2.045885 -8.101202 -0.4838626 7
0.08586056 -3.738045 -0.0645739 32
nan nan nan 0
-3.630933 -22.50423 -0.6634374 35
-5.095461 -19.91068 -0.7091519 8
-1.52342 -6.059772 -1.126075 22
-2.240703 -8.642753 -1.000192 14
-12.03753 -46.53413 1.928935 11
0.08102837 -3.902221 0.2247957 21
-11.62101 -43.94396 3.693897 115
0.3083994 -17.97228 2.202179 11
-11.54225 -43.61547 8.216321 98
0.6559306 -46.19174 12.36767 9
0.08602771 -3.858561 0.0220015 48
-3.376619 -47.90106 0 100
nan nan nan 0
-2.091587 -8.103453 -0.09740635 11
0.08699088 -3.816941 0.111479 44
-3.302727 -47.80306 1.111565 9
-5.125134 -31.7948 0.5502161 22
-11.98692 -46.70739 0.5886762 106
nan nan nan 0
0.006021921 -0.3830162 -0.08972443 49
0.08518173 -3.906508 -0.537396 48
0.05128118 -3.897038 -0.365343 39
0.06418839 -3.86622 -0.2454775 99
-0.925824 -12.70523 -0.8879998 14
-1.972983 -11.82744 -0.9027917 16
-2.886601 -11.02513 -0.9277428 11
0.08756306 -3.785465 -0.1524561 126
-1.208484 -17.78959 -0.8296508 11
-2.530828 -15.61956 -0.8271697 12
-3.650495 -14.22902 -0.852423 15
0.07312591 -3.753316 -0.06483568 36
nan nan nan 0
-3.715975 -22.53086 -0.6646032 38
-5.159903 -19.87342 -0.7084609 10
-1.544563 -6.054417 -1.126075 24
-2.269592 -8.630075 -0.9996334 14
-12.19481 -46.4725 1.928132 64
0.06740659 -3.90248 0.2247957 23
-11.77562 -43.90794 3.694303 119
0.6421431 -46.36723 5.688861 8
-11.6957 -43.57967 8.217218 102
0.4943215 -46.15994 12.35861 10
0.07276074 -3.868835 0.02205909 51
-3.54196 -47.86405 0 103
nan nan nan 0
-2.11859 -8.091266 -0.09734788 10
0.07387432 -3.827215 0.1117739 41
-3.468486 -47.77629 1.111217 9
-7.809444 -47.38874 0.8208773 66
-12.15493 -46.68462 0.5889205 106
nan nan nan 0
0.004949995 -0.3927066 -0.09225187 50
0.07134961 -3.896879 -0.5360199 49
0.03767766 -3.897194 -0.365343 32
0.05090921 -3.881388 -0.2464377 104
nan nan nan 0
-2.014256 -11.82048 -0.9027917 15
nan nan nan 0
0.07466528 -3.800732 -0.1530659 129
-1.270219 -17.78028 -0.8294179 12
-2.584518 -15.60571 -0.8269081 11
-3.706436 -14.24034 -0.8538752 12
0.06037293 -3.773543 -0.06518473 23
nan nan nan 0
-3.792938 -22.5079 -0.6643118 40
nan nan nan 0
-1.565687 -6.048988 -1.126075 21
nan nan nan 0
-12.36981 -46.47793 1.930138 7
0.05370818 -3.8977 0.2245053 28
-11.93143 -43.87618 3.695113 117
0.4805472 -46.39399 5.691907 9
-11.85033 -43.54807 8.21901 104
0.332907 -46.12275 12.34826 10
0.05925554 -3.869066 0.02205909 48
-3.711718 -47.88629 0 102
nan nan nan 0
-2.149394 -8.093484 -0.09746481 10
0.06077346 -3.842441 0.1122162 45
-2.518661 -33.08526 0.7694377 18
-7.975646 -47.36613 0.8209628 89
-12.32292 -46.66124 0.5891649 98
nan nan nan 0
0.003579164 -0.3927215 -0.09225187 80
0.05750539 -3.882249 -0.5339556 51
0.02411105 -3.902279 -0.3658144 31
0.03747005 -3.891521 -0.2470778 105
nan nan nan 0
-2.055505 -11.81338 -0.9027917 16
-2.176791 -8.089034 -0.6810504 9
0.06166198 -3.815955 -0.1536758 124
-1.330785 -17.75581 -0.8284862 10
-2.624806 -15.5129 -0.8224595 12
nan nan nan 0
0.04734005 -3.783728 -0.06535926 17
-0.6431972 -8.167443 -0.189284 13
-3.850279 -22.37139 -0.6606689 33
-2.161886 -8.106282 -0.2886706 11
-1.588046 -6.048244 -1.126967 21
nan nan nan 0
-12.54109 -46.46823 1.931543 8
0.04004397 -3.892873 0.2242149 28
-12.08584 -43.83907 3.695519 117
0.3182179 -46.3408 5.685205 9
-12.00358 -43.51118 8.219908 102
0.1717767 -46.08982 12.3392 10
0.0463465 -3.914244 0.02231828 47
-3.876025 -47.83816 0 97
nan nan nan 0
-2.182846 -8.105239 -0.09769868 8
0.04756719 -3.857621 0.1126586 45
-2.632945 -33.06132 0.7690896 16
-8.14263 -47.34785 0.8211339 95
-12.4909 -46.63725 0.5894092 100
nan nan nan 0
0.002405849 -0.4024049 -0.09477933 100
0.04382727 -3.872522 -0.5325794 52
0.01050939 -3.907317 -0.3662858 35
0.02403567 -3.911587 -0.248358 98
-1.057164 -12.67496 -0.8866047 14
-2.096729 -11.80613 -0.9027917 16
-3.004525 -11.00391 -0.928557 16
0.04890644 -3.85611 -0.155302 126
nan nan nan 0
-2.688299 -15.55777 -0.825338 11
nan nan nan 0
0.03428914 -3.798867 -0.06562105 34
-2.347016 -28.58602 -0.6649892 14
-3.931807 -22.3775 -0.6612517 40
nan nan nan 0
-1.609149 -6.042664 -1.126967 23
-2.35984 -8.605833 -0.9996334 14
-12.71377 -46.46272 1.933148 9
0.02637317 -3.883006 0.223634 27
-12.24014 -43.80142 3.695924 116
0.1562832 -46.292 5.679111 11
-12.15804 -43.47849 8.221701 100
0.01087863 -46.0515 12.32885 10
0.03287842 -3.934381 0.02243347 66
nan nan nan 0
nan nan nan 0
-9.124577 -33.35157 -0.4038914 30
0.03420422 -3.867759 0.1129535 49
nan nan nan 0
-8.304396 -47.29944 0.8207918 95
-12.65886 -46.61267 0.5896536 106
nan nan nan 0
0.001083075 -0.4072478 -0.09604306 161
0.03049261 -3.89246 -0.5353318 49
-0.003119333 -3.927241 -0.3681715 34
0.01034148 -3.901668 -0.2477179 99
-1.103127 -12.69107 -0.8879998 13
-2.138817 -11.80364 -0.9031684 15
-3.045581 -11.00296 -0.9293712 12
0.03576493 -3.88623 -0.1565216 127
-1.45145 -17.70627 -0.8266228 12
-2.749532 -15.58762 -0.8274314 11
-3.855355 -14.20075 -0.8538752 15
0.02109821 -3.808962 -0.06579557 36
-2.448916 -28.60256 -0.6655695 16
-4.03284 -22.49154 -0.6650403 34
-5.405089 -19.68381 -0.7043148 12
-1.630232 -6.03701 -1.126967 24
-2.389865 -8.597544 -0.9996334 14
-12.88256 -46.44213 1.934152 9
0.01284232 -3.888066 0.2239244 22
-12.39568 -43.76801 3.696735 115
-0.005307031 -46.25753 5.674846 10
-12.31108 -43.44051 8.222597 100
-0.149765 -46.01745 12.31979 11
0.01923891 -3.949471 0.02251986 62
nan nan nan 0
-7.651968 -42.24187 -0.2245705 8
-9.206179 -33.19426 -0.4023713 36
0.02083909 -3.887846 0.1135434 48
-2.806757 -32.38477 0.7537705 24
-8.470333 -47.27509 0.8208773 98
-12.8268 -46.58747 0.5898979 97
nan nan nan 0
-0.000338492 -0.4072491 -0.09604306 122
0.01690521 -3.892543 -0.5353318 52
-0.01691656 -3.957072 -0.3709999 40
-0.00326227 -3.931618 -0.2496382 98
-1.146971 -12.68218 -0.887651 13
-2.180006 -11.79611 -0.9031684 15
-3.086667 -11.00185 -0.9301853 10
0.02244948 -3.921302 -0.1579445 128
-1.511123 -17.67621 -0.8254583 12
-2.801271 -15.56319 -0.8266464 11
-3.902249 -14.17758 -0.8532943 15
0.007854675 -3.82401 -0.06605735 38
-2.53189 -28.40463 -0.6611595 15
-4.131118 -22.58549 -0.668246 30
-5.465718 -19.63594 -0.7032783 11
-1.651295 -6.031283 -1.126967 26
-2.418511 -8.584368 -0.9990743 14
-13.05001 -46.41611 1.934954 9
-0.000686957 -3.923028 0.2259575 20
-12.54976 -43.72927 3.69714 114
-0.1666546 -46.22248 5.67058 11
-12.464 -43.402 8.223494 101
-0.3101387 -45.97802 12.30943 10
0.005494454 -3.964514 0.02260625 39
nan nan nan 0
nan nan nan 0
-9.27055 -32.97903 -0.4001495 28
0.007284422 -3.892893 0.1136908 48
-2.911707 -32.28516 0.7516815 29
-8.633505 -47.2354 0.8207063 99
-12.99607 -46.56649 0.5902033 103
nan nan nan 0
-0.001663802 -0.4169203 -0.0985705 109
0.003362541 -3.912388 -0.5380841 49
-0.03085779 -3.976899 -0.3728856 39
-0.01704538 -3.951542 -0.2509184 100
-1.190767 -12.67313 -0.8873023 13
-2.222093 -11.79332 -0.903545 15
-3.129148 -11.00539 -0.9314066 10
0.008779757 -3.926352 -0.1581478 131
-1.565297 -17.58625 -0.8214987 13
-2.852873 -15.53858 -0.8258613 12
-3.958429 -14.18791 -0.8547465 12
-0.005493658 -3.834013 -0.06623188 39
-2.642087 -28.51508 -0.6639447 14
-4.20718 -22.55618 -0.6678089 36
-5.523362 -19.57827 -0.7018962 10
-1.672338 -6.025481 -1.126967 22
-2.451196 -8.585427 -1.000192 14
-13.2188 -46.39429 1.935958 10
-0.01433557 -3.903036 0.2247957 34
-12.70511 -43.69476 3.697951 115
-0.3277577 -46.18688 5.666315 10
-12.61817 -43.36768 8.225286 105
-0.4702878 -45.94284 12.30037 10
-0.008330354 -3.94451 0.02249106 46
-3.039435 -31.9557 0 22
-7.657849 -40.65441 -0.2164024 7
-9.363683 -32.86954 -0.399214 30
-0.006305226 -3.897892 0.1138383 48
-3.009472 -32.11554 0.7479678 28
-8.798335 -47.20498 0.8207063 93
-13.16398 -46.54009 0.5904477 98
nan nan nan 0
-0.003306556 -0.3878866 -0.09098815 87
-0.01032452 -3.937138 -0.5415245 49
-0.1070351 -10.23844 -0.9659198 17
-0.09389748 -13.71619 -0.8772542 9
-1.234998 -12.66889 -0.8873023 13
-2.264187 -11.79039 -0.9039217 14
-3.168927 -10.99919 -0.9318137 9
-0.004920592 -3.956334 -0.1593675 126
-1.631731 -17.63539 -0.8240608 12
-2.903418 -15.5089 -0.8248146 11
-4.00793 -14.174 -0.8547465 10
-0.01892918 -3.848968 -0.06649367 37
-2.738259 -28.47085 -0.6631324 16
-4.286824 -22.54627 -0.6679546 37
-5.58342 -19.53004 -0.7008597 10
-1.693361 -6.019607 -1.126967 23
-2.478382 -8.567274 -0.9990743 15
-13.3876 -46.37188 1.936961 10
nan nan nan 0
-12.86037 -43.65971 3.698761 114
-0.4886143 -46.15072 5.662049 11
-12.77226 -43.3328 8.227079 98
-0.6301952 -45.90712 12.29132 10
-0.02205732 -3.934457 0.02243347 57
-3.161264 -32.0494 0 23
-7.839314 -40.83367 -0.217502 7
-9.499172 -32.90871 -0.400091 28
-0.01994801 -3.907842 0.1141332 41
-3.11624 -32.05011 0.7466912 23
-8.959324 -47.15433 0.8203642 88
-13.33325 -46.51789 0.5907531 96
nan nan nan 0
-0.004674867 -0.383035 -0.08972443 62
-0.02411431 -3.946983 -0.5429007 17
-0.1429071 -10.24796 -0.9668626 18
-0.1419242 -13.73075 -0.8782143 10
-1.278712 -12.65954 -0.8869535 14
-2.305329 -11.78242 -0.9039217 15
-3.207302 -10.98806 -0.9318137 9
-0.07194359 -20.00293 -0.8122862 48
-1.686125 -17.55501 -0.820567 13
-2.954727 -15.48395 -0.8240296 13
-4.060136 -14.16952 -0.8553274 11
-0.03243427 -3.858876 -0.06666819 37
nan nan nan 0
nan nan nan 0
-5.639034 -19.46724 -0.6993049 8
-1.714363 -6.01366 -1.126967 24
-2.506872 -8.553804 -0.9985152 13
-13.5564 -46.34883 1.937964 10
nan nan nan 0
-13.01697 -43.62888 3.699978 112
-0.6493608 -46.12393 5.659002 11
-12.92626 -43.29738 8.228873 103
-0.7899415 -45.87567 12.28355 11
-0.03563742 -3.914356 0.02231828 58
-3.289878 -32.20231 0 23
nan nan nan 0
-9.626624 -32.91853 -0.4006172 23
-0.03351727 -3.897753 0.1138383 39
-3.20556 -31.81524 0.7414688 24
-9.12862 -47.1473 0.8207918 86
-13.50112 -46.49027 0.5909974 96
nan nan nan 0
nan nan nan 0
-0.06852259 -7.680879 -1.061718 34
-0.1788467 -10.25735 -0.9678054 17
-0.1899868 -13.74014 -0.8788545 11
-1.322895 -12.655 -0.8869535 14
-2.347419 -11.77919 -0.9042984 15
-3.247053 -10.98158 -0.9322208 10
-0.1414943 -19.96259 -0.8106599 75
-1.748876 -17.56393 -0.8212658 11
-3.007805 -15.46865 -0.8237679 9
-4.109572 -14.15526 -0.8553274 9
-0.04606112 -3.873736 -0.06692997 37
nan nan nan 0
-4.516735 -22.88354 -0.6788832 30
-5.69287 -19.39949 -0.6975774 10
-1.735344 -6.007639 -1.126967 25
-2.535298 -8.540239 -0.9979562 15
-13.7252 -46.32518 1.938967 10
nan nan nan 0
-13.17062 -43.58795 3.700383 112
-0.8098397 -46.0916 5.655346 11
-13.08301 -43.27083 8.23246 100
-0.9493765 -45.83883 12.27449 10
-0.04946841 -3.929207 0.02240467 57
-3.405942 -32.22544 0 18
nan nan nan 0
-9.697427 -32.73613 -0.3988048 27
-0.04717597 -3.90261 0.1139858 43
-3.318669 -31.82374 0.741933 23
-9.290236 -47.10044 0.8205352 84
-13.67038 -46.46684 0.5913028 92
nan nan nan 0
nan nan nan 0
-0.09533346 -7.680593 -1.061718 35
-0.2142439 -10.23676 -0.9659198 18
-0.2376098 -13.71944 -0.8775743 11
-1.367061 -12.65031 -0.8869535 14
-2.387529 -11.76604 -0.9039217 15
-3.285366 -10.97017 -0.9322208 10
-0.2100956 -19.85706 -0.8063912 84
-1.808128 -17.53784 -0.8203341 12
-3.061782 -15.45805 -0.8237679 11
-4.160368 -14.14562 -0.8556178 9
-0.0596525 -3.878551 -0.06701723 40
-2.663972 -24.95137 -0.5816625 11
-4.594616 -22.85783 -0.6785918 31
-5.754852 -19.36034 -0.6968864 8
-1.756304 -6.001545 -1.126967 23
-2.565094 -8.531338 -0.9979562 14
-13.89401 -46.30091 1.939971 11
nan nan nan 0
-13.32415 -43.54647 3.700788 110
-0.9705167 -46.07858 5.654128 10
-13.23109 -43.21549 8.230666 102
-1.108215 -45.78696 12.26155 11
-0.06333019 -3.939009 0.02246226 55
-3.508642 -32.12388 0 22
nan nan nan 0
-9.759887 -32.52969 -0.3966999 26
-0.06101029 -3.917413 0.1144281 46
-3.43027 -31.81693 0.742049 22
-9.449669 -47.04322 0.8201077 70
-13.84107 -46.44759 0.5916694 88
nan nan nan 0
nan nan nan 0
-0.1221431 -7.680213 -1.061718 35
-0.2503326 -10.25088 -0.967334 17
-0.2856 -13.72352 -0.8778943 10
-1.411763 -12.65042 -0.8873023 14
-2.428586 -11.75763 -0.9039217 15
-3.325088 -10.96341 -0.9326278 8
-0.2774108 -19.71134 -0.8004962 84
-1.868278 -17.52149 -0.8198683 11
-3.113746 -15.43748 -0.8232446 10
-4.209721 -14.13101 -0.8556178 10
-0.07362705 -3.903312 -0.06745355 34
nan nan nan 0
-4.701442 -22.97386 -0.6825261 29
-5.806537 -19.28751 -0.6949861 9
-1.77584 -5.990662 -1.126075 24
-2.593408 -8.51758 -0.9973971 15
-14.06426 -46.28082 1.941175 10
nan nan nan 0
-13.48198 -43.51873 3.70241 112
-1.129536 -46.00048 5.644988 11
-13.38915 -43.19254 8.235149 52
-1.268967 -45.8166 12.27061 36
-0.07698876 -3.933765 0.02243347 42
-3.55636 -31.54006 0 23
nan nan nan 0
-9.876285 -32.50499 -0.3968168 30
-2.558998 -144.8339 4.27277 94
-3.55458 -31.924 0.7448344 25
nan nan nan 0
-14.00745 -46.41335 0.5918526 91
nan nan nan 0
nan nan nan 0
-0.1489514 -7.67974 -1.061718 32
-0.285977 -10.24496 -0.9668626 17
-0.3335023 -13.72244 -0.8778943 10
-1.455912 -12.64541 -0.8873023 14
-2.469613 -11.74908 -0.9039217 16
-3.363337 -10.95173 -0.9326278 9
-0.3462146 -19.71025 -0.8004962 86
-1.928336 -17.50494 -0.8194025 11
-3.166609 -15.42163 -0.8229828 10
-4.261909 -14.12579 -0.8561987 10
-0.08767049 -3.923023 -0.06780259 33
-3.038108 -26.69035 -0.6227456 11
-4.800977 -23.05027 -0.6852946 23
-5.872369 -19.26234 -0.6948133 9
-1.796741 -5.984426 -1.126075 22
-2.621657 -8.503728 -0.996838 14
-14.23307 -46.25531 1.942178 10
nan nan nan 0
-12.59989 -40.17621 3.421506 65
-1.288715 -45.94666 5.638895 17
-13.55457 -43.19247 8.244115 47
nan nan nan 0
-0.0911525 -3.953468 0.02254866 9
-3.632374 -31.23442 0 18
-8.393414 -39.942 -0.2134964 26
-9.997043 -32.49421 -0.3971092 25
nan nan nan 0
-3.671125 -31.95609 0.7458788 34
nan nan nan 0
-14.17961 -46.39764 0.5922802 90
nan nan nan 0
-0.07407803 -4.712151 -1.220758 5
-0.1757577 -7.679174 -1.061718 33
-0.3217368 -10.2439 -0.9668626 18
-0.3814005 -13.72119 -0.8778943 10
-1.500044 -12.64025 -0.8873023 14
-2.511653 -11.74527 -0.9042984 15
-3.401545 -10.93993 -0.9326278 9
-0.4117977 -19.55409 -0.7941948 86
-1.986045 -17.46832 -0.8180049 10
-3.215312 -15.38604 -0.8216745 10
-4.315572 -14.12515 -0.85707 10
-0.101486 -3.927691 -0.06788985 30
-3.106798 -26.47106 -0.6178713 16
-4.888663 -23.06759 -0.6863146 14
-5.939571 -19.24173 -0.6948133 9
-1.816184 -5.973413 -1.125183 22
-2.651325 -8.494525 -0.996838 14
-12.51699 -40.18121 1.688746 16
-1.296651 -48.34048 2.811399 6
-13.79301 -43.4473 3.704436 110
-1.447688 -45.89723 5.63341 13
-12.67879 -39.91491 7.626367 49
nan nan nan 0
-1.217317 -48.20341 0.2774954 109
-3.747326 -31.2712 0 18
nan nan nan 0
-10.07768 -32.3541 -0.3958229 29
nan nan nan 0
-3.753861 -31.69984 0.7401922 29
-9.954208 -47.00037 0.8211339 37
