# .PCD v0.7 - Point Cloud Data file format
VERSION 0.7
FIELDS x y z intensity
SIZE 4 4 4 4
TYPE F F F F
COUNT 1 1 1 1
WIDTH 1633
HEIGHT 1
VIEWPOINT 0 0 0 1 0 0 0
POINTS 1633
DATA ascii
1.983835 -15.59455 -0.5420995 9
0.7130206 -5.419389 -0.9842001 22
0.9316347 -7.509512 -0.8470048 18
3.843405 -30.85611 1.247296 31
nan nan nan 0
5.695498 -47.85782 3.916837 9
11.1214 -26.73127 3.550054 43
5.438448 -45.7639 8.392949 13
3.729283 -9.052587 2.612778 78
14.79051 -34.9263 0.2182295 26
3.133151 -9.901014 0 25
6.122845 -28.00297 -0.1498795 16
2.851409 -22.88104 -0.269183 30
12.32742 -29.07007 0.9304659 7
3.146046 -9.893995 0.2401156 25
nan nan nan 0
3.918476 -30.97542 0.3809872 30
nan nan nan 0
0.169624 -0.4071922 -0.1048891 59
2.686557 -6.364845 -0.9543768 29
3.347363 -8.12282 -0.8282679 35
4.499169 -10.80646 -0.7482744 39
2.938803 -9.360587 -0.6832646 24
1.984614 -9.232225 -0.7103317 28
1.088552 -8.948718 -0.733157 28
6.005533 -14.15564 -0.6240537 25
3.135779 -9.820259 -0.4788776 18
2.695104 -12.26002 -0.6557695 20
1.40971 -11.13179 -0.6505716 16
8.54982 -20.35339 -0.384651 23
3.126461 -9.915931 -0.2404638 22
3.555954 -16.39665 -0.4879974 11
1.928776 -15.59642 -0.5419268 9
0.6940989 -5.421845 -0.9842001 21
0.904825 -7.507785 -0.8464457 21
3.77523 -31.19669 1.26054 24
12.29983 -29.4612 1.855291 8
3.598776 -31.14894 2.54718 42
11.02803 -26.76993 3.550054 35
5.269101 -45.69953 8.377707 13
3.732363 -9.150497 2.637366 97
14.69172 -35.03304 0.2185751 44
3.100063 -9.916662 0 26
6.024008 -28.01929 -0.1498533 18
2.780519 -22.96531 -0.27006 28
nan nan nan 0
3.108493 -9.89538 0.2398836 24
11.59462 -53.43856 0.9347004 9
nan nan nan 0
nan nan nan 0
0.1701051 -0.4122293 -0.1061528 58
2.664323 -6.374184 -0.9543768 29
3.320871 -8.139064 -0.8287394 34
4.488075 -10.88667 -0.7527551 46
2.904632 -9.366025 -0.6829159 27
1.938988 -9.175679 -0.7054355 32
1.057308 -8.952463 -0.733157 34
5.950274 -14.1627 -0.6234439 30
3.105992 -9.845433 -0.4795764 15
nan nan nan 0
1.392713 -11.31501 -0.6610272 16
8.54212 -20.53542 -0.3875307 26
3.08588 -9.907695 -0.2399996 26
3.496613 -16.39919 -0.4877059 12
1.873729 -15.5981 -0.541754 9
0.674566 -5.419352 -0.9833078 21
0.8780388 -7.505963 -0.8458866 17
3.66631 -31.20968 1.26054 36
nan nan nan 0
3.482271 -31.09198 2.541505 34
10.90639 -26.73934 3.540914 44
5.10027 -45.63454 8.362465 13
3.667804 -9.082878 2.614072 43
14.62497 -35.21801 0.2194102 32
3.068381 -9.936977 0 21
5.961308 -28.20647 -0.1507434 18
2.700921 -22.97984 -0.2701184 32
nan nan nan 0
3.084308 -9.939587 0.2406959 24
10.38084 -48.66274 0.8504662 29
3.617481 -30.2921 0.372252 28
nan nan nan 0
0.1686651 -0.4128205 -0.1061528 57
2.640159 -6.378871 -0.9536887 27
3.283105 -8.127534 -0.8263823 34
4.465148 -10.93922 -0.7553155 29
2.871921 -9.376107 -0.6829159 25
1.895807 -9.128692 -0.7012925 34
1.026616 -8.961051 -0.7335641 35
5.893117 -14.16494 -0.6226308 23
3.067145 -9.841911 -0.4788776 16
2.642641 -12.43483 -0.6641433 18
1.367961 -11.44371 -0.6682881 16
8.434191 -20.4773 -0.3858727 20
nan nan nan 0
3.439348 -16.41129 -0.4877059 11
1.818116 -15.59462 -0.5414085 9
0.6556448 -5.421673 -0.9833078 19
0.8512763 -7.504045 -0.8453276 18
3.450054 -30.27913 1.222414 31
15.27562 -37.31589 2.3438 14
3.400543 -31.35167 2.561772 30
10.8167 -26.78645 3.542132 15
4.932486 -45.57382 8.34812 13
3.639667 -9.104593 2.61666 37
14.59134 -35.48617 0.2207637 27
nan nan nan 0
5.868911 -28.25648 -0.1509005 24
2.621254 -22.99409 -0.2701769 29
nan nan nan 0
3.059854 -9.983747 0.2415083 7
nan nan nan 0
3.47839 -30.01649 0.3687091 30
nan nan nan 0
0.167223 -0.4134068 -0.1061528 53
2.617876 -6.388048 -0.9536887 28
3.24546 -8.115842 -0.8240253 39
4.417577 -10.93161 -0.7537153 39
2.836285 -9.376526 -0.6822183 26
1.86393 -9.135253 -0.7012925 33
0.9909554 -8.924953 -0.7303075 37
5.837922 -14.17157 -0.6220209 25
nan nan nan 0
2.546167 -12.18982 -0.6505359 21
1.314831 -11.33437 -0.661608 17
8.355104 -20.4881 -0.3855236 36
nan nan nan 0
3.381033 -16.4183 -0.4875602 11
1.76311 -15.5959 -0.5412358 9
0.6361468 -5.419043 -0.9824155 21
0.8250771 -7.50697 -0.8453276 18
3.349266 -30.33568 1.22422 25
14.73828 -36.36518 2.280776 39
3.27447 -31.20474 2.548801 26
nan nan nan 0
4.765699 -45.51738 8.334671 13
nan nan nan 0
14.55414 -35.7499 0.2220884 33
nan nan nan 0
5.785233 -28.35028 -0.1512932 18
2.540426 -22.99814 -0.2701184 23
nan nan nan 0
nan nan nan 0
nan nan nan 0
3.374706 -30.03839 0.3688312 34
nan nan nan 0
0.165779 -0.413988 -0.1061528 51
2.593696 -6.39256 -0.9530006 29
3.202431 -8.090102 -0.820254 37
4.384959 -10.96086 -0.7546754 35
2.799253 -9.372033 -0.6811719 28
1.831052 -9.136814 -0.7009159 34
0.9603249 -8.933312 -0.7307144 30
5.782753 -14.17798 -0.6214111 25
4.117634 -13.54243 -0.6582238 12
2.492567 -12.14483 -0.6476575 17
1.277481 -11.35873 -0.6627698 17
8.154316 -20.19731 -0.3795025 31
nan nan nan 0
3.323703 -16.43001 -0.4875602 10
1.707574 -15.59203 -0.5408903 10
0.6166751 -5.416341 -0.9815232 21
0.7983459 -7.504863 -0.8447685 17
nan nan nan 0
14.61683 -36.43031 2.281647 41
3.119352 -30.75983 2.51151 32
nan nan nan 0
4.598872 -45.45543 8.320325 13
3.704774 -9.457992 2.711129 112
14.46291 -35.88395 0.2226068 30
nan nan nan 0
5.7049 -28.46345 -0.1517906 24
2.458011 -22.98698 -0.2698846 22
nan nan nan 0
nan nan nan 0
9.944059 -49.13138 0.8567944 13
3.282251 -30.1643 0.3702362 31
nan nan nan 0
0.1624917 -0.4100905 -0.1048891 51
2.569517 -6.396981 -0.9523126 27
3.17781 -8.110499 -0.8211968 36
4.370582 -11.0364 -0.7588361 27
2.760875 -9.362612 -0.6797768 26
1.805879 -9.177398 -0.7035524 32
0.9352831 -8.996095 -0.7355995 32
5.729483 -14.18882 -0.6210046 25
4.066027 -13.54237 -0.6575251 13
nan nan nan 0
1.237286 -11.35816 -0.6624793 17
8.126466 -20.33241 -0.3815096 20
nan nan nan 0
3.265358 -16.43661 -0.4874145 11
1.652613 -15.59292 -0.5407175 9
0.5977648 -5.418461 -0.9815232 19
0.7721442 -7.507605 -0.8447685 17
3.142016 -30.40305 1.226026 27
14.50985 -36.53214 2.284842 35
3.021168 -30.86477 2.519211 30
11.00098 -28.08574 3.698734 16
4.432536 -45.39288 8.30598 13
3.570347 -9.20974 2.636072 46
14.40429 -36.10139 0.2236435 33
nan nan nan 0
5.610335 -28.50772 -0.1519215 24
2.386478 -23.07996 -0.2708785 25
30.96198 -77.46483 2.460205 109
nan nan nan 0
9.768601 -49.14618 0.8564524 15
3.17746 -30.18055 0.3702973 34
nan nan nan 0
0.1610592 -0.4106552 -0.1048891 48
2.545338 -6.401311 -0.9516245 27
3.149479 -8.121543 -0.8211968 39
4.299215 -10.96798 -0.7530752 50
2.719806 -9.343459 -0.6776841 25
1.770999 -9.168959 -0.7024224 34
0.9112994 -9.073686 -0.7417057 32
5.676208 -14.19945 -0.620598 20
4.014469 -13.54211 -0.6568263 15
2.431945 -12.28439 -0.6541994 18
nan nan nan 0
8.020476 -20.27234 -0.3798516 25
5.371942 -18.36524 -0.4433262 7
3.207007 -16.443 -0.4872688 11
1.597158 -15.58865 -0.540372 9
0.5788472 -5.420515 -0.9815232 19
0.7454456 -7.505309 -0.8442094 17
3.028936 -30.34424 1.223217 40
14.34388 -36.48502 2.278743 29
2.90687 -30.80566 2.513536 28
nan nan nan 0
4.266693 -45.32971 8.291635 12
3.453292 -9.001244 2.572661 43
14.28921 -36.17936 0.2238163 33
nan nan nan 0
5.506051 -28.50258 -0.1517906 20
2.308874 -23.118 -0.2712293 20
30.78886 -77.81874 2.46802 212
nan nan nan 0
9.590287 -49.14563 0.8558537 14
3.078154 -30.25114 0.3710303 33
nan nan nan 0
0.1578149 -0.4067286 -0.1036254 46
2.522978 -6.410157 -0.9516245 27
3.121111 -8.132486 -0.8211968 40
4.25729 -10.97362 -0.7524351 51
2.696823 -9.386452 -0.6801256 24
1.758458 -9.277958 -0.7103317 29
0.8772326 -9.05201 -0.7396703 33
5.622929 -14.20989 -0.6201915 20
3.960157 -13.53208 -0.6556617 15
2.36906 -12.18987 -0.6487041 21
1.146883 -11.25727 -0.6560898 18
7.969729 -20.35141 -0.3808115 27
5.307802 -18.38388 -0.4433262 7
3.148652 -16.44919 -0.4871231 11
1.541754 -15.58419 -0.5400265 9
0.5599226 -5.422502 -0.9815232 18
0.7187725 -7.502919 -0.8436503 16
2.906746 -30.18554 1.216395 37
14.06976 -36.15808 2.255218 24
2.796171 -30.78088 2.510699 28
10.61612 -27.67074 3.634144 31
4.100902 -45.26105 8.276392 13
3.411551 -8.986158 2.564897 45
14.15009 -36.19641 0.2236147 33
nan nan nan 0
5.453069 -28.76725 -0.1530996 25
2.233902 -23.18564 -0.2719309 17
30.50063 -77.88385 2.466693 171
16.64718 -57.87196 1.397174 9
9.410218 -49.13462 0.8550841 13
2.968636 -30.2219 0.3705416 38
nan nan nan 0
0.1563942 -0.407277 -0.1036254 44
2.498785 -6.41431 -0.9509364 27
3.089164 -8.134027 -0.820254 37
4.22433 -11.00239 -0.7533953 65
2.664041 -9.395808 -0.6801256 22
1.7206 -9.254627 -0.7080719 34
0.847471 -9.074864 -0.7412986 29
5.569645 -14.22013 -0.619785 25
3.910123 -13.53622 -0.6551958 15
nan nan nan 0
1.103691 -11.22146 -0.6537664 21
7.895026 -20.36979 -0.380637 30
5.244968 -18.4071 -0.4434422 8
3.090292 -16.45516 -0.4869774 10
1.485927 -15.57455 -0.5395082 8
0.5409911 -5.424424 -0.9815232 18
0.692578 -7.505383 -0.8436503 18
2.782936 -29.99652 1.208368 30
13.92372 -36.15574 2.252023 27
2.725048 -31.20749 2.544748 19
10.42959 -27.47103 3.603067 41
3.936068 -45.19668 8.262047 12
3.310429 -8.812682 2.511839 45
14.00561 -36.19896 0.2233267 33
8.601291 -30.46395 0 16
5.341654 -28.72712 -0.1527854 23
2.1548 -23.21321 -0.2721648 17
nan nan nan 0
18.38234 -64.75314 1.561854 9
9.222033 -49.07872 0.8535448 12
2.872534 -30.33162 0.3717633 30
nan nan nan 0
0.1549716 -0.4078204 -0.1036254 48
2.47638 -6.422994 -0.9509364 25
3.048476 -8.112151 -0.8169541 38
4.169931 -10.97509 -0.7505148 68
2.633917 -9.414657 -0.6808231 25
nan nan nan 0
0.8135738 -9.05295 -0.7392632 33
5.518167 -14.23483 -0.6195816 21
3.861479 -13.54498 -0.654963 15
2.370159 -12.66747 -0.6733021 15
1.05795 -11.15567 -0.6497003 17
nan nan nan 0
5.165795 -18.37237 -0.4421656 8
3.031929 -16.46094 -0.4868317 12
1.430186 -15.56471 -0.53899 9
0.5220531 -5.426279 -0.9815232 19
0.6659395 -7.502805 -0.8430912 16
nan nan nan 0
13.74586 -36.06887 2.243601 36
2.633123 -31.42043 2.561367 15
10.29871 -27.41436 3.59088 38
3.771733 -45.13171 8.247702 14
3.296497 -8.869446 2.52478 63
13.8577 -36.1916 0.2229812 31
8.505635 -30.53232 0 16
5.241345 -28.74559 -0.1527854 22
2.07775 -23.26541 -0.272691 14
nan nan nan 0
nan nan nan 0
9.038884 -49.0467 0.8524331 13
2.748968 -30.14728 0.369381 31
nan nan nan 0
0.1517843 -0.4038538 -0.1023617 42
2.452175 -6.426973 -0.9502483 27
3.030566 -8.15073 -0.8197826 34
4.075338 -10.84015 -0.7402732 95
2.601038 -9.423794 -0.6808231 25
1.655949 -9.266414 -0.7080719 34
0.7811167 -9.045804 -0.7384491 28
5.464861 -14.24468 -0.6191751 20
3.814175 -13.55838 -0.654963 16
nan nan nan 0
1.016294 -11.12947 -0.6479577 18
7.71002 -20.31224 -0.3785427 24
5.096285 -18.37102 -0.4417014 9
2.973563 -16.4665 -0.4866859 11
1.37497 -15.55966 -0.5386444 9
0.5031086 -5.428068 -0.9815232 18
0.6397457 -7.505085 -0.8430912 18
2.637336 -30.76188 1.238467 37
13.88769 -36.8265 2.287746 33
2.497563 -31.10653 2.53502 16
10.27561 -27.6455 3.616472 32
3.6079 -45.06615 8.233356 13
3.277202 -8.912621 2.533839 49
13.75432 -36.30053 0.2233555 33
8.410933 -30.60521 0 15
5.137455 -28.74403 -0.1526807 24
1.994821 -23.25259 -0.2724571 11
nan nan nan 0
19.09234 -69.08601 1.663169 11
8.853404 -48.99924 0.8510648 13
2.670733 -30.46549 0.3731683 22
nan nan nan 0
0.1503737 -0.4043812 -0.1023617 44
2.427973 -6.430862 -0.9495602 26
2.988326 -8.123895 -0.8160113 40
3.999156 -10.75144 -0.7332322 95
2.581238 -9.480939 -0.6843109 22
1.628746 -9.301606 -0.7103317 31
0.7495362 -9.048475 -0.7384491 29
5.411555 -14.25433 -0.6187685 22
3.765488 -13.5668 -0.65473 17
nan nan nan 0
0.9713601 -11.06333 -0.6438916 22
7.630275 -20.31563 -0.3781064 29
5.01233 -18.31638 -0.4399606 10
2.915196 -16.47186 -0.4865402 11
1.319806 -15.5544 -0.538299 10
0.4837258 -5.424891 -0.9806309 22
0.6135443 -7.507272 -0.8430912 17
2.52749 -30.74102 1.237263 34
13.89696 -37.24419 2.310691 36
2.390108 -31.12997 2.536236 25
10.28186 -27.96065 3.653033 24
3.444571 -44.99999 8.21901 11
3.257644 -8.955771 2.542897 45
13.64508 -36.39513 0.2236435 30
8.331526 -30.73573 0 18
4.975872 -28.41211 -0.1508219 25
nan nan nan 0
nan nan nan 0
nan nan nan 0
8.676209 -48.99538 0.8504662 11
2.583199 -30.69882 0.3759171 29
nan nan nan 0
0.1472299 -0.4003863 -0.1010979 40
2.403774 -6.43466 -0.9488721 27
2.973589 -8.171689 -0.8197826 34
3.915016 -10.63892 -0.7245908 96
2.528713 -9.417637 -0.6790792 22
1.585325 -9.24335 -0.7054355 36
0.7199016 -9.075877 -0.7404845 32
5.360006 -14.26845 -0.6185653 29
3.718108 -13.57986 -0.65473 14
nan nan nan 0
0.9214819 -10.93235 -0.6360499 17
7.446046 -20.03757 -0.3724343 23
4.931424 -18.27103 -0.4384519 8
2.856828 -16.47701 -0.4863946 11
1.2651 -15.55393 -0.5381262 9
0.4647865 -5.426546 -0.9806309 18
0.5873352 -7.509367 -0.8430912 17
2.442852 -31.03854 1.248901 27
13.34319 -36.14528 2.239535 28
2.282519 -31.15303 2.537452 13
nan nan nan 0
3.279959 -44.90872 8.200183 10
3.293503 -9.153374 2.595955 109
13.50752 -36.41442 0.2234707 31
8.197064 -30.66319 0 16
4.881734 -28.45887 -0.150979 24
nan nan nan 0
nan nan nan 0
nan nan nan 0
8.487189 -48.92194 0.8486703 11
nan nan nan 0
nan nan nan 0
0.1458314 -0.4008978 -0.1010979 39
2.379577 -6.438368 -0.948184 24
2.950112 -8.196067 -0.8211968 39
nan nan nan 0
2.495823 -9.426407 -0.6790792 26
1.535733 -9.145568 -0.6975263 34
0.6852272 -9.038579 -0.7372278 39
5.310168 -14.28708 -0.6185653 34
3.668077 -13.58311 -0.6542642 14
nan nan nan 0
0.892902 -11.05492 -0.6430203 16
nan nan nan 0
4.854754 -18.23983 -0.4372914 10
2.798459 -16.48195 -0.4862488 11
1.210799 -15.55826 -0.5381262 8
0.4458415 -5.428135 -0.9806309 19
0.5611191 -7.511372 -0.8430912 18
2.356543 -31.34081 1.26074 24
13.14671 -35.99941 2.227627 25
2.219419 -31.81705 2.590957 10
10.0427 -27.91035 3.63719 32
3.113302 -44.77759 8.174182 9
3.284235 -9.228503 2.614072 84
13.39584 -36.50359 0.2237299 33
8.069586 -30.61426 0 15
4.818788 -28.6927 -0.1521309 16
nan nan nan 0
nan nan nan 0
nan nan nan 0
8.301299 -48.86255 0.847131 11
nan nan nan 0
nan nan nan 0
0.1444311 -0.4014044 -0.1010979 39
2.355384 -6.441985 -0.9474959 26
2.919812 -8.201626 -0.8207254 36
nan nan nan 0
2.45534 -9.406106 -0.6769865 26
1.51026 -9.190232 -0.7005394 32
0.65296 -9.030975 -0.7364137 32
5.258538 -14.30084 -0.618362 25
3.618069 -13.58618 -0.6537983 15
nan nan nan 0
0.8615673 -11.15253 -0.6485385 15
nan nan nan 0
4.779632 -18.21315 -0.4362469 8
2.739271 -16.48176 -0.4859574 11
1.156115 -15.5574 -0.5379534 9
0.4268911 -5.429658 -0.9806309 19
0.5345469 -7.508327 -0.8425322 17
2.243209 -31.29403 1.258533 32
13.07356 -36.1906 2.23663 38
6.924784 -104.7244 8.533296 43
9.920245 -27.8751 3.62805 39
2.947601 -44.64584 8.14818 11
3.266455 -9.280905 2.625719 96
13.29906 -36.63472 0.2242483 36
7.942548 -30.56481 0 15
nan nan nan 0
1.642155 -22.8892 -0.2678967 7
nan nan nan 0
nan nan nan 0
8.116748 -48.80739 0.8456773 11
2.26305 -30.74413 0.3761615 22
nan nan nan 0
0.1430291 -0.4019061 -0.1010979 42
2.331195 -6.445512 -0.9468078 28
2.897789 -8.230545 -0.822611 33
nan nan nan 0
2.41876 -9.400127 -0.6759402 23
1.471058 -9.151143 -0.6971496 35
0.6180425 -8.98348 -0.7323428 34
5.206878 -14.31441 -0.6181588 17
3.568084 -13.58907 -0.6533325 15
2.083986 -12.59117 -0.6667601 17
0.8193501 -11.11066 -0.6459246 17
7.025823 -19.53119 -0.3616138 20
4.704756 -18.18617 -0.4352024 10
2.680921 -16.48629 -0.4858117 11
1.101802 -15.56134 -0.5379534 9
0.4079354 -5.431116 -0.9806309 23
0.5083346 -7.510148 -0.8425322 17
2.144804 -31.46117 1.264954 18
13.23278 -37.03507 2.286004 32
6.542071 -104.4744 8.511003 98
9.832773 -27.93765 3.631706 33
2.787758 -44.59204 8.136525 14
3.278555 -9.419942 2.661954 106
13.18124 -36.70916 0.2244211 31
7.809749 -30.49063 0 17
4.6255 -28.77007 -0.1523665 12
1.560212 -22.86487 -0.2675459 7
13.48932 -37.50518 1.174805 31
nan nan nan 0
7.932682 -48.75154 0.8442235 11
nan nan nan 0
nan nan nan 0
0.1416253 -0.4024029 -0.1010979 45
2.308681 -6.45361 -0.9468078 24
2.867402 -8.23591 -0.8221397 35
nan nan nan 0
2.383479 -9.398845 -0.6752426 22
1.45534 -9.259658 -0.7050589 33
0.5886101 -9.015421 -0.7347853 35
5.155186 -14.3278 -0.6179554 26
3.519375 -13.59661 -0.6530996 15
nan nan nan 0
0.778825 -11.08856 -0.6444724 17
6.957603 -19.5556 -0.3616138 28
4.631361 -18.16373 -0.4342739 9
2.622572 -16.49061 -0.4856659 11
1.047142 -15.56011 -0.5377807 8
0.3889748 -5.432506 -0.9806309 19
0.4818016 -7.506918 -0.8419731 17
2.052656 -31.74268 1.27599 10
13.06682 -36.9775 2.279614 36
nan nan nan 0
9.710712 -27.9015 3.622566 36
2.627748 -44.52784 8.123076 14
3.373145 -9.801172 2.766775 106
13.07478 -36.81618 0.2247954 35
7.720405 -30.58558 0 16
4.535135 -28.85025 -0.1527069 16
1.473632 -22.7654 -0.2663181 8
nan nan nan 0
nan nan nan 0
7.749891 -48.69994 0.8428552 11
2.135506 -32.0712 0.3922268 10
nan nan nan 0
0.1385676 -0.3983481 -0.09983423 40
2.282829 -6.452294 -0.9454317 25
2.830521 -8.222341 -0.8197826 34
3.460866 -9.937678 -0.6724229 108
2.349447 -9.402269 -0.6748939 23
1.419986 -9.244969 -0.7035524 34
0.5601792 -9.067163 -0.7388561 32
5.100111 -14.33159 -0.6173456 22
3.469422 -13.59913 -0.6526337 16
2.000715 -12.63501 -0.6683301 15
0.7496823 -11.23565 -0.652895 16
6.879335 -19.55147 -0.3610902 22
4.553307 -18.12162 -0.4328813 9
2.563459 -16.48979 -0.4853745 12
0.9928209 -15.56367 -0.5377807 9
0.3700094 -5.433831 -0.9806309 22
0.4555947 -7.508554 -0.8419731 17
1.929979 -31.55517 1.268165 19
12.89813 -36.9098 2.272644 40
2.617869 -47.01636 3.82685 6
9.606796 -27.91646 3.620129 38
2.468765 -44.47289 8.111421 13
3.178436 -9.342031 2.633484 80
12.96608 -36.91821 0.225141 36
7.636529 -30.70453 0 15
4.433642 -28.86096 -0.1526807 11
1.390505 -22.71052 -0.2656165 8
nan nan nan 0
nan nan nan 0
7.567557 -48.64765 0.8414869 12
nan nan nan 0
nan nan nan 0
0.1371762 -0.3988293 -0.09983423 47
2.258653 -6.45555 -0.9447436 24
2.795376 -8.213326 -0.817897 37
nan nan nan 0
2.315419 -9.40557 -0.674545 27
1.406173 -9.373138 -0.7129682 30
0.5296729 -9.088964 -0.7404845 33
5.045073 -14.33517 -0.6167358 20
3.420713 -13.60631 -0.6524009 16
nan nan nan 0
0.7120207 -11.2631 -0.6543472 18
6.819267 -19.59897 -0.3615266 25
4.475603 -18.07918 -0.4314887 9
2.505883 -16.49864 -0.4853745 12
0.9384875 -15.56704 -0.5377807 9
0.3510396 -5.435089 -0.9806309 18
0.4291022 -7.505138 -0.841414 18
1.770791 -30.70881 1.233852 12
12.76106 -36.93101 2.271192 37
2.450109 -46.95554 3.821175 7
nan nan nan 0
2.310453 -44.42229 8.100661 12
3.087209 -9.179148 2.584308 47
12.85682 -37.01991 0.2254866 31
7.567388 -30.88641 0 15
nan nan nan 0
1.304909 -22.60542 -0.2643302 9
nan nan nan 0
nan nan nan 0
7.385684 -48.5947 0.8401186 13
nan nan nan 0
nan nan nan 0
0.1357832 -0.3993058 -0.09983423 42
2.234482 -6.458716 -0.9440555 24
2.760328 -8.204165 -0.8160113 35
3.352752 -9.848252 -0.6647417 97
2.282573 -9.413595 -0.674545 26
1.368395 -9.343456 -0.7103317 32
0.4968653 -9.070851 -0.7388561 31
4.991715 -14.34326 -0.6163293 20
3.371996 -13.61332 -0.652168 14
1.885609 -12.47093 -0.6589097 15
0.6727008 -11.26552 -0.6543472 15
6.755695 -19.63684 -0.3617884 29
4.398251 -18.03641 -0.430096 9
2.447544 -16.50234 -0.4852288 11
0.8838612 -15.56523 -0.537608 9
0.3320654 -5.436282 -0.9806309 20
0.4029018 -7.50659 -0.841414 17
1.65847 -30.62002 1.230039 12
12.56911 -36.79112 2.259865 36
2.282563 -46.88914 3.815095 8
9.604784 -28.55668 3.694469 30
2.152761 -44.37604 8.090799 9
3.053623 -9.185287 2.583014 48
12.75027 -37.13077 0.2258897 32
7.482991 -31.00984 0 16
4.208869 -28.73291 -0.151843 13
1.225455 -22.59985 -0.2642133 8
nan nan nan 0
nan nan nan 0
7.204271 -48.54106 0.8387503 11
2.379768 -42.46982 0.5192226 8
nan nan nan 0
0.1343886 -0.3997773 -0.09983423 46
2.210317 -6.461792 -0.9433674 22
2.726952 -8.199584 -0.814597 38
3.289663 -9.774787 -0.6589808 93
2.2497 -9.421505 -0.674545 22
1.324505 -9.269203 -0.7043056 29
0.4651991 -9.072532 -0.7388561 33
4.938363 -14.35115 -0.6159227 23
3.323271 -13.62016 -0.651935 16
nan nan nan 0
0.6269841 -11.15317 -0.6476672 16
6.685497 -19.65557 -0.3617011 34
4.320085 -17.98847 -0.4285873 9
2.38921 -16.50584 -0.4850831 10
0.829523 -15.56822 -0.537608 9
0.3128092 -5.432496 -0.9797386 18
0.3764511 -7.502989 -0.8408549 18
2.377523 -46.98658 1.888 6
12.43901 -36.83004 2.259574 35
2.116407 -46.84206 3.810636 9
9.611565 -28.91024 3.735904 26
1.995641 -44.33414 8.081833 9
3.026072 -9.209653 2.586896 95
12.65756 -37.28394 0.2265521 32
7.365451 -30.99686 0 16
nan nan nan 0
1.143282 -22.53908 -0.2634532 8
19.50695 -57.35155 1.78617 37
nan nan nan 0
7.024755 -48.49664 0.8375531 10
2.221562 -42.28814 0.5169013 8
nan nan nan 0
0.1329923 -0.400244 -0.09983423 45
2.184567 -6.460088 -0.9419912 22
2.690527 -8.185412 -0.81224 36
3.255523 -9.786211 -0.6589808 75
2.220226 -9.443866 -0.6755914 22
1.291454 -9.268832 -0.7039291 29
0.433762 -9.079077 -0.7392632 38
4.888238 -14.3683 -0.6159227 22
3.275708 -13.63167 -0.651935 16
nan nan nan 0
0.5836221 -11.07055 -0.6427299 16
6.749193 -20.07205 -0.3689438 30
4.245759 -17.9548 -0.4274268 10
2.329485 -16.49923 -0.4846459 12
0.774928 -15.56603 -0.5374352 9
0.2938443 -5.433555 -0.9797386 21
0.3502585 -7.504257 -0.8408549 17
2.210447 -46.92971 1.885392 8
12.72469 -38.11366 2.335668 33
1.949988 -46.77945 3.804961 10
3.231403 -9.845358 1.267441 17
1.838839 -44.29169 8.072867 11
2.980459 -9.178825 2.575249 46
12.52734 -37.3279 0.2265521 32
7.228728 -30.90067 0 15
nan nan nan 0
1.062487 -22.49799 -0.262927 9
19.39586 -57.68457 1.794428 26
nan nan nan 0
6.840744 -48.41691 0.8357573 13
2.076867 -42.35556 0.5176343 7
nan nan nan 0
0.1315943 -0.4007058 -0.09983423 44
2.16043 -6.462978 -0.9413031 25
2.655776 -8.175822 -0.8103544 38
3.221342 -9.797515 -0.6589808 77
2.182746 -9.432121 -0.6741963 23
1.253734 -9.233759 -0.7009159 32
0.4016326 -9.070579 -0.7384491 37
4.828488 -14.35686 -0.6147031 35
3.226954 -13.63817 -0.6517021 16
1.708411 -12.1587 -0.6413772 16
0.5437604 -11.04759 -0.6412777 17
6.686978 -20.1192 -0.3693801 33
4.173989 -17.93056 -0.4264983 9
2.269835 -16.4924 -0.4842088 11
0.7203584 -15.56365 -0.5372624 9
0.2748759 -5.434547 -0.9797386 20
0.3240616 -7.505434 -0.8408549 17
2.044882 -46.89721 1.883786 9
12.6479 -38.32848 2.346124 33
1.784979 -46.74115 3.801313 10
3.189349 -9.83298 1.264394 28
1.682173 -44.24377 8.063004 10
2.963181 -9.235152 2.588191 59
12.43161 -37.4758 0.2271856 35
7.147752 -31.04265 0 15
3.602431 -26.52606 -0.1399573 15
0.9817759 -22.45161 -0.2623423 10
19.1865 -57.72821 1.793691 74
nan nan nan 0
6.661467 -48.36621 0.8344745 13
nan nan nan 0
nan nan nan 0
0.1301948 -0.4011627 -0.09983423 45
2.136299 -6.46578 -0.9406151 26
2.616552 -8.151871 -0.8070545 36
3.160868 -9.728041 -0.65354 74
2.145374 -9.420231 -0.6728011 24
1.222147 -9.243021 -0.7012925 34
0.3713679 -9.106781 -0.7412986 27
4.770454 -14.34993 -0.6136867 28
3.178194 -13.64448 -0.6514692 15
1.672727 -12.21406 -0.6439939 16
0.5101561 -11.15913 -0.6476672 13
6.529268 -19.87647 -0.3644935 27
4.100206 -17.8963 -0.4253378 9
2.210261 -16.48537 -0.4837717 12
0.665603 -15.55609 -0.536917 9
0.2559041 -5.435474 -0.9797386 19
0.2978608 -7.506519 -0.8408549 17
1.878572 -46.83917 1.881178 10
nan nan nan 0
1.62009 -46.69729 3.79726 10
3.159556 -9.858227 1.266222 27
1.525524 -44.18546 8.051349 11
2.932389 -9.250043 2.589484 103
12.28358 -37.46671 0.2268689 34
7.079137 -31.24296 0 17
3.498677 -26.45421 -0.1395123 17
0.9014016 -22.40494 -0.2617576 9
18.97551 -57.76634 1.792806 95
nan nan nan 0
6.475316 -48.26034 0.8322511 11
nan nan nan 0
nan nan nan 0
0.1287937 -0.4016147 -0.09983423 50
2.112175 -6.46849 -0.939927 27
2.591096 -8.170443 -0.8079973 34
3.125364 -9.734263 -0.6532199 82
2.110296 -9.41793 -0.6721036 27
1.183523 -9.19778 -0.6975263 34
0.3375684 -9.053243 -0.7368208 29
4.735947 -14.41395 -0.6157194 23
3.130547 -13.65549 -0.6514692 14
1.618211 -12.13073 -0.6392837 16
0.472033 -11.18079 -0.648829 16
3.217207 -9.919323 -0.1813305 12
4.027813 -17.86662 -0.4242933 9
2.15141 -16.48307 -0.4834802 10
0.6111036 -15.55332 -0.5367442 9
0.2369292 -5.436334 -0.9797386 19
0.2714803 -7.502547 -0.8402959 17
1.71324 -46.79552 1.879171 9
3.180619 -9.882899 0.6017787 24
1.455528 -46.65285 3.793206 11
3.126626 -9.873927 1.266832 30
1.369152 -44.12169 8.038796 11
2.829234 -9.034424 2.526074 84
nan nan nan 0
6.990711 -31.3602 0 15
nan nan nan 0
0.8213648 -22.35799 -0.261173 9
nan nan nan 0
nan nan nan 0
4.050173 -31.00192 0.5341389 18
nan nan nan 0
nan nan nan 0
0.127391 -0.4020618 -0.09983423 50
2.088058 -6.471112 -0.9392389 23
2.56256 -8.179439 -0.8079973 36
3.103456 -9.783156 -0.6557803 68
2.070961 -9.396013 -0.6700109 27
1.152645 -9.21175 -0.6982795 35
0.3051384 -9.029461 -0.7347853 35
nan nan nan 0
3.081761 -13.66147 -0.6512362 14
1.583563 -12.19573 -0.6424238 16
0.4360538 -11.26217 -0.6534759 16
3.176449 -9.911452 -0.1809814 28
3.954595 -17.83177 -0.4231327 9
2.093232 -16.48552 -0.4833345 11
0.5566317 -15.55037 -0.5365714 9
0.2179514 -5.437128 -0.9797386 20
0.2452899 -7.503449 -0.8402959 17
1.547905 -46.74129 1.876763 10
3.13398 -9.855892 0.5994552 29
1.291296 -46.60783 3.789153 11
3.095109 -9.894253 1.26805 30
1.213648 -44.07211 8.028934 15
2.783383 -8.998114 2.513133 28
3.15615 -9.872168 0.05946741 37
6.867275 -31.32092 0 16
nan nan nan 0
0.7416669 -22.31075 -0.2605883 9
3.163004 -9.875926 0.3047976 34
nan nan nan 0
3.948232 -31.06546 0.5349941 26
1.45074 -41.39111 0.5055395 13
nan nan nan 0
0.1259868 -0.402504 -0.09983423 49
2.063949 -6.473644 -0.9385508 25
2.533993 -8.188334 -0.8079973 37
3.084234 -9.841537 -0.6589808 62
2.039208 -9.40806 -0.6703597 28
1.121685 -9.225616 -0.6990328 38
0.2727309 -9.000585 -0.7323428 35
3.172867 -9.894746 -0.4211854 94
3.032972 -13.66726 -0.6510034 15
1.541607 -12.20614 -0.6426855 15
0.3930988 -11.15887 -0.6473768 16
3.135786 -9.903419 -0.1806324 37
3.879538 -17.78686 -0.4217401 9
2.035062 -16.48777 -0.4831888 11
0.5023474 -15.55221 -0.5365714 9
0.198971 -5.437855 -0.9797386 20
0.2190965 -7.50426 -0.8402959 18
1.383117 -46.69147 1.874556 10
3.101056 -9.871534 0.5997457 30
1.127276 -46.55725 3.784694 10
9.109668 -29.44653 3.779778 27
1.058506 -44.02198 8.019072 10
2.692584 -8.813814 2.458781 84
3.123179 -9.887892 0.0594962 39
6.768445 -31.39358 0 16
nan nan nan 0
0.6624563 -22.26823 -0.2600621 9
3.123981 -9.872615 0.3043552 37
10.53413 -48.52633 1.151952 17
3.845284 -31.12371 0.5357637 23
1.320069 -41.83567 0.510915 10
nan nan nan 0
0.124581 -0.4029414 -0.09983423 46
2.039848 -6.476087 -0.9378628 27
2.505395 -8.197129 -0.8079973 38
3.039516 -9.818882 -0.6567405 74
2.012598 -9.444388 -0.6724523 22
1.090641 -9.239379 -0.6997861 35
0.2424854 -9.046318 -0.7360066 35
3.142843 -9.920048 -0.4217952 81
2.985246 -13.67777 -0.6510034 15
nan nan nan 0
0.3533651 -11.13523 -0.6459246 16
3.099703 -9.909534 -0.1805451 36
3.812183 -17.77586 -0.4211599 10
1.976902 -16.48981 -0.4830431 11
0.448057 -15.55387 -0.5365714 9
0.1798301 -5.433599 -0.9788463 20
0.1927764 -7.500012 -0.8397368 20
1.218826 -46.64608 1.872549 10
nan nan nan 0
0.9637278 -46.51108 3.780641 10
nan nan nan 0
0.9039305 -43.98115 8.011003 10
2.652018 -8.790797 2.449722 45
3.091628 -9.908278 0.0595538 37
nan nan nan 0
2.961983 -25.08532 -0.132051 15
0.5834216 -22.22042 -0.2594774 9
3.096968 -9.907306 0.3050925 36
10.41894 -48.81701 1.157987 21
3.744954 -31.20644 0.536961 26
1.175563 -41.895 0.5115869 9
nan nan nan 0
0.1231737 -0.4033738 -0.09983423 52
2.01723 -6.483168 -0.9378628 27
2.473884 -8.196295 -0.8070545 41
2.987686 -9.772181 -0.6528999 80
1.983712 -9.470883 -0.6738475 25
1.062912 -9.282759 -0.7027991 30
0.2107933 -9.042127 -0.7355995 31
3.099227 -9.902355 -0.4205756 100
2.937484 -13.6881 -0.6510034 14
nan nan nan 0
0.3143553 -11.1314 -0.6456342 23
3.069528 -9.934621 -0.1808069 40
3.744952 -17.7646 -0.4205796 9
1.917599 -16.48171 -0.4826059 11
0.3937611 -15.55534 -0.5365714 10
0.1608622 -5.434194 -0.9788463 20
0.1665953 -7.500639 -0.8397368 18
1.054756 -46.59511 1.870342 11
nan nan nan 0
0.8004304 -46.45935 3.776182 11
nan nan nan 0
0.1818179 -10.40222 1.889108 18
2.61441 -8.776862 2.443252 45
nan nan nan 0
6.497097 -31.19043 0 16
2.709504 -23.65493 -0.1244589 12
0.5049539 -22.18234 -0.2590097 9
3.065321 -9.927605 0.3053874 31
nan nan nan 0
3.515184 -30.18148 0.5190879 19
1.027238 -41.81388 0.5105485 9
nan nan nan 0
0.1217649 -0.4038013 -0.09983423 54
1.993128 -6.485437 -0.9371747 22
2.442409 -8.195342 -0.8061117 37
2.955002 -9.787326 -0.6532199 62
1.949634 -9.472865 -0.6734987 27
1.023917 -9.226946 -0.6982795 32
0.1795161 -9.057755 -0.7368208 34
3.069077 -9.927429 -0.4211854 97
2.889685 -13.69828 -0.6510034 16
nan nan nan 0
0.276224 -11.16237 -0.6473768 16
nan nan nan 0
3.676833 -17.7482 -0.4198833 10
1.858376 -16.47341 -0.4821688 11
0.3394604 -15.55662 -0.5365714 9
0.1417687 -5.429805 -0.977954 19
0.1404122 -7.501175 -0.8397368 17
0.8911523 -46.54855 1.868336 11
nan nan nan 0
0.6375059 -46.40704 3.771723 11
nan nan nan 0
0.1469606 -10.51099 1.908833 36
2.583757 -8.785934 2.443252 41
nan nan nan 0
6.394199 -31.24231 0 17
2.773553 -24.98612 -0.1314227 18
0.426664 -22.13898 -0.2584835 9
nan nan nan 0
nan nan nan 0
3.446257 -30.51647 0.5246466 26
0.8705947 -41.30736 0.5043178 12
nan nan nan 0
0.1203547 -0.4042239 -0.09983423 54
1.970478 -6.492355 -0.9371747 29
2.410971 -8.194269 -0.8051689 36
2.922248 -9.802363 -0.65354 71
1.913588 -9.464947 -0.6724523 29
0.9837295 -9.156102 -0.69263 36
0.1484455 -9.093205 -0.7396703 29
nan nan nan 0
2.842866 -13.71317 -0.6512362 15
nan nan nan 0
0.2368437 -11.14331 -0.6462151 17
6.10816 -20.25021 -0.3685075 34
3.607876 -17.72664 -0.4190709 9
1.799235 -16.46489 -0.4817316 11
0.2850658 -15.55272 -0.5363987 9
0.1228143 -5.430266 -0.977954 21
0.1142273 -7.501619 -0.8397368 17
0.727886 -46.50143 1.866329 10
nan nan nan 0
0.4749058 -46.34919 3.766859 10
nan nan nan 0
0.1120312 -10.68852 1.94111 18
2.563865 -8.832 2.453604 43
nan nan nan 0
6.296933 -31.32326 0 16
nan nan nan 0
0.3487607 -22.10034 -0.2580157 10
nan nan nan 0
9.950831 -49.13901 1.163093 14
3.292439 -30.09595 0.5172066 18
0.724393 -41.19518 0.5029129 14
nan nan nan 0
0.1203711 -0.4092636 -0.1010979 52
1.946378 -6.49445 -0.9364865 23
2.380962 -8.197855 -0.8046975 35
2.902126 -9.860363 -0.6567405 54
1.88151 -9.476461 -0.6728011 28
0.949706 -9.139645 -0.6911235 37
0.1165207 -9.078719 -0.7384491 33
4.363587 -14.46319 -0.6130769 25
2.794981 -13.72301 -0.6512362 15
nan nan nan 0
0.1975136 -11.11911 -0.6447629 17
6.05886 -20.34327 -0.3698165 35
3.537153 -17.69501 -0.4180264 10
1.7407 -16.46113 -0.4814402 12
0.2307749 -15.55362 -0.5363987 9
0.1037691 -5.425743 -0.9770617 18
0.08804108 -7.501972 -0.8397368 17
0.5650198 -46.45872 1.864523 11
nan nan nan 0
0.3126844 -46.28578 3.76159 29
15.26101 -52.54778 6.713782 23
nan nan nan 0
2.538351 -8.859464 2.458781 89
nan nan nan 0
6.185619 -31.33524 0 18
2.610932 -25.11926 -0.1320248 17
0.2711323 -22.06143 -0.257548 9
nan nan nan 0
9.785095 -49.20285 1.163789 16
3.192625 -30.15698 0.5180618 27
0.5810094 -41.22745 0.5032793 10
nan nan nan 0
0.1175297 -0.4050542 -0.09983423 58
1.922287 -6.496458 -0.9357985 25
2.350957 -8.201331 -0.804226 37
2.896976 -9.971043 -0.6634615 59
1.857971 -9.531926 -0.676289 28
0.9302198 -9.266929 -0.7005394 34
0.0846119 -9.054154 -0.7364137 36
4.300221 -14.43525 -0.6112474 25
2.747062 -13.73268 -0.6512362 14
nan nan nan 0
0.1594565 -11.17464 -0.6479577 17
5.996281 -20.39307 -0.37034 34
3.477291 -17.71706 -0.4182585 9
1.682722 -16.46213 -0.4812945 11
0.1764263 -15.54933 -0.5362259 9
0.08482909 -5.426072 -0.9770617 19
0.06185378 -7.502234 -0.8397368 17
0.4024179 -46.41045 1.862517 14
nan nan nan 0
0.1510524 -46.26665 3.759968 9
nan nan nan 0
nan nan nan 0
nan nan nan 0
nan nan nan 0
6.08191 -31.38609 0 16
2.529224 -25.18791 -0.132339 17
0.1937799 -22.02224 -0.2570803 9
nan nan nan 0
9.60562 -49.19746 1.162861 13
3.122945 -30.51607 0.5240479 25
0.4362053 -41.14423 0.5022409 11
nan nan nan 0
0.1161151 -0.405462 -0.09983423 57
1.898206 -6.498375 -0.9351104 26
2.319599 -8.19991 -0.8032832 40
2.858019 -9.966706 -0.6625013 59
1.827501 -9.55305 -0.6773353 34
0.9017033 -9.30982 -0.7035524 41
0.05308478 -9.069344 -0.7376349 35
4.258275 -14.47892 -0.6124671 25
2.698146 -13.73729 -0.6510034 14
nan nan nan 0
0.121374 -11.26497 -0.6531855 17
5.92227 -20.40428 -0.3701655 32
3.412587 -17.71436 -0.4179103 9
1.624268 -16.45796 -0.4810031 11
0.122148 -15.54985 -0.5362259 10
0.06588805 -5.426335 -0.9770617 19
0.03566572 -7.502404 -0.8397368 17
0.2401851 -46.36661 1.860711 17
nan nan nan 0
-0.01043366 -46.22205 3.75632 9
16.24504 -57.42826 7.323129 14
0.0004963833 -9.926667 1.802139 44
2.625986 -9.411864 2.607602 95
nan nan nan 0
nan nan nan 0
2.424904 -25.02739 -0.1314489 18
0.116679 -21.97779 -0.256554 9
nan nan nan 0
9.411248 -49.11287 1.160075 12
3.013949 -30.50191 0.5236204 21
0.2937342 -41.31049 0.5042567 9
nan nan nan 0
0.1146991 -0.4058648 -0.09983423 63
1.874135 -6.500204 -0.9344223 27
2.289621 -8.203164 -0.8028117 41
2.836823 -10.02463 -0.6657018 69
1.828218 -9.740747 -0.6902403 24
0.8641154 -9.258303 -0.6994094 42
0.02136565 -9.03459 -0.7347853 37
4.197946 -14.46012 -0.6110441 26
2.650177 -13.74662 -0.6510034 15
nan nan nan 0
0.08123575 -11.14553 -0.6462151 16
5.808293 -20.27585 -0.3674604 31
3.353519 -17.7409 -0.4182585 8
1.566336 -16.45856 -0.4808574 11
0.06786811 -15.55018 -0.5362259 10
0.04694621 -5.426532 -0.9770617 18
0.009474622 -7.497514 -0.8391777 17
0.07826339 -46.32221 1.858905 8
17.49081 -61.54426 3.720456 13
-0.1716256 -46.18186 3.753078 10
16.06984 -57.57544 7.334706 16
-0.03431212 -9.96596 1.809312 44
2.589264 -9.407006 2.603719 65
nan nan nan 0
5.939691 -31.84065 0 18
2.313376 -24.77682 -0.1300875 17
0.03989864 -21.93806 -0.2560863 9
16.56778 -57.83722 1.773931 7
9.23606 -49.12577 1.159611 12
2.903194 -30.46745 0.5228507 28
nan nan nan 0
nan nan nan 0
0.1132817 -0.4062628 -0.09983423 55
1.850074 -6.501945 -0.9337342 26
2.260972 -8.211106 -0.8028117 42
2.791058 -9.996027 -0.6631414 64
1.791494 -9.732354 -0.689194 29
0.8277882 -9.21657 -0.6960197 39
-0.0101363 -9.014676 -0.733157 36
4.135044 -14.43146 -0.6092146 25
2.602176 -13.75579 -0.6510034 15
nan nan nan 0
0.04135351 -10.85124 -0.6290795 16
5.737481 -20.29601 -0.3674604 28
3.277894 -17.67878 -0.4165177 10
1.50842 -16.45894 -0.4807116 11
0.01358742 -15.55033 -0.5362259 8
0.02800379 -5.426663 -0.9770617 25
-0.01669664 -7.497502 -0.8391777 17
-0.08335503 -46.28223 1.857299 10
nan nan nan 0
-0.332537 -46.14111 3.749835 10
nan nan nan 0
-0.06607249 -9.562435 1.735792 105
2.413138 -8.889381 2.457487 121
9.825223 -34.83488 0.2082367 14
5.83391 -31.89071 0 17
2.243863 -24.97399 -0.1310824 19
-0.03659336 -21.89307 -0.2555601 9
18.30375 -64.74786 1.98406 9
9.050922 -49.08398 1.15787 12
2.806869 -30.58693 0.5247321 26
0.005327774 -40.64658 0.4961324 15
nan nan nan 0
0.1118628 -0.4066557 -0.09983423 56
1.826024 -6.503595 -0.9330461 23
2.230989 -8.214147 -0.8023404 36
2.754821 -10.0009 -0.6628214 79
1.735343 -9.615839 -0.6804744 30
0.7887696 -9.139924 -0.6899936 44
-0.04144677 -8.984686 -0.7307144 37
4.088727 -14.46023 -0.6098245 22
2.554144 -13.76479 -0.6510034 15
nan nan nan 0
0.003468371 -10.89126 -0.631403 16
5.70962 -20.46999 -0.3702528 38
3.202744 -17.61634 -0.4147769 10
1.450082 -16.45415 -0.4804202 11
-0.04067861 -15.54528 -0.5360532 9
0.00906103 -5.426727 -0.9770617 20
-0.04286771 -7.497398 -0.8391777 19
-0.2446664 -46.23669 1.855493 10
17.87157 -64.5946 3.897331 14
-0.4930583 -46.08984 3.745781 10
nan nan nan 0
-0.09918078 -9.537553 1.731309 99
2.353306 -8.790463 2.427723 104
9.798792 -35.21095 0.2102813 21
5.722555 -31.91088 0 16
2.159252 -25.01155 -0.1312394 21
-0.1127708 -21.84781 -0.2550339 9
nan nan nan 0
8.866189 -49.04148 1.15613 11
2.716334 -30.7808 0.5278962 21
nan nan nan 0
nan nan nan 0
0.1104427 -0.4070437 -0.09983423 59
1.801985 -6.505158 -0.932358 27
2.203593 -8.22669 -0.8028117 40
2.739556 -10.08267 -0.6676221 84
1.69655 -9.592368 -0.6783816 33
0.7662966 -9.256907 -0.6986561 41
-0.07276544 -8.979504 -0.7303075 36
4.040915 -14.48404 -0.610231 26
2.505186 -13.76871 -0.6507704 15
nan nan nan 0
-0.0342748 -10.81633 -0.6270465 15
5.667338 -20.59583 -0.3721725 35
3.143865 -17.64218 -0.415125 10
1.391374 -16.44417 -0.4799831 12
-0.09494152 -15.54504 -0.5360532 9
-0.000410405 -5.426735 -0.9770617 20
-0.05595306 -7.497312 -0.8391777 18
-0.324971 -46.18124 1.853286 10
17.76806 -64.65938 3.899363 11
-0.5731238 -46.05901 3.743349 10
nan nan nan 0
-0.1155135 -9.512774 1.726826 89
nan nan nan 0
9.670682 -34.98705 0.2088415 19
5.659858 -31.88143 0 16
2.111386 -24.96546 -0.1309776 22
-0.1507949 -21.83259 -0.2548585 9
19.08168 -68.87405 2.107483 17
8.763846 -48.96341 1.153925 11
2.653997 -30.68588 0.5261859 24
-0.2094597 -41.02102 0.5007138 10
nan nan nan 0
0.111055 -0.4118891 -0.1010979 61
1.789311 -6.50352 -0.93167 22
2.191797 -8.240144 -0.8037546 37
2.740188 -10.15487 -0.6721028 83
1.68411 -9.619881 -0.6801256 38
0.7545566 -9.312896 -0.7027991 39
-0.08895936 -9.029194 -0.7343782 38
4.015629 -14.49107 -0.610231 21
2.481151 -13.77306 -0.6507704 14
nan nan nan 0
nan nan nan 0
5.627426 -20.59122 -0.3719108 33
3.111331 -17.63779 -0.4148929 9
1.361848 -16.43662 -0.4796916 11
-0.1220316 -15.53986 -0.5358804 9
-0.01935324 -5.426701 -0.9770617 19
-0.08212322 -7.497071 -0.8391777 18
-0.4857461 -46.13986 1.851681 10
17.48869 -64.52349 3.887455 14
-0.733096 -46.0069 3.739296 6
nan nan nan 0
-0.1503951 -9.615596 1.745654 97
nan nan nan 0
nan nan nan 0
5.561391 -31.97489 0 17
2.028667 -25.0275 -0.1312656 20
-0.2260458 -21.74194 -0.2538061 9
nan nan nan 0
8.578196 -48.91 1.151952 11
2.525799 -30.44086 0.5218245 27
-0.3539574 -41.17002 0.5025463 8
nan nan nan 0
0.1096165 -0.4122743 -0.1010979 54
1.765298 -6.504948 -0.9309819 25
2.155426 -8.21886 -0.8009261 39
2.725293 -10.24152 -0.6772236 107
1.637863 -9.551963 -0.6748939 40
nan nan nan 0
-0.1206853 -9.043777 -0.7355995 37
3.966341 -14.50981 -0.6104343 29
2.43219 -13.77672 -0.6505376 15
nan nan nan 0
-0.09628427 -11.41995 -0.6621889 15
5.551609 -20.59627 -0.371649 37
3.047189 -17.63377 -0.4145447 10
1.302886 -16.42134 -0.4791088 11
-0.1762166 -15.53434 -0.5357077 10
-0.03829584 -5.4266 -0.9770617 18
-0.1082924 -7.496738 -0.8391777 18
-0.6459538 -46.07794 1.849273 10
17.26465 -64.58897 3.887746 14
-0.7743577 -39.90039 3.24275 11
nan nan nan 0
-0.1806607 -9.447801 1.71517 46
2.442396 -9.451191 2.605014 46
9.5665 -35.57516 0.2119516 28
5.41951 -31.81666 0 17
nan nan nan 0
-0.3010191 -21.67603 -0.253046 8
nan nan nan 0
8.392178 -48.85096 1.149863 12
2.427043 -30.54418 0.5234493 29
nan nan nan 0
nan nan nan 0
0.1081768 -0.4126544 -0.1010979 53
1.741296 -6.506286 -0.9302937 28
2.12048 -8.202241 -0.7985691 41
2.642584 -10.07241 -0.6653818 100
nan nan nan 0
0.6961265 -9.407437 -0.7095785 38
-0.1533839 -9.108076 -0.7408916 36
3.914366 -14.51875 -0.610231 21
2.384085 -13.78512 -0.6505376 15
nan nan nan 0
nan nan nan 0
5.482251 -20.62518 -0.3718235 34
2.983114 -17.62951 -0.4141966 8
1.244425 -16.41084 -0.4786716 12
-0.2304406 -15.53363 -0.5357077 9
-0.05718131 -5.421514 -0.9761694 21
-0.1344602 -7.496315 -0.8391777 18
-0.6992663 -39.97627 1.604268 9
17.19815 -65.25217 3.92405 14
-1.051854 -45.89603 3.730784 10
nan nan nan 0
-0.2120401 -9.378265 1.702618 36
2.410585 -9.464337 2.606308 69
9.437132 -35.589 0.2118364 29
5.282913 -31.68249 0 17
1.84578 -24.93136 -0.1306897 18
-0.3750945 -21.58487 -0.2519936 9
nan nan nan 0
8.206677 -48.79124 1.147774 11
2.337812 -30.78177 0.5273831 27
nan nan nan 0
nan nan nan 0
0.1067357 -0.4130295 -0.1010979 56
1.717307 -6.507538 -0.9296057 25
2.086907 -8.190301 -0.7966834 39
2.609912 -10.09124 -0.6660219 106
1.56871 -9.548398 -0.6738475 34
0.6653812 -9.439651 -0.7118383 34
-0.1832975 -9.017803 -0.7335641 37
3.862377 -14.5275 -0.6100277 29
2.335117 -13.78844 -0.6503046 15
nan nan nan 0
-0.1717267 -11.14949 -0.6465055 18
5.412759 -20.65386 -0.371998 33
2.919106 -17.62502 -0.4138485 9
1.187493 -16.42007 -0.4788174 11
-0.2847549 -15.53773 -0.5358804 9
-0.07610558 -5.421281 -0.9761694 18
-0.1606264 -7.4958 -0.8391777 17
-0.8384887 -39.9586 1.603666 11
17.00543 -65.44707 3.932183 13
-1.211261 -45.86219 3.728352 12
nan nan nan 0
-0.2455631 -9.406972 1.707998 31
2.373999 -9.458644 2.602425 48
nan nan nan 0
5.202895 -31.88826 0 14
1.777366 -25.20199 -0.1320772 19
-0.4495928 -21.54344 -0.2515259 9
nan nan nan 0
8.02332 -48.74067 1.145917 12
2.231432 -30.8047 0.5276396 27
-0.7613544 -39.92937 0.4874583 16
nan nan nan 0
0.1052933 -0.4133995 -0.1010979 57
1.69333 -6.508701 -0.9289176 26
2.05709 -8.192708 -0.796212 40
2.582082 -10.12929 -0.6679422 113
1.543293 -9.603061 -0.6773353 36
0.6254513 -9.337448 -0.7039291 32
-0.215505 -9.047001 -0.7360066 34
3.810374 -14.53606 -0.6098245 22
2.285337 -13.78665 -0.6498387 16
nan nan nan 0
-0.2015553 -10.67971 -0.6192048 15
5.344386 -20.68715 -0.3722598 40
2.854365 -17.61537 -0.4133842 9
1.130169 -16.42411 -0.4788174 12
-0.3392115 -15.54663 -0.5362259 10
-0.09502891 -5.420982 -0.9761694 20
-0.1867907 -7.495193 -0.8391777 18
-1.125486 -45.94878 1.844457 11
16.79794 -65.58823 3.93712 14
-1.369996 -45.81285 3.724704 11
17.41404 -69.35 8.774592 11
-0.2803287 -9.469975 1.719653 39
2.337482 -9.452809 2.598543 45
9.057354 -35.14566 0.2088127 24
5.112045 -32.0346 0 14
nan nan nan 0
-0.5226992 -21.45677 -0.2505319 9
nan nan nan 0
7.839622 -48.68448 1.143944 11
2.122859 -30.79734 0.5273831 28
nan nan nan 0
nan nan nan 0
0.1038496 -0.4137646 -0.1010979 51
1.668132 -6.504979 -0.9275414 26
2.020091 -8.16602 -0.7929122 43
2.547926 -10.14308 -0.6682622 106
1.539992 -9.800551 -0.6909378 30
0.5915945 -9.31967 -0.7024224 34
-0.2458313 -9.001359 -0.7323428 37
3.758359 -14.54443 -0.6096212 24
2.2396 -13.80933 -0.6505376 15
0.7917031 -11.61706 -0.6081438 15
nan nan nan 0
5.268437 -20.69114 -0.371998 34
2.790509 -17.61041 -0.4130361 9
1.072831 -16.42796 -0.4788174 12
-0.3933491 -15.54036 -0.5360532 9
-0.1138429 -5.415699 -0.9752771 19
-0.2129526 -7.494495 -0.8391777 17
-1.28545 -45.92959 1.843855 11
nan nan nan 0
-1.528736 -45.77293 3.721866 11
17.00495 -68.73592 8.689283 10
-0.3168622 -9.572178 1.738482 111
2.29989 -9.442143 2.593367 46
8.860722 -34.88631 0.2070848 29
5.026406 -32.22022 0 15
1.601064 -25.20879 -0.132051 25
-0.5970323 -21.43482 -0.2502981 9
nan nan nan 0
7.657191 -48.63255 1.142087 11
2.014366 -30.7896 0.5271266 26
nan nan nan 0
nan nan nan 0
0.1024047 -0.4141245 -0.1010979 50
1.644198 -6.505962 -0.9268533 25
1.985667 -8.148845 -0.7905552 44
2.499291 -10.09864 -0.6647417 104
1.501983 -9.781218 -0.689194 31
0.5584642 -9.311724 -0.7016692 36
-0.2769373 -8.990483 -0.7315286 37
3.702627 -14.5381 -0.6088081 22
2.185118 -13.7776 -0.6486742 16
0.7514685 -11.62474 -0.6084055 15
nan nan nan 0
5.199834 -20.72396 -0.3722598 34
2.726724 -17.60523 -0.4126879 9
1.014865 -16.42162 -0.478526 11
-0.4481752 -15.55887 -0.5367442 9
-0.1327465 -5.415268 -0.9752771 21
-0.239112 -7.493706 -0.8391777 17
-1.443714 -45.85991 1.841246 10
17.95559 -72.1996 4.326591 11
-0.3652117 -10.01993 0.8123088 18
16.77549 -68.83825 8.694768 12
-0.3489937 -9.536604 1.732206 116
2.270304 -9.464202 2.597249 44
8.764399 -35.01888 0.2076895 30
4.94707 -32.45506 0 17
1.50588 -25.09444 -0.1314227 22
nan nan nan 0
20.94114 -83.45489 2.537473 9
7.474459 -48.57499 1.140114 11
1.9859 -32.07381 0.5490189 22
-1.1569 -39.15961 0.4781734 13
nan nan nan 0
0.09974966 -0.4097953 -0.09983423 53
1.620277 -6.506858 -0.9261653 28
1.968856 -8.204121 -0.7952692 41
2.461657 -10.09761 -0.6641016 95
1.468572 -9.791333 -0.6895427 29
0.5256768 -9.308638 -0.7012925 42
-0.3065791 -8.939659 -0.7274578 40
3.648203 -14.5364 -0.6081983 25
2.13548 -13.77528 -0.6482084 15
0.7032873 -11.50269 -0.6018635 17
nan nan nan 0
5.135869 -20.77595 -0.3728707 37
2.663757 -17.60476 -0.4124558 9
0.9566655 -16.4101 -0.4780888 12
-0.5015047 -15.52724 -0.5357077 9
-0.1516485 -5.414772 -0.9752771 19
-0.2652685 -7.492826 -0.8391777 17
-0.3473994 -10.05551 0.4025219 9
17.71533 -72.31031 4.329495 12
-0.3979664 -9.963819 0.8078501 41
nan nan nan 0
-0.377881 -9.427201 1.712481 37
2.239479 -9.481468 2.599837 45
8.609769 -34.91819 0.206912 31
nan nan nan 0
1.420247 -25.13449 -0.131606 23
nan nan nan 0
25.68034 -103.8706 3.155769 11
7.29445 -48.53158 1.138489 12
nan nan nan 0
nan nan nan 0
nan nan nan 0
0.09712616 -0.4054526 -0.0985705 53
1.59637 -6.507665 -0.9254771 25
1.941354 -8.215787 -0.7957406 38
nan nan nan 0
nan nan nan 0
0.492655 -9.30046 -0.7005394 38
-0.3375911 -8.933555 -0.7270507 37
3.589033 -14.5151 -0.6067753 28
2.091874 -13.81227 -0.6496059 16
nan nan nan 0
nan nan nan 0
5.077524 -20.85203 -0.3739178 30
2.600095 -17.59911 -0.4121076 9
0.8988321 -16.40336 -0.4777974 12
-0.3604068 -10.12216 -0.3487887 31
-0.1705487 -5.41421 -0.9752771 20
-0.2912249 -7.48689 -0.8386186 17
-0.3801857 -9.994329 0.4001139 41
17.46282 -72.3717 4.329495 13
-0.4344972 -10.0022 0.8110928 44
11.35562 -48.06073 6.058734 25
-0.4073115 -9.347196 1.698135 45
2.207465 -9.493933 2.601131 45
8.490191 -34.95774 0.2069696 30
4.607459 -31.71197 0 13
nan nan nan 0
-0.3832308 -10.07162 -0.1174021 39
17.72385 -72.7851 2.209082 13
7.109755 -48.45289 1.136052 12
nan nan nan 0
-0.3640028 -10.07229 0.1226587 31
nan nan nan 0
0.09453421 -0.4010966 -0.09730678 50
1.572477 -6.508385 -0.9247891 28
1.919448 -8.2516 -0.7985691 39
2.393404 -10.12426 -0.6647417 111
1.372637 -9.608782 -0.6759402 42
0.4601874 -9.302122 -0.7005394 40
-0.3704425 -8.972155 -0.7303075 36
3.54308 -14.54696 -0.6075884 22
2.011469 -13.6021 -0.6393575 18
nan nan nan 0
nan nan nan 0
5.01871 -20.92797 -0.3749649 31
2.536506 -17.59324 -0.4117595 10
0.8410572 -16.39641 -0.477506 12
-0.3959355 -10.12583 -0.3489614 34
-0.1894468 -5.413581 -0.9752771 20
-0.3173573 -7.485828 -0.8386186 17
-0.4169608 -10.03787 0.4019199 45
17.26549 -72.66534 4.343437 13
-0.4715372 -10.04542 0.8147409 36
11.19004 -48.10974 6.059953 31
-0.4345483 -9.23271 1.677514 41
2.178631 -9.520409 2.606308 42
nan nan nan 0
nan nan nan 0
1.220797 -24.65939 -0.1290665 17
-0.4194362 -10.0952 -0.1176945 37
18.98997 -79.18389 2.401369 7
6.932785 -48.42299 1.134776 12
nan nan nan 0
-0.4003633 -10.10093 0.1230252 39
nan nan nan 0
0.09197386 -0.3967276 -0.09604306 47
1.548599 -6.509017 -0.9241009 27
1.889519 -8.253398 -0.7980977 39
2.44986 -10.52616 -0.6906657 97
nan nan nan 0
0.4325002 -9.408263 -0.7084486 32
-0.4017589 -8.970807 -0.7303075 38
3.493447 -14.56409 -0.6077917 24
1.977544 -13.70296 -0.6437829 15
0.5908509 -11.669 -0.6102372 16
-0.4032402 -10.12951 -0.5875475 28
4.959428 -21.00374 -0.3760121 28
2.472989 -17.58714 -0.4114113 9
0.7833418 -16.38926 -0.4772145 11
-0.4304174 -10.10442 -0.3482704 40
-0.2083426 -5.412887 -0.9752771 21
-0.3432543 -7.479711 -0.8380595 18
-0.4535895 -10.07129 0.4033245 42
17.07542 -72.99733 4.359701 11
nan nan nan 0
10.99212 -48.0179 6.0435 14
-0.4554592 -9.010075 1.637167 42
2.140068 -9.5044 2.599837 45
8.12781 -34.5149 0.2040034 23
4.503713 -32.59525 0 20
1.130582 -24.5736 -0.1285953 17
-0.4551278 -10.10367 -0.1178114 36
20.59649 -87.22175 2.643054 10
6.754728 -48.38253 1.133267 12
nan nan nan 0
-0.4354016 -10.09448 0.1229641 43
nan nan nan 0
0.09058847 -0.3970462 -0.09604306 44
1.524736 -6.509562 -0.9234129 27
1.866182 -8.28422 -0.8004547 37
2.405287 -10.5006 -0.6884253 95
nan nan nan 0
0.4032354 -9.494399 -0.7148514 32
-0.4355048 -9.019124 -0.7343782 37
3.443738 -14.58106 -0.607995 24
1.88998 -13.42787 -0.6305066 20
nan nan nan 0
-0.4381591 -10.11806 -0.5869666 24
4.877017 -20.98197 -0.375314 19
2.409545 -17.5808 -0.4110631 8
0.7259072 -16.3869 -0.4770688 11
-0.4668497 -10.12781 -0.3491342 16
-0.2272358 -5.412127 -0.9752771 18
-0.3693613 -7.478467 -0.8380595 17
-2.247044 -45.8926 1.843855 54
16.90677 -73.43103 4.382064 14
nan nan nan 0
10.79389 -47.92042 6.026439 13
-0.485833 -8.988783 1.633581 33
2.115255 -9.549531 2.61019 48
7.997113 -34.49923 0.2037443 22
4.389906 -32.61078 0 18
1.042678 -24.52744 -0.1283335 17
-0.4901483 -10.09702 -0.1177529 5
24.26153 -104.365 3.160192 9
4.330351 -31.83309 0.7449504 29
nan nan nan 0
-0.4720483 -10.12286 0.1233306 34
nan nan nan 0
0.08920196 -0.39736 -0.09604306 50
1.500887 -6.51002 -0.9227248 25
1.834013 -8.276105 -0.7990405 39
nan nan nan 0
1.262123 -9.548459 -0.6707085 36
0.3648767 -9.361234 -0.7046822 33
-0.4706361 -9.087221 -0.7400774 32
3.393953 -14.59786 -0.6081983 23
nan nan nan 0
0.5082875 -11.6479 -0.6089288 15
-0.4744191 -10.13642 -0.5881283 17
4.800398 -20.98425 -0.3750522 17
2.346177 -17.57425 -0.410715 10
0.6682954 -16.37935 -0.4767773 12
-0.7734169 -15.53609 -0.5363987 7
