# .PCD v0.7 - Point Cloud Data file format
VERSION 0.7
FIELDS x y z intensity
SIZE 4 4 4 4
TYPE F F F F
COUNT 1 1 1 1
WIDTH 1635
HEIGHT 1
VIEWPOINT 0 0 0 1 0 0 0
POINTS 1635
DATA ascii
-5.427561 -15.50861 -1.051361 58
-6.28406 -13.8105 -1.058206 38
-7.122612 -12.45084 -1.080563 38
-7.884325 -11.26974 -1.120293 11
-5.827905 -17.01428 -0.7301632 117
-6.474671 -14.41551 -0.7350864 17
nan nan nan 0
-11.1543 -16.11228 -1.137919 14
-6.307952 -18.19949 -0.3355225 15
-7.577153 -16.70705 -0.4249896 16
nan nan nan 0
nan nan nan 0
-4.215017 -6.105618 -1.338441 21
-6.455929 -9.205747 -1.260723 10
-26.66033 -38.07035 1.865125 19
-6.066582 -17.37489 1.068506 78
-27.47027 -38.77882 3.862115 9
-8.374084 -23.63179 3.073545 24
-8.890409 -12.55229 2.796454 7
nan nan nan 0
-6.136338 -17.66375 0.1074733 39
-7.595097 -16.63839 0 23
-8.426701 -14.73537 -0.08867104 4
nan nan nan 0
-6.013315 -17.33844 0.5402895 39
-7.511967 -16.51705 0.4203475 45
-21.55604 -37.85659 0.7445107 12
nan nan nan 0
nan nan nan 0
-0.1455821 -0.4112658 -0.1036254 36
-3.03976 -8.726948 -1.278466 16
-4.25559 -11.88966 -1.192197 15
-5.501621 -15.54603 -1.055201 58
-6.328067 -13.77942 -1.057508 37
-7.098763 -12.3093 -1.070394 42
-7.923615 -11.24215 -1.120293 11
-5.977125 -17.2535 -0.7413432 119
-6.524951 -14.39282 -0.7350864 46
-8.951763 -15.69131 -0.9446639 6
-11.18191 -16.03231 -1.135015 25
-6.424316 -18.32834 -0.3383149 21
-7.527262 -16.44414 -0.4189548 32
-8.411571 -14.64961 -0.4913488 11
nan nan nan 0
-4.236304 -6.090868 -1.338441 22
-6.488023 -9.183155 -1.260723 10
-26.82187 -38.01788 1.867132 18
-5.996017 -16.98173 1.045561 44
-8.921619 -12.50823 1.246432 29
-8.43143 -23.53233 3.064404 24
-8.902727 -12.47715 2.786592 29
nan nan nan 0
-6.156563 -17.52428 0.1067533 39
-7.577828 -16.44828 0 41
-8.380675 -14.53694 -0.08765004 15
nan nan nan 0
-6.030831 -17.19471 0.5364556 26
-7.517457 -16.37715 0.4174461 39
-21.71544 -37.8288 0.7454513 17
nan nan nan 0
nan nan nan 0
-0.1470168 -0.4107551 -0.1036254 35
-3.070204 -8.716284 -1.278466 17
-4.298758 -11.87942 -1.192668 14
-5.539057 -15.47974 -1.052001 45
-6.399193 -13.80702 -1.061345 38
-7.129154 -12.26289 -1.068511 43
-7.962809 -11.21442 -1.120293 11
-6.042266 -17.24668 -0.7419531 112
-6.606315 -14.43809 -0.7385802 44
-8.874523 -15.43058 -0.930795 22
-11.31245 -16.09935 -1.142566 16
nan nan nan 0
-7.509165 -16.2544 -0.4147769 40
nan nan nan 0
-8.793003 -12.44203 -0.5253425 16
-4.257539 -6.076043 -1.338441 20
-6.520039 -9.160451 -1.260723 12
-8.92281 -12.56047 0.617227 9
-5.996566 -16.79614 1.035396 45
-8.979774 -12.49724 1.248459 15
-8.552374 -23.61008 3.07842 34
-8.954844 -12.45798 2.789281 15
nan nan nan 0
-6.103981 -17.18227 0.1047951 43
-7.664703 -16.48521 0 28
-21.76681 -37.4478 -0.2265863 16
nan nan nan 0
-6.027388 -16.99454 0.5308522 37
-7.513659 -16.21927 0.4140806 39
-21.86989 -37.79171 0.7462209 37
-8.916885 -12.60299 0.1881418 5
nan nan nan 0
-0.1484497 -0.4102394 -0.1036254 34
-3.10227 -8.71018 -1.279154 17
-4.341908 -11.86902 -1.19314 14
-5.579491 -15.42277 -1.049441 42
-6.402983 -13.68972 -1.05402 39
-7.197132 -12.28095 -1.072277 42
-8.004807 -11.19061 -1.1207 11
-6.172438 -17.42328 -0.7504906 112
-6.683888 -14.47389 -0.7416081 26
-9.028526 -15.57228 -0.9412621 6
-8.910454 -12.58932 -0.8951168 7
nan nan nan 0
-7.50673 -16.10123 -0.4115274 39
-8.977191 -15.38476 -0.5181602 4
-8.897272 -12.49673 -0.5289703 31
-4.278723 -6.061145 -1.338441 21
-6.551976 -9.137637 -1.260723 11
-8.957871 -12.51706 0.616625 25
-6.061933 -16.79389 1.036558 49
-9.06135 -12.51829 1.253728 5
-8.926375 -24.37702 3.182618 11
nan nan nan 0
nan nan nan 0
-6.174054 -17.18909 0.1049679 30
-7.630896 -16.2637 0 35
-22.01115 -37.56571 -0.2277644 12
-8.958702 -12.51811 -0.1795528 19
-6.063075 -16.90753 0.5287878 32
-7.568113 -16.18842 0.4139645 42
-22.03946 -37.77991 0.7475038 30
-8.885339 -12.46596 0.1865536 31
nan nan nan 0
-0.1482795 -0.4051538 -0.1023617 35
-3.132656 -8.699298 -1.279154 17
-4.385036 -11.85846 -1.193611 14
-5.64699 -15.44069 -1.052001 45
-6.39752 -13.55451 -1.045301 48
-7.153716 -12.10981 -1.059471 46
-8.043821 -11.1626 -1.1207 11
-6.251735 -17.45337 -0.7527267 108
-6.70906 -14.39614 -0.7388131 46
-9.065188 -15.51049 -0.9394304 5
-8.968841 -12.57845 -0.896569 5
nan nan nan 0
-7.499062 -15.93923 -0.4080457 38
-9.015634 -15.32748 -0.5172859 10
-8.975807 -12.51431 -0.5310434 18
-4.299854 -6.046172 -1.338441 20
-6.580921 -9.110683 -1.260164 12
-9.007357 -12.49382 0.6170263 14
-6.147872 -16.84766 1.041205 93
-28.71408 -39.35764 3.959398 7
-9.032073 -24.40157 3.18993 13
nan nan nan 0
nan nan nan 0
-6.261299 -17.24264 0.1054287 42
-7.649115 -16.15562 0 36
-22.16757 -37.5317 -0.2280262 13
-9.01697 -12.50703 -0.1798451 11
-6.137375 -16.92855 0.5301149 39
-7.594723 -16.0986 0.4123397 42
-22.21429 -37.77602 0.7489576 17
-8.984231 -12.51201 0.1877142 27
nan nan nan 0
-0.1496929 -0.4046337 -0.1023617 38
-3.164694 -8.692965 -1.279842 18
-4.428144 -11.84774 -1.194082 15
-5.626521 -15.21962 -1.038239 47
-6.453371 -13.55011 -1.046696 46
-7.239318 -12.15758 -1.065874 48
-8.085667 -11.13849 -1.121107 11
-6.333017 -17.48782 -0.7551659 113
-6.73377 -14.31839 -0.7360181 20
-9.073646 -15.40132 -0.9347201 8
-8.992299 -12.5187 -0.8945359 9
-6.184799 -16.88477 -0.3131834 17
-7.528934 -15.85877 -0.4066531 43
nan nan nan 0
-9.025291 -12.491 -0.5313889 8
-4.323801 -6.035123 -1.339333 19
-6.612682 -9.087657 -1.260164 11
-27.92577 -38.43178 1.906461 10
-6.237713 -16.91041 1.046433 74
-28.59448 -38.90783 3.924133 22
nan nan nan 0
nan nan nan 0
nan nan nan 0
-6.371374 -17.35681 0.1062638 18
-7.666674 -16.04761 0 25
-22.32147 -37.49276 -0.2282618 14
nan nan nan 0
-6.222204 -16.97742 0.5323268 38
-7.700276 -16.17581 0.415009 53
-22.50408 -37.96486 0.7542596 15
-9.0601 -12.52512 0.1883862 7
nan nan nan 0
-0.1511044 -0.4041087 -0.1023617 40
-3.195019 -8.681865 -1.279842 18
-4.469473 -11.83221 -1.194082 14
-5.738944 -15.35882 -1.04912 44
-6.587026 -13.70734 -1.060647 46
-7.371535 -12.28185 -1.079057 41
-8.127441 -11.11422 -1.121514 11
-6.292774 -17.18878 -0.7431727 114
-7.952571 -16.75864 -0.8631908 39
nan nan nan 0
-9.033014 -12.48319 -0.8942454 6
-6.252372 -16.88652 -0.3136197 18
-7.633904 -15.93608 -0.4093224 40
-9.135242 -15.28562 -0.5180146 7
nan nan nan 0
-4.344841 -6.019993 -1.339333 17
-6.641425 -9.060513 -1.259605 12
-27.90333 -38.12042 1.895826 13
-6.27231 -16.82304 1.042367 84
-28.7064 -38.77575 3.92089 17
-8.830317 -23.35374 3.060749 23
nan nan nan 0
nan nan nan 0
-6.577907 -17.72827 0.1086828 14
-7.718302 -16.01174 0 23
-22.40847 -37.34173 -0.2278168 14
-9.316719 -12.73423 -0.1840547 8
-6.279694 -16.95091 0.5321793 19
-7.873537 -16.39216 0.4212759 40
-22.61338 -37.84746 0.75349 21
nan nan nan 0
nan nan nan 0
-0.1541631 -0.4081267 -0.1036254 40
-3.227028 -8.675301 -1.28053 18
-4.512521 -11.82119 -1.194554 13
-5.759057 -15.25 -1.04304 49
-6.591322 -13.5945 -1.053671 48
-7.416943 -12.26031 -1.079433 42
-8.166187 -11.08578 -1.121514 11
-6.420301 -17.34946 -0.7511005 35
-8.127474 -16.97405 -0.8757684 67
-9.075783 -15.16196 -0.9239912 8
nan nan nan 0
-6.272761 -16.76158 -0.3117 36
nan nan nan 0
-9.178224 -15.23651 -0.5174317 32
nan nan nan 0
-4.365828 -6.00479 -1.339333 18
-6.670058 -9.033279 -1.259046 12
-28.0985 -38.10722 1.90004 12
-6.44531 -17.10469 1.061245 50
-28.75814 -38.56345 3.90954 10
-7.663655 -20.05425 2.631159 15
nan nan nan 0
nan nan nan 0
-6.416957 -17.11058 0.1050255 41
-7.763215 -15.96222 0 30
-22.55162 -37.28468 -0.2279477 17
-9.358145 -12.6976 -0.1839963 22
nan nan nan 0
-7.806478 -16.10816 0.4146608 39
-22.76599 -37.80255 0.7541741 30
-9.591296 -13.06597 0.1975489 3
nan nan nan 0
-0.1555868 -0.4075861 -0.1036254 43
-3.257291 -8.663984 -1.28053 19
-4.555548 -11.81001 -1.195025 15
-5.806921 -15.21581 -1.042079 56
nan nan nan 0
-7.41556 -12.16198 -1.07303 43
-8.207807 -11.06121 -1.121922 11
nan nan nan 0
-8.199708 -16.97256 -0.8771659 66
-9.102854 -15.08744 -0.9213744 11
-11.60575 -15.8026 -1.1385 16
-6.327699 -16.73023 -0.3115255 16
-8.141449 -16.69565 -0.4303281 24
-9.208005 -15.16593 -0.5161203 14
nan nan nan 0
-4.389672 -5.993482 -1.340225 17
-6.698583 -9.005957 -1.258487 12
-28.92555 -38.94331 1.946793 17
-6.467702 -16.98412 1.055146 44
-31.54192 -41.98886 4.26827 6
-7.78006 -20.14776 2.647002 42
nan nan nan 0
nan nan nan 0
-6.414674 -16.92442 0.1040176 37
nan nan nan 0
-22.68683 -37.21427 -0.228 16
nan nan nan 0
-6.797317 -17.96318 0.565505 5
-7.954855 -16.26943 0.4195351 39
-23.04049 -37.95789 0.7588775 22
-9.592237 -12.97212 0.1966326 37
nan nan nan 0
-0.1570086 -0.4070405 -0.1036254 47
-3.287514 -8.652561 -1.28053 23
-4.59855 -11.79867 -1.195497 14
nan nan nan 0
-6.9222 -14.02676 -1.090991 18
-7.426635 -12.08505 -1.068511 41
-8.246366 -11.03249 -1.121922 12
-6.290621 -16.64056 -0.7222354 50
-8.289535 -17.00669 -0.8804267 50
-9.160653 -15.0641 -0.9218978 15
-11.66677 -15.77001 -1.139081 13
-6.346824 -16.60529 -0.3096057 33
-8.21071 -16.68956 -0.4309084 18
-9.276544 -15.15928 -0.5169945 12
-9.440537 -12.68842 -0.5453818 26
-4.410567 -5.978122 -1.340225 17
-6.726997 -8.978545 -1.257928 11
-28.52849 -38.13012 1.911076 6
-6.618302 -17.19905 1.069958 98
-30.362 -40.12609 4.089513 15
-9.588162 -24.57775 3.234412 14
nan nan nan 0
nan nan nan 0
-6.407596 -16.72915 0.102952 26
-7.535154 -15.222 0 4
-22.77995 -37.07521 -0.2276335 15
-9.859957 -13.18436 -0.1920647 15
nan nan nan 0
-7.9917 -16.20121 0.4184906 9
-23.23546 -37.97958 0.7609299 17
nan nan nan 0
nan nan nan 0
-0.160125 -0.4110204 -0.1048891 43
-3.317697 -8.641032 -1.28053 22
-4.641529 -11.78718 -1.195968 14
-5.905765 -15.1563 -1.040799 44
-6.973342 -14.00698 -1.09134 20
-7.476652 -12.07177 -1.069641 41
-8.284826 -11.00364 -1.121922 12
-6.34867 -16.6185 -0.7222354 106
-10.12713 -20.59478 -1.068391 18
-9.22101 -15.0448 -0.9226828 13
-11.68893 -15.68517 -1.135886 19
-6.424545 -16.63434 -0.3105656 24
-7.535724 -15.18315 -0.3926105 8
-8.009522 -12.98723 -0.4437002 14
-9.499762 -12.67538 -0.5462456 14
-4.431408 -5.96269 -1.340225 18
-6.755301 -8.951043 -1.257369 12
-28.71855 -38.10611 1.914889 5
-6.750598 -17.36196 1.081575 64
-30.22693 -39.65921 4.052627 11
-9.632062 -24.43793 3.220397 25
nan nan nan 0
nan nan nan 0
-6.44251 -16.64605 0.1025777 17
-8.148808 -16.31845 0 6
-22.98557 -37.11874 -0.2283928 16
-9.905918 -13.14986 -0.1920647 8
-6.456352 -16.70772 0.5273131 12
nan nan nan 0
-23.39939 -37.94931 0.7619562 17
nan nan nan 0
nan nan nan 0
-0.1615588 -0.4104589 -0.1048891 48
-3.34784 -8.629398 -1.28053 21
-4.684484 -11.77554 -1.196439 14
-5.958634 -15.13559 -1.040799 54
-7.035622 -14.0093 -1.093433 25
-7.571558 -12.13018 -1.077173 37
-8.323186 -10.97465 -1.121922 11
-6.426416 -16.64751 -0.7244714 107
-7.509284 -15.13624 -0.7860953 47
-8.045205 -13.02457 -0.8002167 25
-11.73762 -15.6363 -1.135306 16
-6.607874 -16.9332 -0.3165866 21
nan nan nan 0
-8.060086 -12.96768 -0.4439916 26
-9.691545 -12.83751 -0.5547106 3
-4.455145 -5.951121 -1.341118 18
-6.786506 -8.927407 -1.257369 12
-29.21696 -38.48708 1.939168 13
-6.694442 -17.04091 1.062987 99
-30.37429 -39.56531 4.053843 14
-9.673269 -24.2935 3.205773 10
nan nan nan 0
nan nan nan 0
nan nan nan 0
-8.381138 -16.63823 0 6
-23.11765 -37.04252 -0.2284189 15
-9.806632 -12.92407 -0.1892583 14
nan nan nan 0
nan nan nan 0
-23.54227 -37.88438 0.7622982 25
nan nan nan 0
nan nan nan 0
-0.1647187 -0.4144109 -0.1061528 47
-3.377942 -8.617661 -1.28053 23
-4.727413 -11.76373 -1.196911 13
-5.969053 -15.00805 -1.033438 50
-7.091241 -13.998 -1.094479 18
-7.635096 -12.13744 -1.080186 38
-8.364471 -10.94949 -1.122329 11
-6.466347 -16.57843 -0.7224388 111
-7.508438 -15.00274 -0.7805052 19
-9.304704 -14.94615 -0.9205894 17
-11.83127 -15.64698 -1.139081 6
-6.663276 -16.90072 -0.3164121 18
-7.564936 -14.97845 -0.3886647 17
-7.996503 -12.76583 -0.4380173 7
-10.06614 -13.23705 -0.5735406 25
-4.475891 -5.935534 -1.341118 18
-6.814604 -8.899721 -1.25681 11
-29.05976 -38.0039 1.919905 18
-6.707887 -16.90144 1.055727 28
-31.05493 -40.16073 4.125994 13
-9.785776 -24.32866 3.214913 9
nan nan nan 0
nan nan nan 0
-6.896337 -17.4564 0.1078765 17
-8.452752 -16.63562 0 13
-23.28142 -37.01662 -0.2287593 13
nan nan nan 0
-6.488541 -16.44835 0.52053 45
-19.19642 -37.91594 0.9857624 24
-23.71682 -37.86976 0.7636665 25
nan nan nan 0
nan nan nan 0
-0.1661643 -0.4138335 -0.1061528 47
-3.408002 -8.605817 -1.28053 24
-4.770318 -11.75177 -1.197382 14
-5.893155 -14.66761 -1.011355 60
-7.14006 -13.97317 -1.094479 20
-7.680087 -12.11492 -1.080563 35
-8.40264 -10.92023 -1.122329 11
-6.738308 -17.09963 -0.7462218 106
-10.38724 -20.57678 -1.073049 22
nan nan nan 0
-11.84951 -15.55794 -1.135596 8
-6.685261 -16.78446 -0.3146669 34
nan nan nan 0
-8.131741 -12.88151 -0.4429716 35
-9.823487 -12.82506 -0.5571291 17
-4.496583 -5.919874 -1.341118 18
-6.845628 -8.875878 -1.25681 12
-29.21968 -37.93785 1.921711 26
-6.646195 -16.57674 1.036849 50
-31.36337 -40.2683 4.148288 15
-9.794088 -24.10582 3.18993 10
nan nan nan 0
nan nan nan 0
-6.975749 -17.47867 0.1081644 41
nan nan nan 0
nan nan nan 0
-9.683036 -12.57805 -0.1851656 22
-6.558858 -16.45811 0.5215623 45
-19.34685 -37.88431 0.9866908 14
-23.97428 -37.98544 0.7676858 24
-11.60375 -15.13106 0.2324895 3
nan nan nan 0
-0.1693674 -0.4177572 -0.1074166 46
-3.438021 -8.593868 -1.28053 24
-4.813197 -11.73966 -1.197854 14
-5.991189 -14.76255 -1.019356 46
-7.177369 -13.92599 -1.092735 18
-7.7277 -12.09644 -1.081316 35
-8.443762 -10.89477 -1.122736 11
-6.847809 -17.20135 -0.7517103 87
-7.712695 -15.1458 -0.7907537 35
-8.071733 -12.76659 -0.7894879 27
-11.94934 -15.57588 -1.139952 12
-6.725163 -16.71464 -0.3137943 39
-7.73099 -15.04533 -0.3917982 17
-8.106895 -12.74342 -0.4391831 44
-9.975077 -12.92913 -0.5631754 18
-4.51722 -5.904141 -1.341118 18
-6.873518 -8.848008 -1.256251 11
-29.47138 -37.98955 1.929536 20
-6.587935 -16.26656 1.018842 96
-31.6914 -40.39774 4.173014 12
nan nan nan 0
nan nan nan 0
-9.648447 -23.30284 6.747412 5
-6.549132 -16.24375 0.1006482 10
-7.77212 -15.03487 0 16
-8.108264 -12.69653 -0.07867036 40
-9.717687 -12.53232 -0.1849902 5
-6.71138 -16.67159 0.5290827 42
-19.50414 -37.86543 0.9879674 13
-24.2865 -38.18414 0.7734154 13
-11.66567 -15.10233 0.2326728 25
nan nan nan 0
-0.1708246 -0.4171635 -0.1074166 42
-3.467999 -8.581815 -1.28053 24
-4.854147 -11.72278 -1.197854 14
-6.044575 -14.74617 -1.019676 42
-7.223636 -13.89642 -1.092386 28
-7.780674 -12.08616 -1.082823 29
-8.481741 -10.86522 -1.122736 11
-7.071719 -17.58528 -0.7695985 98
-10.56943 -20.57929 -1.077009 28
-8.132348 -12.7636 -0.7910579 9
-9.912222 -12.82907 -0.9410053 10
-6.817322 -16.77444 -0.315365 17
-7.783462 -15.01825 -0.3917982 35
-8.280825 -12.91699 -0.4461773 31
-9.863703 -12.69305 -0.554365 15
-4.537801 -5.888338 -1.341118 18
-6.904363 -8.82396 -1.256251 12
-29.62842 -37.91794 1.931142 13
-6.597465 -16.12794 1.011581 43
-31.02572 -39.26639 4.067219 12
-9.724744 -23.46374 3.113762 28
nan nan nan 0
-9.673863 -23.13533 6.70859 37
-6.626521 -16.27173 0.100965 49
-7.806065 -14.97218 0 4
-8.149827 -12.66395 -0.07864418 6
nan nan nan 0
-6.733791 -16.56009 0.5262809 34
-19.63389 -37.79268 0.9878513 15
-24.28745 -37.8929 0.7692251 28
-11.76439 -15.12069 0.2335891 21
nan nan nan 0
-0.1704887 -0.4120708 -0.1061528 43
-3.497934 -8.569657 -1.28053 23
-4.896955 -11.71036 -1.198325 14
-6.137968 -14.82642 -1.026717 40
-7.253576 -13.83578 -1.089596 20
-7.833671 -12.07566 -1.084329 22
-8.522698 -10.83947 -1.123143 11
-7.110514 -17.50493 -0.7671592 60
-7.763116 -14.98514 -0.7851636 30
nan nan nan 0
-9.917074 -12.74319 -0.9372297 16
-6.87204 -16.74129 -0.3151904 17
-7.842783 -15.00428 -0.3921464 33
-8.244488 -12.76207 -0.4418059 17
-9.756968 -12.46578 -0.5459001 15
-4.555309 -5.868578 -1.340225 18
-6.935121 -8.799806 -1.256251 11
-29.90893 -38.00272 1.940773 10
-6.670864 -16.14634 1.014195 39
-31.17501 -39.17345 4.068841 18
-9.833401 -23.49375 3.122292 11
nan nan nan 0
-9.848451 -23.32391 6.773294 28
-6.717488 -16.33174 0.1014834 42
-7.800117 -14.83419 0 25
nan nan nan 0
nan nan nan 0
-6.914878 -16.83702 0.5358658 17
-19.80513 -37.79919 0.9898243 16
-24.49281 -37.92127 0.771534 20
-11.83561 -15.10314 0.2339556 19
nan nan nan 0
-0.1719261 -0.4114731 -0.1061528 46
-3.527826 -8.557395 -1.28053 26
-4.937803 -11.6932 -1.198325 14
-6.101218 -14.59311 -1.011995 36
-7.318144 -13.84125 -1.092038 22
-7.88669 -12.06493 -1.085836 22
-8.563577 -10.81356 -1.12355 11
-7.002928 -17.0686 -0.7490677 89
-7.759878 -14.8517 -0.7795736 38
-8.25381 -12.75681 -0.7941981 42
-10.00463 -12.76349 -0.9412957 8
-6.930436 -16.7172 -0.3151904 22
-7.841507 -14.8751 -0.3894771 10
-8.316257 -12.7751 -0.4432631 73
-9.800422 -12.43165 -0.5459001 13
-4.575766 -5.852641 -1.340225 18
-6.965796 -8.775544 -1.256251 11
-30.09106 -37.96072 1.943984 20
-6.736786 -16.14599 1.015647 102
-31.36144 -39.1266 4.075326 9
nan nan nan 0
nan nan nan 0
nan nan nan 0
-6.680542 -16.08191 0.1000723 38
-7.975975 -15.04101 0 42
-8.440473 -12.91645 -0.08058148 18
-10.06582 -12.70411 -0.1890829 49
-6.921947 -16.68812 0.5318844 30
-19.97899 -37.80938 0.9919133 18
-24.67957 -37.91934 0.7732444 23
-11.93783 -15.12451 0.2349329 19
nan nan nan 0
-0.1733613 -0.4108705 -0.1061528 41
-3.557676 -8.545028 -1.28053 25
-4.97859 -11.67589 -1.198325 14
-6.080369 -14.40161 -1.000153 50
-7.373453 -13.82882 -1.093084 18
-7.939729 -12.05398 -1.087342 19
-8.604381 -10.78749 -1.123957 12
-7.123619 -17.19176 -0.7555725 95
-7.825641 -14.85104 -0.7809711 40
-8.38557 -12.86176 -0.8025719 32
-12.07282 -15.29002 -1.131239 16
nan nan nan 0
-7.916844 -14.89178 -0.3906377 16
-8.311449 -12.67078 -0.4406402 97
-9.859301 -12.41692 -0.5467639 17
-4.596168 -5.836633 -1.340225 19
-6.999491 -8.755055 -1.25681 17
-30.33874 -37.99989 1.951408 14
nan nan nan 0
-31.4853 -39.00138 4.073705 9
-10.56183 -24.74833 3.299003 13
nan nan nan 0
nan nan nan 0
-6.761763 -16.11844 0.1004466 17
-7.787978 -14.56332 0 30
nan nan nan 0
-10.11011 -12.6689 -0.1890829 10
-7.041901 -16.81139 0.5366031 27
-20.13905 -37.79235 0.9933059 14
-24.8584 -37.90403 0.7746981 27
-12.04658 -15.15318 0.2360325 19
nan nan nan 0
-0.1747945 -0.4102628 -0.1061528 39
-3.585565 -8.527992 -1.279842 25
-5.019316 -11.65844 -1.198325 14
-6.124738 -14.36653 -0.9991928 48
-7.433487 -13.82497 -1.094828 20
-7.99003 -12.03865 -1.088472 14
-8.645106 -10.76128 -1.124364 11
-7.146971 -17.07922 -0.7517103 90
-7.910238 -14.88538 -0.7842319 37
-9.823392 -14.95221 -0.9355052 16
-10.14321 -12.75582 -0.9459427 7
-6.895239 -16.3092 -0.308384 36
-7.975861 -14.87727 -0.3909858 29
-8.435559 -12.76259 -0.4448659 43
-9.999375 -12.50338 -0.5521192 13
-4.619574 -5.824406 -1.341118 17
-7.030009 -8.730569 -1.25681 42
-30.51817 -37.95216 1.954418 16
-7.112966 -16.71873 1.054855 72
-32.71234 -40.23287 4.214359 17
-10.27126 -23.83617 3.182008 40
nan nan nan 0
nan nan nan 0
-7.350009 -17.35177 0.1083084 22
nan nan nan 0
-11.53295 -17.38148 -0.1090128 3
-10.0352 -12.48549 -0.1868612 38
-7.079139 -16.73606 0.534981 44
-20.31107 -37.79667 0.9952788 15
-25.05946 -37.9213 0.776836 12
-12.1119 -15.12664 0.2362768 20
nan nan nan 0
-0.1762255 -0.4096502 -0.1061528 41
-3.615311 -8.515424 -1.279842 23
-5.05998 -11.64085 -1.198325 13
nan nan nan 0
-7.486454 -13.8077 -1.095525 22
-8.045864 -12.03141 -1.090356 13
-8.685754 -10.73491 -1.124771 8
-7.690403 -18.20018 -0.8023257 66
-7.931488 -14.80045 -0.781204 24
-8.381433 -12.66136 -0.7936748 37
-10.10964 -12.62296 -0.9386818 35
-6.958011 -16.29883 -0.3086458 41
nan nan nan 0
-8.322119 -12.49598 -0.4365602 53
-10.15585 -12.60845 -0.5583383 11
-4.639876 -5.808245 -1.341118 19
-7.063574 -8.709833 -1.257369 42
-31.05299 -38.3423 1.980103 14
-7.175219 -16.70297 1.055436 46
-32.72626 -39.96422 4.198145 12
-10.33263 -23.75011 3.175306 32
nan nan nan 0
nan nan nan 0
-7.552003 -17.65704 0.1103819 39
-8.111551 -14.91713 0 6
-8.558593 -12.80241 -0.08042441 21
-10.05984 -12.42707 -0.1865104 7
-7.149286 -16.73883 0.5358658 23
-20.49289 -37.81784 0.997716 14
-25.28866 -37.97923 0.7798291 32
-12.218 -15.15042 0.2373152 21
nan nan nan 0
-0.1776544 -0.4090325 -0.1061528 40
-3.645014 -8.502753 -1.279842 23
-5.100584 -11.62311 -1.198325 14
-6.274567 -14.43784 -1.007194 52
-7.52743 -13.76836 -1.094479 20
-8.082239 -11.99498 -1.089602 19
-8.720023 -10.70066 -1.124364 10
-7.107331 -16.65666 -0.735245 45
-7.992598 -14.79025 -0.7821357 29
-9.949707 -14.91649 -0.9375986 17
-10.10661 -12.52934 -0.9343253 7
-7.042546 -16.33872 -0.3098674 44
nan nan nan 0
-8.633083 -12.86523 -0.4505488 46
nan nan nan 0
-4.660122 -5.792014 -1.341118 17
-7.093933 -8.685124 -1.257369 44
-31.19927 -38.24916 1.980905 9
-7.22951 -16.66866 1.054855 71
-33.21441 -40.27261 4.242733 29
-10.05043 -22.88231 3.063795 33
nan nan nan 0
nan nan nan 0
-7.217411 -16.71241 0.1046223 11
-20.94733 -38.20973 0 18
-8.597642 -12.76417 -0.08037204 5
nan nan nan 0
-7.199761 -16.69542 0.5352759 42
-20.70866 -37.89961 1.001778 9
-25.5325 -38.05678 0.7832499 17
-12.29919 -15.1426 0.237865 21
nan nan nan 0
-0.1790811 -0.4084099 -0.1061528 41
-3.674672 -8.489977 -1.279842 24
-5.143139 -11.60979 -1.198797 14
-6.322922 -14.41128 -1.006874 55
-7.560999 -13.71579 -1.092386 17
-8.118459 -11.95845 -1.088849 18
-8.750996 -10.66246 -1.12355 11
-6.296302 -14.61268 -0.6458041 69
-8.041789 -14.75787 -0.7819028 42
-8.360979 -12.44092 -0.7834692 34
nan nan nan 0
-7.071629 -16.24985 -0.3086458 43
-8.063809 -14.67027 -0.3877363 5
-8.493149 -12.56177 -0.4409316 8
-10.29423 -12.59914 -0.5611024 5
-4.680312 -5.775712 -1.341118 18
-7.127366 -8.664145 -1.257928 44
-31.4214 -38.2481 1.986524 17
-7.115585 -16.25004 1.029878 44
-33.00447 -39.73478 4.198145 17
-10.21268 -23.03312 3.088778 21
nan nan nan 0
nan nan nan 0
-7.483384 -17.16384 0.1076173 14
-8.077626 -14.6107 0 8
-8.597213 -12.66789 -0.07995316 39
-10.13365 -12.34109 -0.1862765 33
-7.186222 -16.5052 0.5299674 39
-20.88183 -37.90152 1.003751 8
-25.80798 -38.17865 0.7876112 17
-12.36147 -15.11118 0.2380483 19
nan nan nan 0
-0.1805056 -0.4077823 -0.1061528 42
-3.704285 -8.477098 -1.279842 21
-5.183634 -11.59177 -1.198797 14
-6.340882 -14.31612 -1.001753 69
nan nan nan 0
-8.151706 -11.91769 -1.087719 21
-8.781809 -10.62416 -1.122736 11
-7.199547 -16.55165 -0.7328057 61
-10.93312 -19.89968 -1.056978 24
-10.0592 -14.85494 -0.938122 39
-12.32202 -15.05768 -1.129787 10
-7.138354 -16.24796 -0.3090821 31
-8.030176 -14.489 -0.3836744 31
-8.539761 -12.53618 -0.4410774 9
-10.20792 -12.40498 -0.5540195 18
-4.700444 -5.759339 -1.341118 18
-7.157566 -8.639214 -1.257928 45
-31.81273 -38.44994 2.002777 15
-7.14403 -16.16118 1.025812 46
-33.36363 -39.88305 4.226113 9
-10.2302 -22.85689 3.069889 15
nan nan nan 0
nan nan nan 0
-7.585522 -17.23372 0.108222 14
-21.3377 -38.28531 0 18
-8.666783 -12.67495 -0.08018879 16
nan nan nan 0
-7.217667 -16.42052 0.5280504 39
-20.98973 -37.7847 1.00259 24
-8.55695 -12.56587 0.2593729 9
-10.35023 -12.5642 0.1984041 46
nan nan nan 0
-0.1819279 -0.4071498 -0.1061528 39
-3.733853 -8.464117 -1.279842 23
-5.224065 -11.5736 -1.198797 15
-6.417272 -14.35312 -1.005914 60
-7.607811 -13.57564 -1.085411 32
-8.181937 -11.87274 -1.086213 22
-8.812461 -10.58579 -1.121922 11
-7.233192 -16.47152 -0.7303665 101
nan nan nan 0
nan nan nan 0
-12.29511 -14.9183 -1.122526 19
nan nan nan 0
-8.161154 -14.60489 -0.3875042 32
-8.917251 -12.9925 -0.4582717 39
nan nan nan 0
-4.72052 -5.742896 -1.341118 18
-7.190864 -8.61799 -1.258487 45
-31.90516 -38.28877 2.000169 10
-7.216661 -16.17262 1.028135 50
-31.11341 -36.93104 3.924538 27
-9.889218 -21.8893 2.944363 13
nan nan nan 0
nan nan nan 0
-7.598969 -17.10203 0.1075597 47
-21.30222 -37.90982 0 19
nan nan nan 0
-10.20356 -12.25084 -0.1859841 17
-7.238481 -16.31299 0.5253962 27
-21.12638 -37.71993 1.002822 14
-8.606419 -12.54417 0.259544 25
-10.19921 -12.29335 0.1946779 111
nan nan nan 0
-0.1852794 -0.4109477 -0.1074166 39
-3.765387 -8.455556 -1.28053 22
-5.264433 -11.5553 -1.198797 14
-6.364786 -14.10319 -0.9899114 50
-7.684589 -13.60112 -1.089596 34
-8.2148 -11.83183 -1.085083 22
-8.842953 -10.54733 -1.121107 12
-7.284574 -16.43247 -0.7297566 87
-8.967824 -16.0552 -0.8557374 6
nan nan nan 0
-12.35668 -14.88681 -1.123398 14
-7.321017 -16.35289 -0.312049 28
-8.275864 -14.68955 -0.3905216 11
-9.030782 -13.05994 -0.4617688 37
-12.57183 -15.06025 -0.676847 3
-4.743677 -5.730171 -1.34201 18
-7.220902 -8.592835 -1.258487 43
-32.16068 -38.32258 2.007793 15
-7.291507 -16.18829 1.030749 8
-31.20666 -36.78041 3.920079 13
-9.959392 -21.84109 2.942535 37
nan nan nan 0
nan nan nan 0
-7.916265 -17.6503 0.1111882 28
-8.353404 -14.74284 0 17
nan nan nan 0
nan nan nan 0
-7.250464 -16.18726 0.5221521 44
-21.30707 -37.73301 1.005143 13
nan nan nan 0
-10.18433 -12.18863 0.1935784 3
nan nan nan 0
-0.1867127 -0.4102984 -0.1074166 38
-3.79488 -8.44236 -1.28053 21
-5.304736 -11.53685 -1.198797 14
-6.362305 -13.96735 -0.9819102 47
-7.734488 -13.57854 -1.089945 36
-8.247475 -11.79082 -1.083953 20
-8.873281 -10.50878 -1.120293 10
-7.36432 -16.45711 -0.7319926 93
-8.918447 -15.83665 -0.845722 43
nan nan nan 0
-12.46301 -14.90868 -1.128335 17
-7.402743 -16.38191 -0.3130962 23
-8.314749 -14.63884 -0.3899413 31
nan nan nan 0
-12.63076 -15.02392 -0.6771926 6
-4.76365 -5.713578 -1.34201 18
-7.254065 -8.571368 -1.259046 43
-32.22974 -38.13378 2.00378 4
-7.727822 -16.99896 1.084189 100
-34.35579 -40.20582 4.298265 7
-9.944325 -21.60781 2.915724 16
nan nan nan 0
nan nan nan 0
-7.716116 -17.04401 0.1075309 38
nan nan nan 0
nan nan nan 0
nan nan nan 0
-7.280177 -16.10264 0.5202351 42
-21.46338 -37.70184 1.006304 17
-26.60426 -38.19609 0.7955643 18
nan nan nan 0
nan nan nan 0
-0.1901061 -0.414066 -0.1086803 37
-3.826369 -8.433573 -1.281218 21
-5.344975 -11.51826 -1.198797 13
-6.433932 -13.99494 -0.9854307 58
nan nan nan 0
-8.279964 -11.74974 -1.082823 20
-8.903451 -10.47016 -1.119479 10
-7.481319 -16.56336 -0.7378876 15
-8.931761 -15.73159 -0.8417625 102
nan nan nan 0
-12.54392 -14.89944 -1.130949 13
-7.53866 -16.52883 -0.3164121 39
-8.514806 -14.87001 -0.3969046 13
nan nan nan 0
nan nan nan 0
-4.783565 -5.696915 -1.34201 18
-7.28394 -8.545995 -1.259046 36
nan nan nan 0
-7.747588 -16.88567 1.078671 44
-31.09855 -36.13862 3.874681 11
-10.00089 -21.53246 2.91024 28
nan nan nan 0
nan nan nan 0
-7.567903 -16.56215 0.1046511 45
-8.53346 -14.81849 0 34
nan nan nan 0
nan nan nan 0
-7.340488 -16.08623 0.52053 31
-21.65705 -37.73508 1.009205 16
-26.64554 -37.97205 0.7928278 23
nan nan nan 0
nan nan nan 0
-0.1915503 -0.4133998 -0.1086803 39
-3.855784 -8.420166 -1.281218 22
-5.385149 -11.49953 -1.198797 14
-6.451266 -13.90449 -0.98063 50
-7.72416 -13.3429 -1.075296 37
-8.320929 -11.72076 -1.082823 19
-8.933458 -10.43145 -1.118665 10
-7.808315 -17.12817 -0.7643133 40
-8.941968 -15.62228 -0.83757 107
nan nan nan 0
-12.57648 -14.83272 -1.129206 15
-7.615111 -16.54329 -0.3171975 34
nan nan nan 0
nan nan nan 0
-10.82503 -12.69631 -0.5754409 10
-4.806602 -5.683937 -1.342902 18
-7.316964 -8.524285 -1.259605 15
nan nan nan 0
-7.85679 -16.96725 1.085641 86
-31.22124 -36.02608 3.874275 27
-10.0823 -21.5109 2.912068 33
nan nan nan 0
nan nan nan 0
-7.615207 -16.51292 0.1045071 36
-8.607722 -14.82753 0 6
-8.95324 -12.61553 -0.08079092 8
-10.81945 -12.62717 -0.1939942 45
-7.459271 -16.19671 0.5249538 38
-21.85623 -37.77607 1.012339 14
-26.93377 -38.09924 0.7974457 15
-10.77248 -12.62116 0.2022525 43
nan nan nan 0
-0.1929921 -0.4127287 -0.1086803 35
-3.885153 -8.406655 -1.281218 20
-5.427381 -11.48517 -1.199268 14
-6.501877 -13.8864 -0.9809501 58
-7.820958 -13.40202 -1.082272 33
-8.361791 -11.69165 -1.082823 19
-8.963304 -10.39265 -1.117851 12
-7.734499 -16.81031 -0.7513037 104
-8.956511 -15.52175 -0.8338433 132
nan nan nan 0
nan nan nan 0
-7.628611 -16.42139 -0.315365 34
nan nan nan 0
-8.936733 -12.5459 -0.4479259 28
-10.85625 -12.64329 -0.5747499 40
-4.826413 -5.667123 -1.342902 19
-7.349926 -8.50245 -1.260164 12
nan nan nan 0
nan nan nan 0
-31.01252 -35.53394 3.83293 16
-10.23156 -21.63261 2.933395 17
nan nan nan 0
nan nan nan 0
-7.668585 -16.47717 0.1044495 44
-22.43022 -38.33498 0 19
-8.947777 -12.51506 -0.08034586 28
-10.85366 -12.57797 -0.1938187 45
-7.465242 -16.06178 0.5214148 44
-22.01566 -37.74705 1.013615 22
-8.971946 -12.59973 0.2639053 11
nan nan nan 0
nan nan nan 0
-0.1944316 -0.4120525 -0.1086803 35
-3.914474 -8.393043 -1.281218 21
-5.467439 -11.46615 -1.199268 14
-6.663202 -14.10277 -0.9979126 28
-7.844936 -13.33595 -1.079133 16
-8.402552 -11.66239 -1.082823 22
-8.992987 -10.35378 -1.117036 12
-7.807849 -16.81493 -0.7527267 15
-9.025704 -15.5163 -0.8352408 26
-8.948711 -12.54404 -0.8054503 27
nan nan nan 0
-7.73042 -16.48973 -0.3171975 36
nan nan nan 0
-9.000872 -12.54305 -0.4489459 25
-10.86436 -12.56375 -0.5728496 37
-4.84937 -5.653974 -1.343794 18
-7.386089 -8.484234 -1.261282 11
nan nan nan 0
-7.772922 -16.48302 1.05805 44
-31.93265 -36.33123 3.931023 14
nan nan nan 0
nan nan nan 0
nan nan nan 0
-7.73455 -16.46841 0.1045647 37
-22.68328 -38.45888 0 17
-9.023558 -12.52838 -0.08063384 17
-10.86141 -12.49851 -0.1931756 40
-7.514899 -16.02205 0.5209724 42
-22.25115 -37.84665 1.018374 15
-9.00713 -12.55615 0.2636488 19
-10.85706 -12.54187 0.2021914 40
nan nan nan 0
-0.1958688 -0.4113713 -0.1086803 35
-3.943747 -8.379327 -1.281218 24
-5.509586 -11.45148 -1.199739 14
-6.718827 -14.09294 -0.9988728 27
nan nan nan 0
-8.446139 -11.63702 -1.0832 21
-9.02251 -10.31483 -1.116222 12
-7.963946 -16.9957 -0.7620773 52
nan nan nan 0
-9.015759 -12.54516 -0.8075438 19
nan nan nan 0
-7.828525 -16.54852 -0.3188555 30
nan nan nan 0
-9.04753 -12.5156 -0.4490916 17
-10.86218 -12.47301 -0.5704311 40
-4.872296 -5.640733 -1.344687 18
-7.418938 -8.462134 -1.261842 12
nan nan nan 0
-7.858276 -16.51439 1.061826 34
-31.58027 -35.6785 3.872249 16
-11.34649 -23.56402 3.206382 13
nan nan nan 0
nan nan nan 0
nan nan nan 0
-22.85571 -38.44392 0 14
-9.114223 -12.56155 -0.08105272 7
-10.86544 -12.41538 -0.192474 42
-7.596422 -16.04994 0.522742 41
-22.38312 -37.76875 1.018374 15
-9.050904 -12.52463 0.2636488 12
-10.85147 -12.44738 0.2012751 43
nan nan nan 0
-0.1973035 -0.4106851 -0.1086803 29
-3.972973 -8.36551 -1.281218 23
-5.549526 -11.43218 -1.199739 14
nan nan nan 0
-7.684558 -12.85697 -1.044603 43
-8.486708 -11.60747 -1.0832 22
-9.055163 -10.27953 -1.115815 11
-8.012552 -16.94521 -0.7610609 97
nan nan nan 0
-9.059494 -12.51361 -0.8075438 9
-10.86567 -12.45933 -0.9595931 30
-7.90346 -16.55719 -0.3195536 42
nan nan nan 0
-9.229465 -12.67381 -0.4559402 7
-10.89247 -12.42 -0.5697401 41
-4.895188 -5.6274 -1.345579 18
-7.451721 -8.43991 -1.262401 13
nan nan nan 0
-7.935306 -16.52736 1.06444 37
-31.4194 -35.24815 3.837389 15
-11.39616 -23.45731 3.197242 20
nan nan nan 0
nan nan nan 0
-7.489336 -15.66062 0.09975549 22
-22.93323 -38.26955 0 14
-9.296706 -12.71936 -0.08228317 10
-10.94179 -12.41488 -0.1930587 42
-7.613657 -15.94213 0.5200877 36
-22.52251 -37.70325 1.018722 21
nan nan nan 0
-10.91136 -12.42821 0.2015805 43
nan nan nan 0
-0.1987359 -0.4099939 -0.1086803 31
-4.00215 -8.35159 -1.281218 20
-5.589397 -11.41274 -1.199739 13
nan nan nan 0
-7.721671 -12.81725 -1.043557 37
-8.527174 -11.57777 -1.0832 21
-9.087682 -10.24413 -1.115408 12
-8.093154 -16.96224 -0.7630937 108
nan nan nan 0
nan nan nan 0
-10.9058 -12.41757 -0.9593026 38
-7.946032 -16.49797 -0.3189427 43
-9.06371 -15.08695 -0.4076976 21
-9.388959 -12.79867 -0.4616231 15
-10.96223 -12.41185 -0.5711221 43
-4.914802 -5.610279 -1.345579 18
-7.48444 -8.417559 -1.26296 12
nan nan nan 0
-7.995123 -16.50405 1.06473 30
-31.30252 -34.87128 3.808204 15
-11.31204 -23.07868 3.150932 25
nan nan nan 0
nan nan nan 0
-8.204063 -17.00353 0.10851 34
-23.03565 -38.13791 0 13
-9.400349 -12.76735 -0.08280677 9
-11.01826 -12.41399 -0.1936433 44
-7.680099 -15.93798 0.520825 35
-22.73907 -37.76574 1.022552 20
nan nan nan 0
-10.9878 -12.42749 0.2021914 45
nan nan nan 0
-0.1980961 -0.4049251 -0.1074166 32
-4.031278 -8.33757 -1.281218 20
-5.626998 -11.3887 -1.199268 15
nan nan nan 0
-7.709421 -12.69641 -1.035884 37
-8.567536 -11.54794 -1.0832 22
-9.120064 -10.20863 -1.115001 12
-8.182633 -16.99691 -0.7659395 117
-9.087213 -15.13184 -0.8212658 7
-9.451177 -12.86449 -0.8344968 80
-10.97554 -12.40933 -0.9616262 33
-8.018858 -16.50161 -0.3195536 29
-9.072309 -14.98253 -0.4057247 21
-9.87919 -13.36869 -0.4834802 14
-11.04536 -12.4183 -0.5731952 41
-4.937612 -5.596776 -1.346471 18
-7.513777 -8.391381 -1.26296 11
nan nan nan 0
-8.131543 -16.63752 1.075186 43
-31.04303 -34.3404 3.761995 12
-11.46509 -23.18587 3.17104 9
nan nan nan 0
nan nan nan 0
-8.094959 -16.62858 0.1062926 42
-23.09324 -37.93341 0 14
nan nan nan 0
-11.08485 -12.40154 -0.1940526 43
nan nan nan 0
-22.93818 -37.79723 1.025569 21
nan nan nan 0
-11.05439 -12.41519 0.202619 48
nan nan nan 0
-0.1995084 -0.4042311 -0.1074166 28
-4.060357 -8.323447 -1.281218 19
-5.666718 -11.36899 -1.199268 14
-7.274921 -14.72709 -1.051041 36
-7.777121 -12.70772 -1.039023 34
-8.601823 -11.50997 -1.082446 20
-9.152308 -10.17303 -1.114594 12
-8.130661 -16.73903 -0.7555725 89
-9.116703 -15.06157 -0.8191695 16
-9.659414 -13.05215 -0.8488892 13
-11.04868 -12.40448 -0.9642401 34
nan nan nan 0
-9.111536 -14.92943 -0.4051444 21
nan nan nan 0
-11.11532 -12.40944 -0.5745772 41
-4.957118 -5.579506 -1.346471 21
-7.546352 -8.368791 -1.263519 12
nan nan nan 0
-8.205012 -16.64037 1.077219 17
-31.07212 -34.13234 3.751051 17
-11.3998 -22.85258 3.130823 16
nan nan nan 0
nan nan nan 0
-8.056031 -16.40273 0.1050255 38
-23.29088 -37.95911 0 16
-9.893304 -13.24211 -0.08634105 16
-11.16488 -12.40363 -0.1946958 45
nan nan nan 0
-23.10649 -37.77663 1.027194 23
-11.74115 -15.77779 0.3357396 4
-11.13439 -12.41746 0.2032909 48
nan nan nan 0
-0.2030184 -0.4078903 -0.1086803 29
-4.089386 -8.309223 -1.281218 18
-5.704135 -11.34469 -1.198797 14
-7.299595 -14.648 -1.0472 46
-7.776927 -12.60832 -1.033093 39
-8.638948 -11.47589 -1.08207 23
-9.187763 -10.14102 -1.114594 12
-7.975924 -16.27532 -0.7358549 106
-9.231641 -15.132 -0.8247595 4
-9.642238 -12.93429 -0.8433939 19
-11.12859 -12.4067 -0.9674348 31
-7.518089 -15.1993 -0.2952947 16
-9.150502 -14.87625 -0.4045641 22
-9.6874 -12.91955 -0.4696374 17
-11.1954 -12.41137 -0.5764774 41
-4.979847 -5.565833 -1.347364 17
-7.575518 -8.342398 -1.263519 11
nan nan nan 0
-8.547433 -17.18377 1.114394 62
-23.48819 -25.62334 2.82403 13
-11.49957 -22.85255 3.136307 14
nan nan nan 0
nan nan nan 0
-8.190885 -16.53134 0.1060334 9
-23.39695 -37.83506 0 15
-9.774086 -12.98779 -0.08490115 7
-11.24506 -12.40532 -0.1953389 46
nan nan nan 0
-23.30378 -37.80213 1.030095 26
-11.76617 -15.69671 0.3348844 6
-11.21119 -12.41562 0.2039018 49
nan nan nan 0
-0.2044409 -0.4071791 -0.1086803 24
-4.120566 -8.299335 -1.281906 21
-5.743701 -11.32471 -1.198797 13
-7.314847 -14.55109 -1.042079 38
-7.826156 -12.58957 -1.033791 43
-8.672929 -11.43773 -1.081316 22
-9.223105 -10.10889 -1.114594 10
-7.457374 -15.08281 -0.6830034 31
-9.232093 -15.01458 -0.8201012 11
-9.483417 -12.62907 -0.8255997 15
-11.20865 -12.40851 -0.9706295 39
nan nan nan 0
-7.669776 -12.37142 -0.3370207 43
nan nan nan 0
-11.27226 -12.40919 -0.5782049 47
-4.999246 -5.548416 -1.347364 19
-7.607947 -8.319569 -1.264078 11
nan nan nan 0
-8.573803 -17.08689 1.110038 40
-23.26645 -25.20436 2.786738 31
-11.59948 -22.8521 3.141791 39
nan nan nan 0
nan nan nan 0
-19.01902 -38.06717 0.2448675 28
-23.57383 -37.82529 0 17
-9.798216 -12.92571 -0.0847179 15
-11.32201 -12.4029 -0.1959236 47
nan nan nan 0
-23.51473 -37.84793 1.033577 17
-11.7998 -15.62762 0.3342858 6
-11.28811 -12.41339 0.2045126 48
nan nan nan 0
-0.205861 -0.406463 -0.1086803 24
-4.149511 -8.284902 -1.281906 21
-5.783196 -11.30459 -1.198797 14
-7.406188 -14.60559 -1.04784 42
-7.870054 -12.56217 -1.033791 39
-8.709774 -11.40342 -1.08094 23
-9.258336 -10.07663 -1.114594 12
nan nan nan 0
-9.281816 -14.97802 -0.8198683 18
-9.521418 -12.58793 -0.8250763 33
-11.28549 -12.40623 -0.9735339 35
-7.552136 -15.00353 -0.2925023 15
-9.383892 -15.01974 -0.4102508 7
-9.731959 -12.79195 -0.4674516 114
-11.35263 -12.41031 -0.5801052 45
-5.018582 -5.530931 -1.347364 21
-7.636941 -8.292961 -1.264078 11
nan nan nan 0
-8.685213 -17.15931 1.116718 13
-23.23551 -24.99526 2.772551 36
-11.47797 -22.41828 3.08756 18
-23.85362 -25.65097 6.377421 5
nan nan nan 0
-19.14053 -37.97822 0.2447235 26
-23.80145 -37.89521 0 15
nan nan nan 0
-11.40247 -12.40378 -0.1965667 45
-18.924 -37.59731 1.24072 34
-23.77137 -37.96475 1.039031 21
-11.82401 -15.54654 0.3334306 7
-11.36177 -12.40708 0.2050624 48
nan nan nan 0
-0.2072786 -0.405742 -0.1086803 21
-4.178405 -8.270367 -1.281906 23
-5.822621 -11.28433 -1.198797 14
-7.504812 -14.67295 -1.054561 34
-7.873922 -12.47136 -1.028559 45
-8.746485 -11.36899 -1.080563 23
-9.293454 -10.04426 -1.114594 12
-7.50639 -14.91879 -0.6779215 12
-9.326107 -14.93282 -0.8191695 8
-9.640961 -12.6539 -0.8316183 41
-11.36246 -12.40355 -0.9764382 38
-7.538869 -14.84778 -0.2899717 13
-8.179363 -12.99019 -0.3554733 38
-9.679259 -12.63097 -0.4627888 25
-11.42975 -12.40735 -0.5818328 45
-5.037858 -5.51338 -1.347364 18
-7.665843 -8.266253 -1.264078 11
nan nan nan 0
nan nan nan 0
-23.20339 -24.78668 2.758364 16
-11.49243 -22.2546 3.070498 35
-23.90602 -25.52806 6.367559 36
nan nan nan 0
-19.25033 -37.8666 0.2444355 17
-23.9737 -37.87527 0 16
-9.647375 -12.54391 -0.08264969 49
-11.48307 -12.40425 -0.1972098 46
-19.11393 -37.6469 1.244553 33
-23.92509 -37.91536 1.03996 17
-11.87821 -15.50517 0.3334306 6
-11.43891 -12.40409 0.2056732 46
nan nan nan 0
-0.2086936 -0.4050159 -0.1086803 21
-4.209495 -8.260145 -1.282594 18
-5.861975 -11.26394 -1.198797 14
-7.49197 -14.52248 -1.0456 32
-7.941501 -12.48168 -1.031698 48
-8.786118 -11.33839 -1.080563 22
-9.331858 -10.0154 -1.115001 11
-7.56294 -14.90141 -0.678328 49
-8.151911 -12.95139 -0.7117947 36
-9.727638 -12.67562 -0.8352818 40
-11.43278 -12.39316 -0.9787617 30
-7.570156 -14.78132 -0.2891864 41
-8.168426 -12.87292 -0.3530362 6
-9.805755 -12.70392 -0.4667231 61
-11.51038 -12.40767 -0.5837331 44
-5.057073 -5.495761 -1.347364 17
-7.698044 -8.243073 -1.264637 10
nan nan nan 0
-19.39093 -37.67014 2.462878 35
-23.1701 -24.57864 2.744177 30
-11.51504 -22.1087 3.055874 41
-24.15363 -25.61263 6.409698 42
nan nan nan 0
-19.48731 -38.00385 0.2457602 33
-8.00579 -12.54864 0 16
nan nan nan 0
-11.56382 -12.40431 -0.197853 44
-19.30444 -37.69561 1.248387 29
-24.11094 -37.91599 1.042281 14
-11.94447 -15.47945 0.3337727 6
-11.51618 -12.40071 0.2062841 47
nan nan nan 0
-0.2101061 -0.404285 -0.1086803 18
-4.238303 -8.2454 -1.282594 18
-5.903569 -11.24782 -1.199268 14
-7.565635 -14.54051 -1.0488 43
-7.947337 -12.39509 -1.026815 47
-8.822574 -11.30373 -1.080186 23
-9.370173 -9.986397 -1.115408 11
-7.62401 -14.89271 -0.6791412 101
-8.199744 -12.92707 -0.7120277 37
-9.991723 -12.926 -0.8541228 24
-11.50315 -12.38242 -0.9810852 18
-7.79138 -15.08354 -0.2956438 29
-8.097538 -12.66323 -0.3480459 57
-10.05867 -12.93789 -0.4766316 34
-11.58775 -12.40392 -0.5854606 45
-5.079573 -5.481681 -1.348256 18
-7.72677 -8.216152 -1.264637 11
nan nan nan 0
-19.46711 -37.4959 2.455908 42
-23.23174 -24.47231 2.741339 36
-11.54832 -21.98488 3.044296 42
-24.24627 -25.53173 6.410595 36
nan nan nan 0
-19.63592 -37.96669 0.2459618 29
nan nan nan 0
nan nan nan 0
-11.64128 -12.40031 -0.1984377 44
-19.48406 -37.72125 1.251484 29
-24.25662 -37.85263 1.042861 13
-18.7025 -24.06182 0.5206273 9
-11.59697 -12.40059 0.206956 45
nan nan nan 0
-0.2115161 -0.4035491 -0.1086803 17
-4.267058 -8.230556 -1.282594 18
-5.942795 -11.22714 -1.199268 13
-7.655735 -14.58914 -1.054241 34
-8.09881 -12.53486 -1.040767 49
-8.861978 -11.27286 -1.080186 19
-9.408399 -9.957248 -1.115815 11
-7.673657 -14.86157 -0.6789379 96
-9.576102 -14.98164 -0.8273216 13
-9.8343 -12.63104 -0.8368519 41
-11.57018 -12.3677 -0.9831182 13
nan nan nan 0
-8.122743 -12.60547 -0.3472335 82
-10.2332 -13.06796 -0.4827517 42
-11.66523 -12.39977 -0.5871881 44
-5.098677 -5.463917 -1.348256 18
-7.758821 -8.192736 -1.265196 11
nan nan nan 0
-19.66038 -37.54712 2.463749 31
-23.27569 -24.34785 2.736476 26
-11.6575 -22.00584 3.052827 17
-24.41686 -25.53225 6.432113 38
nan nan nan 0
-19.90473 -38.15948 0.2476609 21
-24.55655 -37.91171 0 13
nan nan nan 0
-11.71885 -12.39592 -0.1990223 47
-19.65717 -37.7328 1.254138 29
-24.52418 -37.9777 1.048664 13
-12.16012 -15.53345 0.3367658 5
-11.67447 -12.39642 0.2075668 46
nan nan nan 0
-0.2107174 -0.3985029 -0.1074166 16
-4.295762 -8.215611 -1.282594 19
-5.984292 -11.21072 -1.199739 13
nan nan nan 0
-8.112584 -12.46053 -1.03693 43
-8.901274 -11.24186 -1.080186 20
-9.446535 -9.927956 -1.116222 11
-7.716264 -14.81697 -0.6781248 106
-9.709461 -15.0741 -0.8343092 15
-10.02933 -12.78914 -0.8496742 18
-11.63725 -12.35266 -0.9851512 7
-7.715231 -14.68353 -0.2888373 30
-8.234738 -12.68186 -0.3501348 15
-9.916582 -12.57307 -0.4657031 50
-11.74625 -12.39887 -0.5890884 43
-5.117718 -5.446085 -1.348256 17
-7.787372 -8.165603 -1.265196 11
-12.76645 -13.40938 0.7420368 19
-19.79832 -37.4915 2.464621 36
-13.24579 -13.76302 1.55044 5
-11.72022 -21.93875 3.049171 20
-24.54337 -25.48583 6.441976 21
nan nan nan 0
-7.812703 -14.84382 0.09638614 6
-8.37177 -12.82421 0 7
-10.07607 -12.72943 -0.08479644 20
-11.79653 -12.39114 -0.199607 48
-19.83988 -37.7613 1.257382 25
-24.6784 -37.92538 1.049592 20
-12.37215 -15.69111 0.3411272 6
-11.75553 -12.39549 0.2082388 45
nan nan nan 0
-0.2121072 -0.397765 -0.1074166 15
-4.326721 -8.204948 -1.283282 18
-6.023388 -11.18976 -1.199739 14
-7.68931 -14.40766 -1.04496 38
-8.136882 -12.40294 -1.034488 44
-8.940461 -11.21072 -1.080186 23
-9.48803 -9.902113 -1.117036 12
-7.816689 -14.88284 -0.6823936 105
-8.312914 -12.80698 -0.7101643 18
nan nan nan 0
-11.70092 -12.33369 -0.9868938 11
nan nan nan 0
-8.158556 -12.46898 -0.3450284 34
-10.10343 -12.71837 -0.4724059 71
-11.82397 -12.39394 -0.590816 43
-5.136697 -5.428188 -1.348256 18
-7.819272 -8.141952 -1.265755 11
nan nan nan 0
-19.95721 -37.47503 2.468106 42
nan nan nan 0
-12.30022 -22.83279 3.179571 32
nan nan nan 0
nan nan nan 0
-7.883212 -14.85179 0.09661653 7
-8.353295 -12.69883 0 31
-10.09862 -12.66682 -0.08461317 4
-11.87432 -12.38596 -0.2001917 45
-20.06281 -37.86406 1.263133 26
-24.89834 -37.97277 1.053306 22
nan nan nan 0
-11.83672 -12.39414 0.2089107 49
nan nan nan 0
-0.2112583 -0.3927323 -0.1061528 12
-4.355336 -8.189795 -1.283282 18
-6.064784 -11.17305 -1.200211 14
-7.727738 -14.35875 -1.04336 53
-8.160877 -12.34534 -1.032047 39
-8.976416 -11.17556 -1.07981 22
-9.525999 -9.872519 -1.117444 11
-7.85457 -14.82897 -0.6811739 100
-8.387635 -12.82386 -0.7127264 16
-10.07174 -12.66021 -0.845749 33
-11.81633 -12.36854 -0.9929929 18
-8.109536 -15.17615 -0.2996578 13
-8.287311 -12.56981 -0.3486261 16
-10.03534 -12.54255 -0.4671602 28
-11.90179 -12.38861 -0.5925435 41
-5.155614 -5.410225 -1.348256 17
-7.8511 -8.118177 -1.266314 11
-12.99513 -13.46007 0.7498625 65
-20.12332 -37.47112 2.472462 38
-13.00381 -13.32436 1.511121 41
-12.44615 -22.91183 3.196633 41
-24.59695 -25.18719 6.409698 38
nan nan nan 0
-7.774654 -14.52438 0.09465829 11
-8.394811 -12.66542 0 5
-10.0645 -12.53403 -0.08395868 18
-11.94875 -12.3768 -0.2007179 33
-20.39738 -38.1729 1.275815 22
-8.454839 -12.79463 0.3551251 14
nan nan nan 0
-11.91112 -12.38517 0.2094605 49
nan nan nan 0
-0.2126279 -0.3919924 -0.1061528 12
-4.383897 -8.174541 -1.283282 17
-6.106136 -11.15617 -1.200682 15
-7.784949 -14.34485 -1.04432 51
-8.192862 -12.30017 -1.030652 39
-9.015371 -11.14415 -1.07981 23
-9.560404 -9.839207 -1.117444 11
-7.889819 -14.77061 -0.679751 103
-8.426852 -12.78617 -0.7122605 50
-10.17832 -12.7029 -0.8509827 33
-11.82482 -12.29125 -0.9900886 18
-8.079508 -14.99369 -0.2966036 46
-8.486003 -12.77398 -0.3551251 16
-9.953608 -12.3518 -0.4613317 19
-11.97972 -12.3829 -0.594271 18
-5.174468 -5.392195 -1.348256 17
-7.87939 -8.090723 -1.266314 12
-13.12912 -13.50415 0.754879 47
-20.28964 -37.46648 2.476819 32
-13.05024 -13.27888 1.511121 44
-12.53797 -22.89001 3.199679 46
-24.69852 -25.11521 6.413285 49
nan nan nan 0
-7.813439 -14.47515 0.0945143 7
nan nan nan 0
-9.932102 -12.28114 -0.08249261 11
-12.02326 -12.36727 -0.2012441 16
-20.42147 -37.89907 1.269032 19
-8.524378 -12.80249 0.3561696 17
nan nan nan 0
-11.98559 -12.37582 0.2100103 25
nan nan nan 0
-0.211729 -0.3869737 -0.1048891 10
-4.412405 -8.159189 -1.283282 20
-6.147445 -11.13915 -1.201154 14
-7.87567 -14.39201 -1.049761 39
-8.207956 -12.23008 -1.027164 43
-9.051067 -11.10875 -1.079433 22
-9.598177 -9.809335 -1.117851 11
-7.884505 -14.6374 -0.6748725 100
-8.391318 -12.636 -0.705506 29
-10.17556 -12.60901 -0.8470574 13
-11.83291 -12.21406 -0.9871842 13
-8.079318 -14.86874 -0.2946839 42
-8.397101 -12.54488 -0.3495545 93
-10.04391 -12.37518 -0.4635174 41
-12.06124 -12.38036 -0.5961713 18
-5.196679 -5.377635 -1.349148 17
-7.911065 -8.066714 -1.266873 11
-13.18318 -13.46538 0.7552803 41
-20.46336 -37.4743 2.482047 38
-13.02989 -13.16597 1.50342 40
nan nan nan 0
-24.67526 -24.91702 6.384594 33
nan nan nan 0
-8.12669 -14.93094 0.09768204 20
-8.630944 -12.82639 0 27
nan nan nan 0
-12.10484 -12.36451 -0.2018872 16
-20.47969 -37.69141 1.26446 36
-25.4756 -37.9798 1.060849 31
nan nan nan 0
-12.06014 -12.36612 0.21056 21
nan nan nan 0
-0.2107976 -0.381966 -0.1036254 10
-4.440859 -8.143738 -1.283282 20
-6.188709 -11.12198 -1.201625 14
-8.000545 -14.49989 -1.059682 37
-8.272945 -12.23441 -1.029954 42
-9.086625 -11.07324 -1.079057 22
-9.639357 -9.782868 -1.118665 12
-7.928401 -14.59662 -0.6742625 98
-8.438154 -12.61079 -0.7057389 104
-10.15651 -12.49593 -0.8418238 13
-11.81968 -12.11554 -0.9825373 9
-8.102361 -14.78782 -0.2936367 6
-8.463195 -12.54865 -0.350483 44
nan nan nan 0
-12.14289 -12.37741 -0.5980716 18
-5.215419 -5.359463 -1.349148 17
-7.942668 -8.042585 -1.267432 12
-13.22308 -13.41216 0.754879 45
-20.65421 -37.51196 2.489308 42
-13.07225 -13.11688 1.503014 39
-12.91227 -23.18785 3.253911 28
-24.84199 -24.91082 6.405215 32
nan nan nan 0
-8.193184 -14.92879 0.09785484 10
-8.597113 -12.68029 0 25
nan nan nan 0
-12.19006 -12.36489 -0.2025888 25
-20.69276 -37.76873 1.269474 19
-25.74516 -38.09359 1.066536 19
nan nan nan 0
-12.13127 -12.35247 0.2110487 21
nan nan nan 0
-0.2075382 -0.3727113 -0.1010979 10
-4.469259 -8.128186 -1.283282 22
-6.227495 -11.10031 -1.201625 11
-8.060807 -14.48932 -1.060962 36
-8.338064 -12.23843 -1.032745 40
-9.125223 -11.04145 -1.079057 24
-9.676959 -9.752698 -1.119072 12
-8.128005 -14.84057 -0.6868656 97
-8.353713 -12.39074 -0.6950247 75
-13.25892 -16.19625 -1.094868 7
-11.81991 -12.03149 -0.9790521 9
nan nan nan 0
-8.532228 -12.55624 -0.3515275 4
nan nan nan 0
-12.22466 -12.37404 -0.5999719 18
-5.237542 -5.344737 -1.350041 18
-7.974199 -8.018332 -1.267991 11
-13.25926 -13.35529 0.7542771 44
-20.78745 -37.444 2.489598 33
-13.13208 -13.08523 1.504636 44
-12.97127 -23.10369 3.248427 23
-24.93577 -24.8309 6.407009 16
nan nan nan 0
-20.98837 -37.94618 0.2495327 20
-8.635684 -12.64195 0 9
-10.34363 -12.51948 -0.08482261 13
-12.27543 -12.36483 -0.2032904 25
-20.82206 -37.69189 1.269327 37
-25.93424 -38.08612 1.068857 17
nan nan nan 0
-12.22003 -12.35625 0.2118428 17
nan nan nan 0
-0.2065274 -0.3677344 -0.09983423 9
-4.497604 -8.112536 -1.283282 21
-6.268652 -11.08283 -1.202096 10
-8.104016 -14.44804 -1.060002 42
-8.397668 -12.23393 -1.034837 37
-9.16052 -11.0057 -1.07868 22
-9.714467 -9.722383 -1.119479 11
-8.153208 -14.76399 -0.6846296 104
-10.08608 -14.8489 -0.8352408 38
-12.88017 -15.62211 -1.059018 10
-11.85833 -11.98661 -0.9787617 9
nan nan nan 0
nan nan nan 0
-10.21443 -12.31934 -0.4654116 32
-12.31361 -12.37733 -0.6022177 21
-5.256166 -5.326422 -1.350041 18
-8.005657 -7.993958 -1.26855 11
-13.28813 -13.29127 0.7532738 44
-21.02284 -37.55852 2.502087 15
-13.3584 -13.21803 1.525308 50
-13.0494 -23.05396 3.247818 16
-24.96981 -24.69183 6.39356 19
nan nan nan 0
-21.35199 -38.28756 0.2522685 12
-8.674091 -12.60349 0 5
-10.22095 -12.28346 -0.08346126 12
-12.35741 -12.36079 -0.2039336 31
-21.00455 -37.71068 1.272423 34
-8.611812 -12.55031 0.3524559 24
-9.921683 -11.97038 0.2652736 43
-12.30544 -12.35601 0.2125758 14
nan nan nan 0
-0.2054844 -0.3627691 -0.0985705 9
-4.525895 -8.096787 -1.283282 21
-6.304836 -11.05656 -1.201625 9
-8.13967 -14.3936 -1.058082 28
-8.460176 -12.23326 -1.037279 39
-9.195678 -10.96984 -1.078303 25
