# .PCD v0.7 - Point Cloud Data file format
VERSION 0.7
FIELDS x y z intensity
SIZE 4 4 4 4
TYPE F F F F
COUNT 1 1 1 1
WIDTH 1562
HEIGHT 1
VIEWPOINT 0 0 0 1 0 0 0
POINTS 1562
DATA ascii
-0.6727573 -10.12874 -0.5299016 7
-1.751935 -11.08309 -0.6505716 20
2.269905 -19.66601 -0.3448595 10
0.3955107 -17.37575 -0.4025912 10
-1.131041 -16.32386 -0.4759031 12
-2.32706 -14.4497 -0.5046121 32
-0.8369129 -5.341895 -0.9734926 21
-1.210338 -7.368973 -0.8358232 17
-7.24028 -44.19942 1.797302 49
3.460417 -30.56236 1.787329 32
-7.465505 -44.07933 3.633096 8
4.963708 -45.74085 5.644378 12
-1.587493 -9.390065 1.728619 39
1.102168 -10.50088 2.818539 17
3.557611 -30.9855 0.1794101 33
nan nan nan 0
-1.717543 -24.16363 -0.1266318 8
-3.315604 -20.25867 -0.2395986 9
3.524684 -30.5586 0.9064301 36
1.017318 -46.71126 1.083828 14
nan nan nan 0
-5.873072 -36.29476 0.4487304 24
nan nan nan 0
0.5080017 -4.203218 -1.095649 9
0.7452728 -6.559353 -0.9117154 26
0.8769759 -8.351319 -0.7914979 36
1.136131 -10.45654 -0.6721028 89
0.1711926 -9.525229 -0.6633841 28
-0.699051 -9.367223 -0.7065654 28
-1.480686 -8.882143 -0.7323428 31
1.701784 -14.73438 -0.6018967 26
0.2991571 -13.06734 -0.6076808 33
-0.7053157 -10.08648 -0.5278081 11
-1.785818 -11.04734 -0.648829 20
2.195115 -19.61917 -0.3438997 9
0.3355334 -17.41201 -0.4034036 9
-1.188015 -16.31981 -0.4759031 12
-2.377485 -14.44148 -0.5046121 32
-0.8555545 -5.33894 -0.9734926 19
-1.236053 -7.364703 -0.8358232 18
nan nan nan 0
3.353168 -30.56929 1.787039 38
-7.621875 -44.06773 3.634312 8
4.795194 -45.674 5.634019 13
-6.513722 -37.62642 6.95303 17
1.074322 -10.59115 2.841833 6
3.422291 -30.75424 0.177999 39
nan nan nan 0
-1.800763 -24.14253 -0.1265533 8
-3.3863 -20.24697 -0.2395986 10
3.404644 -30.45152 0.9028911 37
0.853893 -46.69454 1.083364 15
-3.130563 -43.06499 0.7379259 9
-5.977681 -36.14086 0.4470811 26
nan nan nan 0
0.4944672 -4.214573 -1.098176 8
0.7223718 -6.561914 -0.9117154 27
0.8493359 -8.369186 -0.7929122 36
1.122688 -10.67878 -0.6861849 48
0.1397704 -9.650452 -0.6721036 27
-0.7321339 -9.369697 -0.7069421 27
-1.510842 -8.872008 -0.7319357 33
1.649225 -14.73031 -0.6014902 28
0.2544203 -13.11325 -0.609777 29
-0.8735805 -11.89158 -0.6227978 12
-1.829266 -11.07058 -0.6505716 22
2.120138 -19.56707 -0.3428525 10
0.2746727 -17.40808 -0.4032875 9
-1.244975 -16.31556 -0.4759031 12
-2.442004 -14.51686 -0.5075489 31
-0.8741856 -5.335922 -0.9734926 18
-1.261753 -7.360343 -0.8358232 18
nan nan nan 0
3.248552 -30.60066 1.788201 38
-6.677043 -37.82302 3.120741 57
nan nan nan 0
-6.651021 -37.63736 6.959306 31
1.032143 -10.54197 2.827598 16
3.290238 -30.53733 0.1766743 18
nan nan nan 0
-1.87879 -24.05634 -0.1261344 8
-3.457797 -20.23995 -0.239657 9
3.290783 -30.39365 0.9008266 35
0.6901519 -46.64726 1.082203 15
-2.994304 -39.29526 0.6734461 25
-6.087958 -36.02612 0.4459205 25
nan nan nan 0
0.4852878 -4.264332 -1.110814 8
0.6989332 -6.559472 -0.9110273 28
0.8206052 -8.377054 -0.7933836 35
1.079323 -10.62306 -0.6823444 57
0.1064175 -9.680804 -0.6741963 28
-0.7640222 -9.357146 -0.7061888 28
-1.540088 -8.856862 -0.7311215 32
1.596176 -14.72107 -0.6008804 23
nan nan nan 0
-0.8951197 -11.62958 -0.6091905 14
-1.867898 -11.06413 -0.6505716 26
2.045553 -19.51469 -0.3418053 10
0.2139055 -17.40893 -0.4032875 10
-1.301521 -16.30613 -0.4757573 12
-2.484183 -14.45901 -0.5058213 26
-0.8928062 -5.332838 -0.9734926 19
-1.287438 -7.355894 -0.8358232 18
-3.995221 -22.89998 0.9320609 46
3.130485 -30.50258 1.781811 38
nan nan nan 0
4.458297 -45.52361 5.611474 11
-6.758772 -37.48321 6.935099 28
0.9967064 -10.55993 2.83148 26
nan nan nan 0
nan nan nan 0
-1.957459 -23.98486 -0.125794 9
-3.528427 -20.22776 -0.239657 9
3.195621 -30.50934 0.9039233 40
0.526808 -46.60439 1.081159 18
-3.42716 -42.99225 0.7370707 7
-6.297923 -36.49239 0.451968 25
nan nan nan 0
0.4677159 -4.241961 -1.104495 9
0.6760321 -6.561872 -0.9110273 27
0.7866484 -8.330313 -0.7886695 42
1.02706 -10.47283 -0.6724229 78
0.07220316 -9.626252 -0.6703597 33
-0.7971042 -9.359389 -0.7065654 25
-1.569247 -8.84162 -0.7303075 27
1.543211 -14.71165 -0.6002705 36
nan nan nan 0
nan nan nan 0
-1.908209 -11.06738 -0.6511524 19
1.974391 -19.49187 -0.3412818 10
0.1530912 -17.40457 -0.4031714 10
-1.358432 -16.30149 -0.4757573 11
-2.534639 -14.45025 -0.5058213 28
-0.9122497 -5.334537 -0.9743848 20
-1.313107 -7.351355 -0.8358232 17
-4.072502 -22.87114 0.9314589 44
3.026458 -30.53815 1.783263 39
-8.070307 -43.91688 3.628637 9
4.290022 -45.44009 5.599287 11
-6.877105 -37.39167 6.922546 28
nan nan nan 0
3.093528 -30.72372 0.1776247 27
nan nan nan 0
-2.036925 -23.92806 -0.1255322 9
-3.599891 -20.22025 -0.2397155 9
3.074987 -30.38108 0.8997945 36
0.3637718 -46.56096 1.080114 23
-3.576795 -42.97504 0.7369852 8
-4.090741 -23.23043 0.2877104 11
nan nan nan 0
0.4555055 -4.267616 -1.110814 8
0.6526283 -6.559263 -0.9103392 29
0.7507592 -8.258653 -0.7815983 44
0.9791645 -10.35714 -0.6647417 79
0.03876797 -9.666348 -0.6731499 24
-0.8302112 -9.361517 -0.7069421 30
-1.596536 -8.816476 -0.7286791 36
1.488814 -14.68713 -0.5990509 32
nan nan nan 0
-0.9884288 -11.76734 -0.6167792 14
-1.949433 -11.0754 -0.6520237 18
1.903412 -19.46879 -0.3407582 10
0.09233695 -17.405 -0.4031714 9
-1.415326 -16.29665 -0.4757573 12
-2.581535 -14.42164 -0.5051304 31
-0.9308652 -5.33132 -0.9743848 18
-1.33876 -7.346727 -0.8358232 17
-4.152312 -22.85678 0.9314589 24
2.938874 -30.74729 1.794881 33
-8.221719 -43.87865 3.627826 9
2.8342 -31.20117 3.841931 14
-6.996696 -37.30941 6.911787 34
nan nan nan 0
2.975605 -30.62485 0.1769911 35
nan nan nan 0
-2.116019 -23.871 -0.1252704 9
-3.670451 -20.20756 -0.2397155 9
2.96551 -30.35681 0.8987622 33
0.2011324 -46.53696 1.079534 21
-3.719004 -42.87264 0.7354459 8
-4.171806 -23.21601 0.2877104 45
nan nan nan 0
0.03506348 -0.3911694 -0.09225187 39
0.6297283 -6.561502 -0.9103392 27
0.7258546 -8.305851 -0.785841 37
0.9571053 -10.51453 -0.6746632 74
0.005004987 -9.636498 -0.6710572 26
-0.8633426 -9.363525 -0.7073187 33
-1.626394 -8.805949 -0.728272 34
1.439491 -14.71212 -0.599864 22
nan nan nan 0
nan nan nan 0
-1.988966 -11.07344 -0.6523142 21
1.831678 -19.4355 -0.3400601 10
0.031572 -17.40022 -0.4030554 9
-1.472654 -16.29659 -0.4759031 11
-2.643553 -14.47644 -0.5073761 41
-0.9494693 -5.328038 -0.9743848 20
-1.364396 -7.342009 -0.8358232 17
-4.248475 -22.93057 0.9350708 13
2.813648 -30.56351 1.783554 35
-8.369221 -43.82031 3.625394 10
3.961442 -45.34039 5.583444 10
-7.122266 -37.26061 6.907305 69
nan nan nan 0
2.828987 -30.21191 0.1745433 29
nan nan nan 0
-2.195198 -23.81866 -0.1250348 10
-3.741878 -20.19954 -0.239774 9
2.905066 -30.84962 0.9130657 30
0.03861272 -46.4524 1.077561 26
-3.868635 -42.8594 0.7354459 8
-4.237476 -23.11771 0.2866719 41
nan nan nan 0
0.03467054 -0.4009158 -0.09477933 36
0.6068205 -6.56366 -0.9103392 27
0.6955999 -8.293453 -0.7844268 38
0.9103346 -10.40348 -0.6673021 83
-0.02861877 -9.631469 -0.6707085 28
-0.8974506 -9.375343 -0.7084486 26
-1.653421 -8.780632 -0.7266437 28
1.389069 -14.727 -0.6002705 27
nan nan nan 0
nan nan nan 0
-2.017686 -11.01243 -0.6491194 20
1.760652 -19.40693 -0.3394493 10
-0.02915845 -17.39523 -0.4029393 10
-1.529998 -16.29632 -0.4760488 11
-2.666571 -14.31976 -0.5021936 32
-0.9680619 -5.324692 -0.9743848 21
-1.390017 -7.337202 -0.8358232 17
-4.344276 -22.99905 0.938482 8
2.70915 -30.59801 1.785006 38
-8.520226 -43.78104 3.624583 10
3.796922 -45.27976 5.574303 8
-7.248522 -37.21621 6.903718 50
3.620487 -44.8673 12.05061 15
2.741048 -30.41581 0.1756664 37
nan nan nan 0
-2.274514 -23.77103 -0.1248254 9
-3.813294 -20.19127 -0.2398324 9
2.766168 -30.51614 0.9028911 33
-0.1233665 -46.38727 1.076052 30
-4.012615 -42.7859 0.7344196 12
-4.314467 -23.08312 0.2864276 48
nan nan nan 0
0.03514908 -0.4202936 -0.09983423 39
0.5839053 -6.565738 -0.9103392 26
0.6670479 -8.300793 -0.7848982 40
0.8677121 -10.33202 -0.6625013 86
-0.06217602 -9.621334 -0.6700109 24
-0.9286909 -9.35727 -0.7073187 32
-1.699139 -8.853103 -0.733157 31
1.338561 -14.74171 -0.6006771 30
nan nan nan 0
-1.11819 -11.82594 -0.6204427 14
-2.061629 -11.03475 -0.650862 19
1.689849 -19.37809 -0.3388384 9
-0.08987893 -17.39502 -0.4029393 8
-1.586874 -16.29088 -0.4760488 13
-2.718407 -14.32018 -0.5025391 36
-0.9866426 -5.32128 -0.9743848 20
-1.416565 -7.337183 -0.8363823 18
-4.416021 -22.9396 0.936676 25
2.613344 -30.73659 1.792557 38
-8.670089 -43.73637 3.623368 11
3.633271 -45.22348 5.565773 11
-7.372638 -37.16173 6.898338 33
nan nan nan 0
2.649558 -30.59456 0.1766455 38
-0.2214697 -29.26409 0 17
-2.353031 -23.71817 -0.1245898 9
-3.883752 -20.17783 -0.2398324 9
2.654413 -30.46586 0.9011216 38
-0.2849517 -46.33157 1.074776 38
-4.156612 -42.7169 0.733479 9
nan nan nan 0
nan nan nan 0
0.03051257 -0.3866988 -0.09098815 49
0.5609831 -6.567737 -0.9103392 28
0.6372997 -8.293145 -0.7839553 40
0.8183498 -10.17086 -0.6519397 98
-0.09566286 -9.611084 -0.6693133 26
-0.9618589 -9.358932 -0.7076953 32
-1.728113 -8.837337 -0.7323428 31
1.286658 -14.74132 -0.6004738 31
-0.06489357 -12.8808 -0.5988299 48
-1.158488 -11.81202 -0.6199194 14
-2.087028 -10.95885 -0.6467959 20
1.61885 -19.34402 -0.3381404 10
-0.1505556 -17.3896 -0.4028233 10
-1.644233 -16.29022 -0.4761945 12
-2.783592 -14.38909 -0.5053031 33
-1.005211 -5.317803 -0.9743848 21
-1.442168 -7.332193 -0.8363823 19
nan nan nan 0
2.504412 -30.72562 1.791395 31
-8.820731 -43.69607 3.622557 10
3.468536 -45.14682 5.554804 13
-7.504262 -37.14541 6.900132 34
3.296152 -44.74217 12.0105 9
2.550215 -30.69331 0.1771639 33
nan nan nan 0
-2.431718 -23.67002 -0.1243803 10
-3.958979 -20.18868 -0.2401248 8
2.542209 -30.40522 0.8990571 30
-0.4462454 -46.28531 1.073731 39
-4.296666 -42.6126 0.7319397 10
nan nan nan 0
nan nan nan 0
0.03090626 -0.4060748 -0.09604306 57
0.538054 -6.569654 -0.9103392 26
0.6065116 -8.270498 -0.7815983 39
0.7882376 -10.2433 -0.6564204 82
-0.1292112 -9.610691 -0.6693133 29
-0.9998026 -9.405094 -0.7114617 28
-1.784339 -8.958308 -0.742927 25
1.233937 -14.73079 -0.599864 29
-0.1085585 -12.72567 -0.5916095 39
nan nan nan 0
-2.111923 -10.8829 -0.6427299 22
1.54851 -19.31467 -0.3375295 10
-0.2111955 -17.38397 -0.4027073 10
-1.701606 -16.28935 -0.4763402 11
-2.797017 -14.193 -0.4987385 40
-1.023768 -5.314262 -0.9743848 19
-1.467754 -7.327115 -0.8363823 18
-8.756852 -43.81203 1.792888 11
2.400256 -30.77399 1.793719 27
-8.970194 -43.65037 3.621341 11
3.305471 -45.08441 5.545664 15
-7.620987 -37.05636 6.888476 50
3.132503 -44.64741 11.98203 13
nan nan nan 0
-0.415697 -28.5669 0 15
-2.511154 -23.63156 -0.1242232 9
-4.025505 -20.15513 -0.2398909 9
nan nan nan 0
-0.6077431 -46.27847 1.073615 40
-4.436561 -42.51281 0.7304859 10
nan nan nan 0
nan nan nan 0
0.02948861 -0.4061802 -0.09604306 58
0.5147271 -6.566556 -0.9096511 28
0.5807869 -8.317253 -0.785841 40
0.7447481 -10.14149 -0.6496994 98
-0.162173 -9.575272 -0.6668718 30
-1.014084 -9.233047 -0.6986561 36
-1.797715 -8.864124 -0.7355995 37
1.182108 -14.73002 -0.5996608 26
-0.1527416 -12.70524 -0.5906778 41
nan nan nan 0
-2.146987 -10.86077 -0.6418586 20
1.478779 -19.29005 -0.3370059 9
-0.271798 -17.37813 -0.4025912 9
-1.758993 -16.28828 -0.476486 12
-2.841617 -14.15866 -0.4978747 35
-1.042312 -5.310657 -0.9743848 21
-1.493321 -7.321947 -0.8363823 17
-8.901756 -43.74204 1.791283 10
nan nan nan 0
-9.119445 -43.60416 3.620125 11
3.142884 -45.02142 5.536524 15
-7.724072 -36.90435 6.865165 38
2.972453 -44.59543 11.9652 15
1.670305 -21.98084 0.126739 11
nan nan nan 0
-2.591444 -23.60277 -0.1241185 9
-4.093839 -20.13115 -0.239774 8
nan nan nan 0
-0.7687842 -46.24608 1.072919 39
-4.576885 -42.42251 0.7292031 10
-7.158257 -35.52795 0.4423165 27
nan nan nan 0
0.0280706 -0.4062807 -0.09604306 72
0.4918024 -6.568312 -0.9096511 27
0.5534132 -8.344062 -0.7881981 42
0.7188113 -10.27842 -0.6583407 76
-0.1950911 -9.549713 -0.6651279 26
-1.058123 -9.333485 -0.7065654 29
-1.816518 -8.799237 -0.7307144 31
1.12761 -14.69421 -0.5980346 33
-0.1983175 -12.78453 -0.5944045 39
nan nan nan 0
-2.176986 -10.81407 -0.6395351 18
1.408872 -19.26019 -0.3363951 9
-0.3323622 -17.37208 -0.4024752 10
-1.816393 -16.28701 -0.4766316 12
-2.898039 -14.18292 -0.499084 29
-1.060843 -5.306985 -0.9743848 20
-1.51887 -7.316689 -0.8363823 17
-9.057431 -43.72538 1.791884 10
nan nan nan 0
-9.268483 -43.55744 3.618909 10
2.980778 -44.95784 5.527384 15
nan nan nan 0
2.814023 -44.56215 11.95356 14
1.592117 -21.96659 0.1266238 8
-0.6173738 -28.66828 0 16
-2.663113 -23.49918 -0.1236211 10
-4.162055 -20.10695 -0.239657 9
nan nan nan 0
nan nan nan 0
-4.711094 -42.28207 0.7270652 10
-7.247043 -35.33134 0.4401785 22
nan nan nan 0
0.02665224 -0.4063762 -0.09604306 87
0.4685151 -6.56505 -0.9089631 24
0.5242836 -8.345943 -0.7881981 43
0.6902611 -10.39039 -0.6653818 59
-0.2280695 -9.534016 -0.6640816 22
-1.086057 -9.290118 -0.7035524 32
-1.854416 -8.826977 -0.7335641 31
1.083279 -14.79272 -0.6018967 16
-0.2461434 -12.95355 -0.6023237 19
nan nan nan 0
-2.22778 -10.86997 -0.6433107 17
1.339192 -19.23009 -0.3357843 10
-0.3928875 -17.36581 -0.4023591 10
-1.872663 -16.2756 -0.476486 13
-2.955683 -14.21185 -0.500466 25
-1.079361 -5.30325 -0.9743848 22
-1.544401 -7.311343 -0.8363823 17
-9.20382 -43.66417 1.790681 11
2.106839 -31.22573 1.818696 18
-9.417306 -43.51021 3.617693 10
2.819153 -44.89368 5.518244 14
-8.71927 -40.25312 7.499949 10
2.653557 -44.48975 11.93156 15
1.534075 -22.24137 0.1281789 10
-0.7195622 -28.75093 0 17
-2.739897 -23.44505 -0.1233855 9
-4.227057 -20.06784 -0.2393647 9
nan nan nan 0
-1.089266 -46.13964 1.070598 14
-4.863798 -42.31007 0.7278349 10
-7.310007 -35.01709 0.4365745 15
nan nan nan 0
0.02523356 -0.4064668 -0.09604306 95
0.445596 -6.566645 -0.9089631 27
0.4951476 -8.347723 -0.7881981 44
0.6555672 -10.41764 -0.6669821 79
-0.259447 -9.463357 -0.6591986 25
-1.117881 -9.281321 -0.7031758 32
-1.890439 -8.844813 -0.7355995 31
1.02954 -14.76651 -0.6006771 29
-0.2890153 -12.84775 -0.5974324 18
nan nan nan 0
-2.273882 -10.90121 -0.6456342 21
1.270401 -19.2097 -0.335348 10
-0.4535031 -17.36434 -0.4023591 9
-1.929464 -16.26897 -0.476486 12
-2.976255 -14.06457 -0.4956289 26
-1.097867 -5.29945 -0.9743848 20
-1.569913 -7.305908 -0.8363823 18
-9.349893 -43.60246 1.789477 12
1.99655 -31.21297 1.817534 12
-9.56484 -43.4576 3.616071 21
2.658013 -44.82893 5.509103 14
-8.858666 -40.21762 7.499052 8
2.494445 -44.43122 11.91344 14
1.458724 -22.28151 0.1283805 9
-0.820344 -28.76323 0 15
-2.813944 -23.37081 -0.1230452 8
-4.303375 -20.08229 -0.2397155 8
nan nan nan 0
-1.249235 -46.09558 1.069669 34
-5.006161 -42.24815 0.7270652 9
-7.412444 -34.89844 0.4354139 15
nan nan nan 0
0.02416635 -0.4113772 -0.09730678 113
0.4223492 -6.563219 -0.908275 26
0.4634815 -8.304672 -0.7839553 47
0.6144224 -10.34017 -0.6618612 96
-0.2927851 -9.472365 -0.6598962 28
-1.147814 -9.25757 -0.7016692 34
-1.912809 -8.799208 -0.7323428 40
0.978985 -14.78497 -0.6012869 22
-0.3310225 -12.73682 -0.5923083 19
nan nan nan 0
-2.298418 -10.82974 -0.6418586 20
1.20177 -19.18907 -0.3349116 10
-0.5148503 -17.38763 -0.4029393 9
-1.982603 -16.23237 -0.4756117 13
-2.996889 -13.92221 -0.4909646 31
-1.115339 -5.290773 -0.9734926 21
-1.595406 -7.300383 -0.8363823 18
-9.497775 -43.55003 1.788674 14
2.851041 -47.10865 2.743728 13
-9.709944 -43.39478 3.613639 89
2.497636 -44.76857 5.500573 17
-8.993621 -40.16246 7.494568 11
2.335773 -44.37214 11.89532 15
nan nan nan 0
-0.9197833 -28.73021 0 11
-2.888737 -23.30626 -0.1227572 9
-4.376647 -20.0818 -0.2398909 8
1.949957 -31.17006 0.9202912 27
-1.409063 -46.05597 1.068857 39
-5.14997 -42.20064 0.7265521 10
nan nan nan 0
nan nan nan 0
0.02273023 -0.4114591 -0.09730678 112
0.3994367 -6.564653 -0.908275 28
0.4281751 -8.18694 -0.7726415 50
0.5783247 -10.34225 -0.6618612 85
-0.3278951 -9.531104 -0.6640816 29
-1.172541 -9.19416 -0.6971496 35
-1.926255 -8.714633 -0.7258295 38
nan nan nan 0
nan nan nan 0
-1.420532 -11.56709 -0.6086671 14
-2.342541 -10.85092 -0.6436012 18
1.133594 -19.17319 -0.3345626 10
-0.5763656 -17.41071 -0.4035197 9
-2.020538 -16.07658 -0.4712402 12
-3.061525 -13.98488 -0.4935559 37
-1.133801 -5.286847 -0.9734926 22
-1.62196 -7.299618 -0.8369414 17
-9.638914 -43.46784 1.786667 98
nan nan nan 0
-9.866889 -43.38491 3.615666 8
2.337713 -44.70763 5.492042 16
-9.129389 -40.11164 7.490982 10
2.177545 -44.31249 11.87721 14
2.04805 -34.97909 0.2015844 23
-1.019179 -28.70184 0 10
-2.958052 -23.20181 -0.1222598 9
-4.448884 -20.07617 -0.2400078 9
1.843505 -31.21659 0.9214709 33
-1.567948 -45.99582 1.06758 44
-5.296 -42.17249 0.7263811 10
nan nan nan 0
nan nan nan 0
0.02161191 -0.4163631 -0.0985705 116
0.3765194 -6.566007 -0.908275 25
0.3998405 -8.193357 -0.773113 46
0.5443299 -10.38407 -0.6644217 90
-0.3643587 -9.614634 -0.6700109 25
-1.207223 -9.209785 -0.6986561 36
-1.980765 -8.814809 -0.7347853 32
nan nan nan 0
nan nan nan 0
-1.465913 -11.60169 -0.6107606 14
-2.388985 -10.88168 -0.6459246 18
1.065823 -19.16205 -0.3343008 10
-0.3728057 -10.16536 -0.2352414 20
-2.101006 -16.25778 -0.4767773 11
-3.114673 -13.99362 -0.4942469 22
-1.152248 -5.282857 -0.9734926 20
-1.647431 -7.293912 -0.8369414 18
-9.799379 -43.47292 1.788273 58
2.513539 -46.9679 2.734434 9
-10.02052 -43.35992 3.616477 9
2.178246 -44.64612 5.483511 17
-9.264913 -40.06036 7.487396 12
2.019982 -44.2571 11.86038 14
1.924284 -34.95607 0.2014116 18
-0.3948381 -10.09221 0 27
-3.037724 -23.18142 -0.1222074 9
-4.523336 -20.08002 -0.2402417 9
nan nan nan 0
-0.3833535 -10.15996 0.2351253 21
-5.435492 -42.09425 0.7253549 11
-8.358795 -37.41953 0.4679722 8
nan nan nan 0
0.02045963 -0.4212642 -0.09983423 114
0.3535975 -6.567281 -0.908275 31
0.3712379 -8.194703 -0.773113 47
0.5043841 -10.31115 -0.6596209 79
-0.3973018 -9.598354 -0.6689646 24
-1.250025 -9.284572 -0.7046822 33
-2.00151 -8.764122 -0.7311215 34
nan nan nan 0
-0.3704799 -10.14717 -0.4716572 15
-1.503826 -11.5767 -0.6097139 14
-2.413878 -10.81482 -0.6424394 15
0.9978819 -19.14569 -0.3339518 10
-0.4074882 -10.14402 -0.2347772 27
-2.149184 -16.18594 -0.4748831 13
-3.192219 -14.10937 -0.4987385 34
-1.171751 -5.283605 -0.9743848 22
-1.672881 -7.288117 -0.8369414 18
-9.948837 -43.42871 1.787871 29
2.348325 -46.95146 2.732981 8
-10.17295 -43.32952 3.616882 9
2.019237 -44.58405 5.47498 17
-9.399066 -40.00383 7.482913 11
1.862833 -44.20116 11.84356 15
1.795798 -34.83775 0.2006917 31
-0.430912 -10.11075 0 31
-3.115286 -23.1459 -0.1220765 8
-4.595635 -20.07386 -0.2403587 9
2.454799 -47.10514 1.390538 35
-0.4169714 -10.11362 0.2340809 30
-5.575161 -42.0205 0.7244142 11
-8.030792 -35.37171 0.442683 7
nan nan nan 0
0.01898902 -0.4213331 -0.09983423 102
0.3304181 -6.56353 -0.9075869 29
0.3386209 -8.101458 -0.7641561 96
0.4697622 -10.34276 -0.6615412 65
-0.4290215 -9.557045 -0.6661743 27
-1.291313 -9.344357 -0.7095785 31
-2.03322 -8.761936 -0.7315286 34
0.6376194 -12.23287 -0.4968036 23
-0.4043083 -10.10589 -0.4697939 19
-1.549517 -11.61097 -0.6118073 14
nan nan nan 0
0.9300681 -19.12908 -0.3336027 9
-0.4426778 -10.13754 -0.2346611 26
-2.192156 -16.0793 -0.4719688 14
-3.253787 -14.1517 -0.5006388 37
-1.190188 -5.279482 -0.9743848 19
-1.698311 -7.282234 -0.8369414 17
-10.10264 -43.40345 1.788273 34
2.17977 -46.85965 2.727173 10
-10.31951 -43.27435 3.615261 9
1.860896 -44.52637 5.467059 18
-9.534079 -39.95164 7.479327 12
1.705911 -44.13983 11.82544 15
1.672254 -34.80385 0.2004613 34
-0.4664319 -10.11418 0 26
-3.194008 -23.12003 -0.121998 8
-4.672482 -20.08691 -0.2407094 9
2.289384 -47.09345 1.389948 31
-0.4524944 -10.11709 0.2341969 33
-5.715055 -41.95125 0.723559 10
-8.406139 -36.43467 0.4563661 15
nan nan nan 0
0.01751818 -0.4213968 -0.09983423 91
0.307505 -6.564643 -0.9075869 29
0.3192491 -8.331391 -0.785841 45
nan nan nan 0
-0.4566149 -9.43592 -0.6578035 28
-1.311309 -9.250937 -0.7027991 34
-2.07411 -8.798432 -0.7351924 34
0.7190882 -14.76488 -0.599864 30
-0.4397981 -10.10941 -0.4700268 15
-1.594109 -11.63517 -0.6133773 13
-2.500557 -10.84634 -0.6453438 25
0.8623822 -19.11224 -0.3332537 10
-0.477358 -10.12096 -0.234313 22
nan nan nan 0
-3.317967 -14.20351 -0.5028846 33
-1.208609 -5.275296 -0.9743848 19
-1.72487 -7.281096 -0.8375005 18
-10.25293 -43.36306 1.788072 36
2.015755 -46.85699 2.726592 9
-10.46698 -43.22354 3.614045 11
1.703363 -44.47804 5.460356 16
-9.66884 -39.899 7.47574 11
1.548249 -44.04416 11.79827 15
1.544726 -34.67461 0.1996838 37
-0.5024747 -10.12747 0 9
-3.266971 -23.05428 -0.12171 9
-4.74257 -20.07048 -0.2407094 9
2.120014 -46.99132 1.386704 33
-0.4887661 -10.13542 0.2346611 18
-5.854534 -41.88153 0.7227038 10
nan nan nan 0
nan nan nan 0
0.01604712 -0.4214554 -0.09983423 65
0.2845883 -6.565676 -0.9075869 27
0.2887546 -8.29266 -0.7820697 45
0.402205 -10.46545 -0.6692224 60
-0.4890346 -9.424308 -0.657106 23
-1.343593 -9.246305 -0.7027991 34
-2.124587 -8.873517 -0.7421128 27
nan nan nan 0
-0.4741497 -10.08785 -0.4690951 16
-1.638192 -11.65426 -0.6146858 13
-2.547528 -10.87642 -0.6476672 17
0.7948254 -19.09515 -0.3329046 10
-0.515204 -10.16915 -0.2354735 12
nan nan nan 0
-3.350194 -14.11892 -0.5002933 33
-1.227016 -5.271045 -0.9743848 21
-1.750275 -7.27503 -0.8375005 17
-10.40307 -43.32215 1.787871 46
1.849611 -46.79891 2.722816 11
-10.61422 -43.17223 3.612828 11
1.546017 -44.4242 5.453043 18
-9.804527 -39.85067 7.473051 12
1.394344 -44.04446 11.79697 15
1.423886 -34.68479 0.1997126 36
nan nan nan 0
-3.338076 -22.97842 -0.1213696 10
-4.8126 -20.0538 -0.2407094 9
1.954095 -46.95349 1.385377 36
-2.361186 -45.78173 1.063403 52
-5.993597 -41.81136 0.7218487 11
-8.465641 -35.55803 0.4461038 11
nan nan nan 0
0.01457587 -0.4215088 -0.09983423 66
0.2616681 -6.56663 -0.9075869 25
0.2585343 -8.253816 -0.7782985 52
0.3646108 -10.43687 -0.6673021 71
-0.5205538 -9.39764 -0.655362 29
-1.37439 -9.231695 -0.7020458 32
-2.139024 -8.798264 -0.7364137 36
0.6061196 -14.53494 -0.5903101 41
-0.5078543 -10.05621 -0.4676976 14
nan nan nan 0
-2.551908 -10.72665 -0.6392447 19
0.7273986 -19.07783 -0.3325556 9
-0.9414005 -17.4048 -0.4037518 8
nan nan nan 0
-3.346696 -13.88855 -0.4925194 30
-1.245408 -5.266729 -0.9743848 19
-1.776842 -7.273702 -0.8380595 18
-10.55186 -43.27586 1.78747 52
1.684438 -46.7552 2.719912 10
-10.76365 -43.13007 3.612423 10
1.389067 -44.3698 5.445731 21
-9.938803 -39.79712 7.469464 10
0.2587586 -9.333081 2.491133 38
1.300355 -34.6246 0.1993382 36
nan nan nan 0
-3.407956 -22.89739 -0.1210031 9
-4.882572 -20.03688 -0.2407094 10
1.788657 -46.92007 1.384197 36
-2.518508 -45.72829 1.062358 61
-6.132967 -41.74567 0.7210791 11
-8.662599 -35.82955 0.4498911 18
nan nan nan 0
0.01288752 -0.4167244 -0.0985705 58
0.2387446 -6.567503 -0.9075869 27
0.2292968 -8.239739 -0.7768842 44
0.321166 -10.21864 -0.6532199 102
-0.5533546 -9.395767 -0.655362 26
-1.404348 -9.212054 -0.7009159 32
-2.167329 -8.781068 -0.7355995 36
0.5648195 -14.78158 -0.6002705 28
-0.5440274 -10.07432 -0.4686292 12
nan nan nan 0
-2.599906 -10.76134 -0.6418586 16
0.6601021 -19.06027 -0.3322065 10
-0.5879062 -10.19525 -0.2361698 13
-2.305474 -15.31076 -0.4502574 18
-3.40586 -13.92047 -0.4940741 32
-1.263785 -5.262351 -0.9743848 19
-1.802221 -7.267455 -0.8380595 18
-10.70165 -43.23391 1.787269 58
1.519593 -46.7109 2.717008 11
-10.91414 -43.09224 3.612423 11
1.232101 -44.29997 5.436591 17
-10.07403 -39.74788 7.466774 11
0.2272556 -9.377381 2.50278 40
1.1788 -34.60894 0.199223 34
nan nan nan 0
-3.478064 -22.8211 -0.1206628 9
-4.951282 -20.01486 -0.240651 10
1.623129 -46.87609 1.382722 31
-2.674609 -45.65934 1.060965 62
-6.272696 -41.68446 0.7203948 11
-8.650468 -35.24073 0.4428663 17
nan nan nan 0
0.0114328 -0.4167669 -0.0985705 54
0.2158183 -6.568297 -0.9075869 27
0.1991669 -8.185752 -0.7716987 49
0.2843589 -10.1798 -0.6506596 99
-0.5926525 -9.498321 -0.6626865 31
-1.438805 -9.221875 -0.7020458 30
-2.199181 -8.778283 -0.7360066 33
0.4918412 -14.17434 -0.575471 74
-0.57919 -10.07236 -0.4686292 13
-1.718282 -11.36 -0.6000317 15
-2.668433 -10.87823 -0.6494098 18
0.5930942 -19.04746 -0.3319448 10
-1.060451 -17.35789 -0.4028233 9
-2.35738 -15.29274 -0.4499659 40
-3.431511 -13.81636 -0.4907919 33
-1.282146 -5.257907 -0.9743848 21
-1.828794 -7.265937 -0.8386186 17
-10.85007 -43.18661 1.786868 60
1.354787 -46.65605 2.713522 11
-11.06325 -43.04906 3.612018 11
1.075882 -44.2395 5.428669 19
-10.20904 -39.69818 7.464085 12
0.195755 -9.436059 2.518309 22
1.055529 -34.53288 0.1987622 32
nan nan nan 0
-3.54768 -22.74459 -0.1203225 9
-5.025992 -20.01685 -0.2408849 9
1.458086 -46.83651 1.381395 39
nan nan nan 0
-6.412073 -41.62277 0.7197107 10
-8.76617 -35.18121 0.4424998 17
nan nan nan 0
0.009794768 -0.41197 -0.09730678 56
0.1928894 -6.56901 -0.9075869 27
0.1717674 -8.24114 -0.7768842 46
0.2435931 -9.971226 -0.6372175 107
-0.632346 -9.595735 -0.6696621 24
-1.456037 -9.123253 -0.6948898 33
-2.21627 -8.717433 -0.7315286 36
nan nan nan 0
-0.7628994 -12.51311 -0.5827586 12
-1.785456 -11.53157 -0.6094522 14
-2.691888 -10.81073 -0.6459246 19
0.5260443 -19.02943 -0.3315957 10
-1.121035 -17.35408 -0.4028233 8
-2.413085 -15.29923 -0.4504031 32
-3.513969 -13.93995 -0.4956289 42
-1.300492 -5.253399 -0.9743848 20
-1.854146 -7.25951 -0.8386186 17
-10.99828 -43.13879 1.786467 80
1.19051 -46.60561 2.710328 11
-11.21471 -43.015 3.612423 11
0.9199953 -44.17353 5.420139 19
-10.34382 -39.64802 7.461395 13
0.162042 -9.393226 2.506662 39
0.9314409 -34.40641 0.1980135 35
nan nan nan 0
-3.617594 -22.67282 -0.1200083 9
-5.100776 -20.01856 -0.2411187 7
1.293201 -46.79135 1.379921 37
nan nan nan 0
-6.551096 -41.56064 0.7190266 10
nan nan nan 0
nan nan nan 0
0.008356664 -0.4120017 -0.09730678 48
0.1699581 -6.569643 -0.9075869 26
0.1441627 -8.306389 -0.7830125 50
0.2166045 -10.33618 -0.6605811 77
-0.6661819 -9.598445 -0.6700109 27
-1.510386 -9.25589 -0.7054355 33
-2.247934 -8.714469 -0.7319357 36
0.399612 -14.41714 -0.5852282 37
-0.8030474 -12.45554 -0.5801966 13
nan nan nan 0
-2.728383 -10.79643 -0.6456342 25
0.4592495 -19.01615 -0.3313339 10
-1.179909 -17.32513 -0.402243 8
-2.450545 -15.19203 -0.4474888 34
-3.562607 -13.9276 -0.4956289 33
-1.318822 -5.248827 -0.9743848 19
-1.880725 -7.257802 -0.8391777 18
-11.14754 -43.09529 1.786266 73
1.026602 -46.55458 2.707133 11
-11.36097 -42.96114 3.611207 11
0.7648425 -44.12189 5.413436 21
-10.47838 -39.59741 7.458705 11
0.1295982 -9.417881 2.513133 41
0.8068248 -34.2195 0.1969192 37
nan nan nan 0
-3.681412 -22.5663 -0.1195109 10
-5.175633 -20.02 -0.2413526 9
1.128648 -46.74561 1.378446 38
-3.14571 -45.52909 1.058644 55
-6.691354 -41.5079 0.7185135 11
-8.990429 -35.03683 0.4414613 16
nan nan nan 0
0.006769036 -0.407193 -0.09604306 47
0.1470247 -6.570197 -0.9075869 28
0.1143018 -8.247116 -0.7773557 41
0.1835728 -10.5065 -0.6714627 59
-0.6971499 -9.561238 -0.6675694 24
-1.539401 -9.23089 -0.7039291 29
-2.288455 -8.745131 -0.7351924 35
0.3540787 -14.61322 -0.5931559 31
-0.8529419 -12.54734 -0.584622 12
nan nan nan 0
-2.749904 -10.72399 -0.6418586 23
0.3924492 -18.99765 -0.3309849 10
-1.244656 -17.38074 -0.4036357 8
-2.492168 -15.11435 -0.4454488 40
-3.608688 -13.90541 -0.4952834 31
-1.337135 -5.244192 -0.9743848 18
-1.906048 -7.251193 -0.8391777 18
-11.29537 -43.04646 1.785865 79
0.8631577 -46.50798 2.704229 11
-11.50828 -42.91159 3.610397 12
0.6099229 -44.05978 5.405515 16
-10.61781 -39.56534 7.459602 11
0.09541632 -9.297542 2.480781 41
0.6894972 -34.32709 0.1975239 33
nan nan nan 0
-3.76016 -22.55331 -0.1195109 10
-5.248024 -20.01148 -0.2414695 9
0.9644307 -46.69931 1.376971 38
-3.304979 -45.52282 1.05876 58
-6.825634 -41.42017 0.7174018 12
nan nan nan 0
nan nan nan 0
0.005347626 -0.4072142 -0.09604306 47
0.1239919 -6.565718 -0.9068988 25
0.08638903 -8.327104 -0.7848982 43
0.1460298 -10.44721 -0.6676221 68
-0.7324166 -9.583613 -0.6693133 27
-1.569937 -9.215631 -0.7031758 30
-2.325375 -8.761168 -0.7372278 32
0.2985305 -14.3996 -0.5844151 45
-0.896735 -12.54429 -0.584622 15
nan nan nan 0
-2.767176 -10.63704 -0.6372116 18
0.3257836 -18.97891 -0.3306358 9
-1.301953 -17.33142 -0.4025912 8
-2.535772 -15.05135 -0.4438459 41
-3.667397 -13.93139 -0.4966654 25
-1.35667 -5.244254 -0.9752771 20
-1.931348 -7.244495 -0.8391777 18
-11.44685 -43.01159 1.786065 82
0.7001272 -46.46579 2.701615 10
-11.65931 -42.87596 3.610802 11
0.4555503 -44.00705 5.398812 21
-10.74681 -39.49482 7.453326 11
0.06285505 -9.283329 2.476898 45
0.5681612 -34.23929 0.1970056 39
nan nan nan 0
-3.834664 -22.5154 -0.11938 10
-5.320417 -20.0027 -0.2415865 9
0.8005504 -46.65242 1.375497 39
-3.000551 -39.42025 0.9169424 55
-6.964364 -41.36158 0.7168032 11
-9.423827 -35.68861 0.4505019 19
nan nan nan 0
0.004041813 -0.4120666 -0.09730678 72
0.1010725 -6.566111 -0.9068988 25
0.05578985 -8.123273 -0.7655704 58
0.1070925 -10.22313 -0.6532199 66
-0.7650721 -9.571056 -0.6686158 29
-1.593541 -9.160977 -0.6994094 33
-2.357241 -8.757811 -0.7376349 37
0.2467677 -14.31563 -0.5809594 39
nan nan nan 0
nan nan nan 0
-2.813221 -10.6611 -0.6392447 15
0.2591839 -18.95494 -0.3301995 10
-1.361269 -17.31182 -0.402243 8
-2.601865 -15.12121 -0.4461773 35
-3.697932 -13.85091 -0.4942469 32
-1.374967 -5.239487 -0.9752771 19
-1.956624 -7.237709 -0.8391777 17
-11.59692 -42.97137 1.786065 93
0.5373434 -46.41804 2.69871 11
-11.13576 -40.3945 3.404887 11
0.3014838 -43.94386 5.39089 21
-10.87021 -39.4049 7.443463 37
0.03030145 -9.244855 2.466545 42
0.4479108 -34.18608 0.1966888 37
nan nan nan 0
-3.912377 -22.49696 -0.1193538 9
-5.420183 -20.09502 -0.2429312 4
0.6370091 -46.60495 1.374022 44
-3.615567 -45.40894 1.056671 66
-7.111242 -41.3518 0.7170597 11
-9.422829 -35.18706 0.4445767 16
nan nan nan 0
0.002603408 -0.4120782 -0.09730678 95
0.07808877 -6.561472 -0.9062107 29
0.02799349 -8.262794 -0.7787699 41
0.07136902 -10.21845 -0.6528999 61
nan nan nan 0
-1.616783 -9.10627 -0.6956431 33
-2.393057 -8.768755 -0.7392632 31
nan nan nan 0
-0.9874092 -12.57756 -0.5864853 15
-1.966871 -11.38549 -0.6034335 15
-2.865931 -10.70907 -0.6427299 18
0.1928078 -18.93573 -0.3298505 9
-1.421691 -17.30696 -0.402243 8
-2.676265 -15.2351 -0.4498202 40
-3.735798 -13.79934 -0.4928649 35
-1.393248 -5.234655 -0.9752771 20
-1.983193 -7.235626 -0.8397368 18
-11.74684 -42.93063 1.786065 92
0.3749424 -46.37471 2.696096 19
-11.25925 -40.29299 3.399618 43
0.1478988 -43.89006 5.384188 20
-11.01432 -39.3904 7.447947 12
-0.001959187 -9.273882 2.47431 40
0.3282344 -34.15244 0.1964872 37
nan nan nan 0
-3.976894 -22.4044 -0.1189349 10
-5.474454 -20.01811 -0.2422296 7
0.4737574 -46.55192 1.3724 44
-3.773224 -45.38609 1.056439 69
-6.671022 -37.99815 0.6592503 15
-9.523314 -35.07193 0.4435382 16
nan nan nan 0
0.001246867 -0.4169218 -0.0985705 161
0.05518448 -6.561705 -0.9062107 28
-0.0008622496 -8.237952 -0.7764128 40
0.03517877 -10.0889 -0.6445786 78
-0.831009 -9.555542 -0.6679182 32
-1.636993 -9.036797 -0.6907468 34
-2.420988 -8.750745 -0.7384491 33
nan nan nan 0
-1.038235 -12.65866 -0.5904449 17
-2.010074 -11.39822 -0.6044803 15
-2.869246 -10.57377 -0.6351786 20
0.1265341 -18.91129 -0.3294142 10
-1.482947 -17.31186 -0.4024752 9
-2.684422 -14.97477 -0.4423888 46
-3.781295 -13.77658 -0.4925194 27
-1.412799 -5.234509 -0.9761694 18
-2.008438 -7.22866 -0.8397368 18
-11.20995 -40.41495 1.682927 29
0.2128505 -46.33081 2.693482 10
-11.42021 -40.32536 3.405698 16
-0.005307031 -43.80098 5.373219 18
-10.29031 -36.31351 6.872338 16
-0.03443728 -9.307627 2.483369 38
0.2082327 -34.02837 0.1957673 42
-2.46293 -27.96167 0 17
-4.048836 -22.35594 -0.1187517 8
-5.538949 -19.97961 -0.2419957 9
0.3109179 -46.50331 1.370926 41
-3.928609 -45.33778 1.055627 62
-4.172153 -23.29074 0.4040677 14
nan nan nan 0
nan nan nan 0
-0.0002734805 -0.4120863 -0.09730678 114
0.03227952 -6.561857 -0.9062107 27
-0.02966237 -8.252831 -0.7778271 41
-6.964197e-05 -10.02909 -0.6407381 95
nan nan nan 0
-1.669434 -9.035931 -0.6911235 37
-2.443428 -8.713456 -0.7360066 30
0.09687965 -14.32243 -0.5811628 109
-1.076467 -12.58529 -0.5871841 17
-2.047193 -11.37639 -0.6036952 15
-2.902159 -10.54925 -0.6343073 28
0.06045078 -18.89162 -0.3290651 10
-1.546915 -17.34641 -0.4034036 8
-2.715087 -14.84732 -0.4388916 58
-3.79717 -13.64777 -0.4883733 29
-1.431062 -5.229546 -0.9761694 22
-2.033659 -7.221605 -0.8397368 17
-11.35231 -40.38039 1.683127 45
0.05107572 -46.29134 2.691159 9
-10.46064 -36.45324 3.081423 51
-0.1581316 -43.78084 5.370782 22
-10.42515 -36.30574 6.877717 36
-0.06715096 -9.341256 2.492427 42
0.08939441 -34.00889 0.1956521 39
-2.546391 -27.79854 0 17
-4.117762 -22.2925 -0.1184899 9
-4.04643 -14.40608 -0.1745246 11
0.1484234 -46.45413 1.369451 49
nan nan nan 0
-4.230952 -23.15309 0.4019297 27
-9.79885 -35.11535 0.4449432 19
nan nan nan 0
-0.001711928 -0.4120829 -0.09730678 114
0.00937417 -6.56193 -0.9062107 27
-0.0585021 -8.257656 -0.7782985 40
-0.03492964 -9.979129 -0.6375375 80
-0.9130741 -9.713387 -0.679428 26
-1.700966 -9.030047 -0.6911235 35
-2.468367 -8.685702 -0.7343782 36
0.0467929 -14.2977 -0.5801463 114
nan nan nan 0
-2.090501 -11.38882 -0.6047419 14
-2.952397 -10.58713 -0.6372116 30
-0.005493658 -18.87672 -0.3288033 10
-1.604691 -17.31104 -0.4027073 8
-2.797151 -14.99988 -0.4437002 75
-3.897752 -13.82198 -0.4951107 32
-1.449308 -5.224518 -0.9761694 21
-2.058855 -7.214461 -0.8397368 18
-10.4003 -36.50645 1.523002 64
-0.1103982 -46.24132 2.688255 10
-12.4796 -42.91956 3.632285 15
-0.3103653 -43.69566 5.360423 24
-10.54907 -36.25968 6.875924 52
-0.09975763 -9.340965 2.492427 38
-0.0293682 -34.079 0.1960552 41
nan nan nan 0
-4.184443 -22.21903 -0.1181757 10
-4.091209 -14.37263 -0.1742907 8
-0.01372401 -46.40439 1.367977 51
nan nan nan 0
-4.290673 -23.02515 0.3999628 20
nan nan nan 0
nan nan nan 0
-0.003181596 -0.4072368 -0.09604306 73
-0.0135313 -6.561922 -0.9062107 27
-0.08732634 -8.257402 -0.7782985 41
-0.06953754 -9.944019 -0.6352972 65
-0.9445582 -9.685318 -0.6776841 32
-1.738122 -9.053432 -0.6933833 34
-2.488997 -8.643517 -0.7315286 31
-0.003129621 -14.21784 -0.5768939 106
-1.140861 -12.32382 -0.5753053 17
nan nan nan 0
-3.002934 -10.62479 -0.640116 25
-0.07128097 -18.84659 -0.3282797 9
-1.66463 -17.30035 -0.4025912 9
nan nan nan 0
-3.976222 -13.91398 -0.4989112 36
-1.467536 -5.219427 -0.9761694 20
-2.084025 -7.207231 -0.8397368 18
-12.42274 -43.03123 1.797302 124
-0.2716087 -46.20571 2.686222 10
-12.63497 -42.89486 3.633907 12
-0.1175062 -10.71381 1.310705 36
-10.67697 -36.22735 6.87682 56
-0.1340067 -9.461289 2.52478 46
-0.1475091 -33.88369 0.1949321 38
nan nan nan 0
-4.258205 -22.18465 -0.118071 9
-5.760353 -19.96375 -0.2425219 8
-0.175504 -46.34908 1.366354 50
nan nan nan 0
nan nan nan 0
nan nan nan 0
nan nan nan 0
nan nan nan 0
-0.0364366 -6.561835 -0.9062107 27
-0.1162164 -8.262024 -0.7787699 41
-0.1040993 -9.928747 -0.6343371 57
nan nan nan 0
-1.783128 -9.115809 -0.6986561 38
-2.520552 -8.639561 -0.7319357 29
-0.0526763 -14.19277 -0.5758775 113
nan nan nan 0
-2.16153 -11.32981 -0.6023868 14
-3.034497 -10.59505 -0.6389542 23
-0.1367882 -18.80623 -0.3275817 10
-1.724514 -17.28946 -0.4024752 8
-2.894193 -14.94074 -0.4425345 95
-3.980235 -13.74644 -0.4933831 26
-1.485746 -5.214273 -0.9761694 20
-2.10917 -7.199913 -0.8397368 17
-12.57287 -42.9876 1.797302 125
-0.4322486 -46.1346 2.682156 11
-12.78748 -42.86005 3.634717 11
-0.15525 -10.73814 1.313751 39
-10.83152 -36.28412 6.894753 38
-0.1695101 -9.605633 2.563602 52
-0.2632887 -33.55799 0.1930603 29
nan nan nan 0
-4.328898 -22.1353 -0.1178877 9
-5.838429 -19.97231 -0.2428727 9
-0.336898 -46.29321 1.364732 53
-4.546717 -45.13428 1.052261 63
nan nan nan 0
nan nan nan 0
nan nan nan 0
nan nan nan 0
-0.05934145 -6.561668 -0.9062107 26
-0.1451398 -8.266544 -0.7792413 47
-0.1399635 -10.01813 -0.6400979 60
-0.9966137 -9.529662 -0.6672206 34
-1.838343 -9.226876 -0.7076953 31
-2.557772 -8.6546 -0.7339711 33
-0.102116 -14.17751 -0.5752677 116
nan nan nan 0
nan nan nan 0
-3.03802 -10.46936 -0.6319838 17
-0.2026428 -18.82564 -0.3279307 9
-1.785367 -17.28831 -0.4025912 8
-2.961819 -15.009 -0.4448659 46
-3.974678 -13.55027 -0.4868185 35
-1.502569 -5.204329 -0.9752771 20
-2.13429 -7.192506 -0.8397368 17
-12.72001 -42.93387 1.796901 112
-0.5926499 -46.0829 2.679251 12
-12.93557 -42.81038 3.634312 10
-0.192992 -10.75242 1.31558 38
-10.9695 -36.28376 6.901925 50
-0.2091059 -9.899527 2.642542 82
-0.3802588 -33.54187 0.1929739 33
-2.925867 -27.68072 0 17
-4.402229 -22.10044 -0.117783 9
-4.20171 -14.19478 -0.1726536 18
-0.4987023 -46.31174 1.365322 52
-4.704756 -45.1231 1.052377 55
nan nan nan 0
nan nan nan 0
nan nan nan 0
-0.02272913 -4.214393 -1.090594 6
-0.08218768 -6.556469 -0.9055226 29
-0.1739945 -8.265986 -0.7792413 48
-0.1738343 -9.952723 -0.6359373 67
nan nan nan 0
-1.863594 -9.186201 -0.7050589 32
-2.59083 -8.655166 -0.7347853 36
-0.1527358 -14.28697 -0.5797397 109
nan nan nan 0
nan nan nan 0
-3.059034 -10.40602 -0.6287891 22
-0.2684251 -18.82982 -0.328018 10
-1.846234 -17.28695 -0.4027073 10
-2.982662 -14.84177 -0.4402031 77
-4.073256 -13.70873 -0.4930376 37
-1.520726 -5.199053 -0.9752771 21
-2.159384 -7.185013 -0.8397368 17
-12.86836 -42.88442 1.7967 95
-0.7531816 -46.06059 2.67809 11
-13.08347 -42.7602 3.633907 8
-0.2301081 -10.73183 1.313142 40
-3.155352 -10.32084 1.959939 26
-0.2452888 -9.966331 2.66066 100
-0.4937477 -33.29537 0.1915628 34
-3.024101 -27.68525 0 16
-4.47537 -22.06534 -0.1176783 9
-4.256983 -14.19919 -0.1728875 6
-0.6593683 -46.23976 1.363258 54
-4.855274 -45.04179 1.050869 77
-8.19218 -40.78422 0.7109025 11
nan nan nan 0
nan nan nan 0
-0.03714952 -4.175588 -1.080484 7
-0.1050735 -6.556142 -0.9055226 25
-0.2028472 -8.265329 -0.7792413 43
-0.2067408 -9.862259 -0.6301764 70
-1.060909 -9.502645 -0.6658255 32
nan nan nan 0
-2.622475 -8.650837 -0.7351924 34
-0.2039834 -14.38626 -0.5838053 103
-1.318108 -12.35636 -0.5776345 16
nan nan nan 0
-3.106754 -10.43354 -0.6311125 25
-0.3340645 -18.82376 -0.3279307 9
-1.908209 -17.2953 -0.4030554 10
-3.021421 -14.76762 -0.4383088 97
-4.106665 -13.64659 -0.4913101 33
-1.538865 -5.193713 -0.9752771 18
-2.184451 -7.177431 -0.8397368 17
-13.02088 -42.8488 1.797102 78
-0.7937653 -39.96417 2.32347 12
-13.23117 -42.70951 3.633501 8
-0.2682953 -10.76073 1.316798 40
-3.182617 -10.28157 1.954559 37
-0.2812748 -10.00886 2.672307 105
-0.6088783 -33.23345 0.1912172 31
-3.121842 -27.68447 0 17
-4.549332 -22.03489 -0.1175997 9
-6.063251 -19.96269 -0.2435159 7
nan nan nan 0
-5.011364 -45.01464 1.050637 72
-8.328483 -40.72599 0.7103894 13
nan nan nan 0
nan nan nan 0
-0.05257588 -4.25283 -1.100704 6
-0.1278656 -6.550784 -0.9048345 26
-0.231561 -8.259596 -0.7787699 42
-0.2424775 -9.916348 -0.6336969 82
-1.104329 -9.588076 -0.6721036 31
-1.880466 -8.948534 -0.6877338 43
-2.654122 -8.646394 -0.7355995 32
-0.2546311 -14.41043 -0.5848216 104
nan nan nan 0
nan nan nan 0
-3.13305 -10.38919 -0.6290795 28
-0.3999791 -18.83248 -0.3281052 9
-1.964614 -17.25377 -0.402243 9
-3.088243 -14.83038 -0.4404945 58
-4.177611 -13.70864 -0.4940741 32
-1.556985 -5.188309 -0.9752771 21
-2.209491 -7.169762 -0.8397368 18
-13.17184 -42.80787 1.797302 64
nan nan nan 0
-13.38017 -42.66307 3.633501 8
nan nan nan 0
-3.21996 -10.27509 1.955456 46
-0.3193609 -10.10919 2.699482 105
-0.7163332 -32.83622 0.1889422 29
-3.211533 -27.6138 0 23
-4.622106 -21.99931 -0.117495 8
-6.135839 -19.95096 -0.2436328 8
nan nan nan 0
-5.164473 -44.96211 1.049824 78
-8.456328 -40.62815 0.7091922 13
-10.57347 -34.6025 0.4415835 7
nan nan nan 0
-0.06657978 -4.194575 -1.085539 7
-0.1506216 -6.545347 -0.9041464 29
-0.2597759 -8.238835 -0.7768842 43
-0.2762703 -9.885515 -0.6317766 88
-1.140727 -9.608929 -0.6738475 26
-1.950297 -9.122304 -0.7016692 34
-2.681323 -8.627561 -0.7347853 35
-0.3044126 -14.38448 -0.5838053 110
-1.411666 -12.41137 -0.5806624 16
nan nan nan 0
-3.137171 -10.27318 -0.6226899 26
-0.4660807 -18.84596 -0.328367 9
-2.023082 -17.23191 -0.4018949 10
-3.15554 -14.89284 -0.4426802 42
-4.259367 -13.80378 -0.4980475 35
-1.576521 -5.187549 -0.9761694 19
-2.234505 -7.162006 -0.8397368 17
-13.32416 -42.77116 1.797704 40
-1.232811 -45.95038 2.672281 13
-13.52751 -42.61135 3.633096 7
-1.367097 -43.33277 5.318378 40
-3.243889 -10.22629 1.948283 43
-0.3509756 -10.00183 2.671012 49
-0.8310741 -32.83852 0.188971 36
-3.316227 -27.67192 0 20
-4.692597 -21.9537 -0.1173379 10
-6.212881 -19.95329 -0.2439251 9
-1.139364 -46.06045 1.358244 47
-5.31845 -44.91898 1.049244 80
-8.608455 -40.64729 0.7100474 13
-11.0638 -35.75938 0.4568548 15
nan nan nan 0
-0.08104724 -4.184643 -1.083012 11
-0.1734682 -6.544781 -0.9041464 27
-0.2914422 -8.322451 -0.7848982 39
-0.3121626 -9.929377 -0.6346571 83
nan nan nan 0
-1.968342 -9.052109 -0.696773 37
-2.723411 -8.65617 -0.738042 34
-0.3477142 -14.09865 -0.5722186 115
-1.453238 -12.39148 -0.5799636 15
nan nan nan 0
-3.20255 -10.35752 -0.6284986 26
-0.5294896 -18.75927 -0.3268836 10
-2.082621 -17.21978 -0.4017788 10
-3.212775 -14.90617 -0.4434088 35
-4.297082 -13.75545 -0.4968382 30
-1.59462 -5.182014 -0.9761694 21
-2.259491 -7.154163 -0.8397368 17
-13.47488 -42.72916 1.797904 29
-1.390789 -45.86597 2.667634 13
-13.67617 -42.56387 3.633096 7
-1.515923 -43.2583 5.309847 43
-3.335294 -10.38816 1.981457 38
-0.3776192 -9.783368 2.612778 46
-0.9444091 -32.79044 0.1887118 31
-3.429323 -27.79417 0 17
-4.770264 -21.94207 -0.1173641 9
-6.282493 -19.93148 -0.2439251 9
-1.299435 -46.03121 1.357507 60
-5.47219 -44.87534 1.048664 79
-8.743969 -40.58767 0.7095342 11
nan nan nan 0
nan nan nan 0
-0.09471928 -4.140806 -1.071638 10
-0.1961683 -6.539185 -0.9034584 26
-0.3197372 -8.301484 -0.7830125 40
-0.348536 -9.978095 -0.6378576 76
nan nan nan 0
-2.035483 -9.205827 -0.7092019 32
-2.764216 -8.679843 -0.7408916 32
-0.4001139 -14.21221 -0.5768939 109
-1.504262 -12.4508 -0.5829915 16
nan nan nan 0
-3.247646 -10.37486 -0.6302412 28
-0.5941833 -18.73232 -0.3264472 10
-2.143333 -17.21737 -0.4018949 10
-3.245516 -14.80699 -0.4407859 38
-4.33753 -13.71655 -0.4959744 34
-1.612699 -5.176416 -0.9761694 20
-2.282934 -7.1415 -0.8391777 17
-13.62091 -42.67234 1.797503 22
-1.550379 -45.84587 2.666763 11
-13.82312 -42.51113 3.63269 8
nan nan nan 0
-3.368489 -10.3671 1.979664 43
-0.4105639 -9.753037 2.605014 48
-1.055492 -32.682 0.1881071 38
-3.533873 -27.84155 0 13
-4.847907 -21.93017 -0.1173903 9
-6.356592 -19.92372 -0.2441006 8
-1.458686 -45.98144 1.35618 57
-5.62569 -44.83117 1.048083 78
-8.883452 -40.54713 0.7093632 10
-11.25724 -35.50495 0.4545946 19
nan nan nan 0
-0.1092935 -4.145286 -1.072902 13
-0.2189932 -6.53846 -0.9034584 24
-0.3513888 -8.364974 -0.7891409 37
-0.3822303 -9.9469 -0.6359373 73
-1.252149 -9.68055 -0.6797768 28
-2.049 -9.115973 -0.7027991 36
-2.797561 -8.679626 -0.7417057 32
-0.4434792 -14.01099 -0.568763 114
nan nan nan 0
nan nan nan 0
-3.262699 -10.29685 -0.6261752 18
-0.6602656 -18.75012 -0.3267963 6
-2.20342 -17.20978 -0.4018949 9
-3.304796 -14.82971 -0.4418059 36
-4.33658 -13.54905 -0.4904463 34
-1.630758 -5.170755 -0.9761694 24
-2.307848 -7.133488 -0.8391777 18
-13.76978 -42.62454 1.797503 12
-0.3789171 -10.04052 0.5823196 27
-13.97454 -42.47209 3.633501 8
-0.4244668 -10.00074 1.224177 37
-3.376958 -10.27118 1.963525 43
-0.4456928 -9.775669 2.611484 101
nan nan nan 0
-3.618752 -27.73484 0 14
-4.924428 -21.91311 -0.1173903 9
-6.429174 -19.91092 -0.2442175 9
-1.618306 -45.95109 1.355443 51
-5.778948 -44.78646 1.047503 85
nan nan nan 0
-11.48809 -35.79865 0.4588705 17
nan nan nan 0
-0.1233498 -4.130372 -1.069111 13
-0.2418153 -6.537656 -0.9034584 28
-0.3779075 -8.304024 -0.7834839 37
-0.4163301 -9.930549 -0.6349772 71
-1.289214 -9.700842 -0.6815207 28
-2.065249 -9.040721 -0.6975263 39
-2.835582 -8.693492 -0.7437412 33
-0.4981089 -14.17412 -0.575471 9
nan nan nan 0
-2.513071 -11.2417 -0.6016018 14
-3.298622 -10.2854 -0.6261752 27
-0.3935158 -10.1004 -0.1757457 37
-2.264783 -17.2119 -0.402127 10
-3.375321 -14.90095 -0.4442831 40
-4.377682 -13.51481 -0.4897553 37
-1.648797 -5.165031 -0.9761694 21
-2.332735 -7.125389 -0.8391777 17
-13.91228 -42.55722 1.7967 9
-0.4145716 -10.0541 0.583191 37
-14.11326 -42.39468 3.631069 9
-0.4593734 -9.999197 1.224177 38
-3.405016 -10.236 1.959042 45
-0.4793451 -9.764406 2.608896 46
-0.3999212 -10.08148 0.05788353 37
nan nan nan 0
-5.000889 -21.89579 -0.1173903 8
-6.501746 -19.89786 -0.2443344 9
-0.3949138 -10.08747 0.2966874 36
-5.932621 -44.7462 1.047039 85
nan nan nan 0
nan nan nan 0
nan nan nan 0
-0.1382302 -4.144422 -1.072902 13
-0.2646345 -6.536772 -0.9034584 26
-0.4047266 -8.257906 -0.7792413 41
-0.4514391 -9.939004 -0.6356172 58
-1.311619 -9.612266 -0.6755914 30
-2.100179 -9.048026 -0.6986561 36
-2.851829 -8.640959 -0.7400774 36
-0.3925646 -10.11862 -0.4104118 102
nan nan nan 0
-2.571117 -11.31563 -0.6060504 13
-3.291292 -10.14091 -0.618043 30
-0.4289797 -10.10396 -0.175833 39
-2.32485 -17.20389 -0.402127 9
-3.376837 -14.66991 -0.4377259 46
-4.429505 -13.51369 -0.4902736 35
-1.666816 -5.159245 -0.9761694 21
-2.357593 -7.117202 -0.8391777 17
-14.0733 -42.54634 1.798306 7
-0.4492237 -10.04262 0.5826101 36
-14.26594 -42.35933 3.632285 9
-0.4945167 -10.00249 1.224787 33
-3.428154 -10.18676 1.951869 44
-0.5151838 -9.796433 2.617954 43
-0.4355354 -10.09002 0.05794112 38
nan nan nan 0
-5.076158 -21.87333 -0.1173641 9
-6.575875 -19.88929 -0.2445098 8
-0.4299131 -10.08104 0.2965399 39
-6.085407 -44.70045 1.046459 81
-9.249266 -40.19855 0.7049164 8
-11.76584 -35.80307 0.4599701 27
nan nan nan 0
-0.1532102 -4.158418 -1.076693 13
-0.2874505 -6.535809 -0.9034584 25
-0.4350971 -8.28627 -0.7820697 36
-0.4849243 -9.912448 -0.634017 69
-1.355525 -9.681726 -0.6808231 35
-2.13404 -9.050344 -0.6994094 37
-2.870904 -8.597869 -0.7372278 33
-0.4272578 -10.10221 -0.409802 95
nan nan nan 0
-2.583622 -11.18983 -0.5997701 15
-3.381266 -10.29531 -0.6282082 17
-0.4651535 -10.12237 -0.176182 37
-2.385575 -17.20062 -0.402243 10
-3.414359 -14.59964 -0.4359774 38
-4.506572 -13.58825 -0.4935559 34
-1.684815 -5.153395 -0.9761694 18
-2.382422 -7.108929 -0.8391777 18
-14.22966 -42.52064 1.799309 8
-0.4849895 -10.05594 0.5834814 28
-14.41371 -42.30927 3.632285 9
-2.257148 -42.96754 5.278161 52
-3.446228 -10.12352 1.942007 41
-0.5536633 -9.871732 2.63866 46
-0.4714444 -10.10342 0.05802751 36
nan nan nan 0
-5.151331 -21.85061 -0.1173379 9
-6.651611 -19.88517 -0.2447437 9
-0.4657826 -10.09445 0.2969823 37
-6.237947 -44.65418 1.045878 86
-9.391804 -40.17575 0.7050874 9
-11.88917 -35.75704 0.459909 24
nan nan nan 0
-0.1682895 -4.17236 -1.080484 13
-0.310263 -6.534766 -0.9034584 28
-0.466221 -8.324461 -0.785841 38
-0.5208149 -9.935611 -0.6356172 80
-1.391436 -9.691747 -0.6818694 30
-2.156322 -9.004053 -0.6963964 35
-2.891313 -8.559474 -0.7347853 37
-0.4636473 -10.12561 -0.4108184 81
-1.735709 -12.52654 -0.5878828 14
-2.666026 -11.36546 -0.6097139 13
-3.443982 -10.36396 -0.6331456 27
-0.5031707 -10.17561 -0.1771419 9
-2.446305 -17.19713 -0.4023591 10
-3.461834 -14.57304 -0.4355402 48
-4.542838 -13.53928 -0.4923466 34
-1.702794 -5.147482 -0.9761694 19
-2.407223 -7.10057 -0.8391777 17
-14.3796 -42.47544 1.79951 7
nan nan nan 0
-12.16247 -35.29987 3.033592 5
-2.405734 -42.93463 5.275115 44
-3.494375 -10.14863 1.94918 49
-0.5849864 -9.816705 2.624425 43
nan nan nan 0
-3.966272 -27.40944 0 8
-5.226408 -21.82763 -0.1173118 9
-6.725793 -19.87604 -0.2449191 9
-0.5017511 -10.10774 0.2974247 7
-6.390946 -44.61235 1.045414 85
-9.52159 -40.09895 0.7043177 10
-11.96288 -35.56369 0.4579543 32
nan nan nan 0
-0.1834681 -4.186247 -1.084275 12
-0.3328237 -6.528697 -0.9027703 29
-0.4917647 -8.263154 -0.7801841 36
-0.5513545 -9.858999 -0.6308165 80
nan nan nan 0
-2.178305 -8.957716 -0.6933833 36
-2.919559 -8.544614 -0.7343782 36
-0.7039868 -14.33045 -0.5821791 20
-1.756258 -12.35722 -0.5801966 16
-2.705683 -11.35609 -0.6097139 13
-3.453058 -10.27146 -0.6282082 25
-0.9873997 -18.73574 -0.3267963 7
-2.506319 -17.18849 -0.4023591 9
-3.531444 -14.6386 -0.4378716 45
-4.617404 -13.60377 -0.4952834 35
-1.722317 -5.146171 -0.9770617 21
-2.431993 -7.092124 -0.8391777 17
-14.53426 -42.4439 1.800312 7
nan nan nan 0
-14.55288 -41.76057 3.593777 44
nan nan nan 0
-3.54112 -10.16888 1.955456 63
-0.6325188 -10.02669 2.681365 49
-1.71345 -32.15843 0.1852561 44
-4.05826 -27.3707 0 9
-5.300206 -21.79954 -0.1172594 10
-6.801614 -19.87136 -0.245153 9
-2.410831 -45.74117 1.350281 66
-6.54373 -44.56998 1.04495 86
-9.661503 -40.06547 0.7043177 9
-12.14495 -35.6921 0.4601533 30
nan nan nan 0
-0.1985237 -4.195246 -1.086803 11
-0.3556111 -6.527495 -0.9027703 28
-0.523395 -8.306099 -0.7844268 40
