# .PCD v0.7 - Point Cloud Data file format
VERSION 0.7
FIELDS x y z intensity
SIZE 4 4 4 4
TYPE F F F F
COUNT 1 1 1 1
WIDTH 1531
HEIGHT 1
VIEWPOINT 0 0 0 1 0 0 0
POINTS 1531
DATA ascii
-19.16578 -10.36514 -0.5049508 13
-19.496 -8.329817 -0.6169546 9
-11.64131 -3.772496 -0.4216906 4
-6.96936 -2.288873 -1.323272 14
-10.35791 -3.317434 -1.219351 47
-11.453 -3.680729 0.4815815 7
-15.87357 -10.52782 1.105972 109
-13.63078 -4.298514 1.159283 15
-15.81044 -10.37917 2.317345 255
-13.15035 -4.144691 2.50596 10
nan nan nan 0
-15.8669 -10.55921 0.1095467 14
-21.39803 -11.50511 0 8
-25.8501 -10.99066 -0.1468688 8
-11.41861 -3.669628 -0.1397951 36
-17.17716 -11.44465 0.6078257 15
nan nan nan 0
-25.6463 -10.96209 0.476415 25
-11.43531 -3.699103 0.1463597 46
nan nan nan 0
-15.33588 -10.36445 -4.8249 48
-7.446028 -4.946128 -1.236493 18
-10.10714 -6.590127 -1.138927 16
-12.07202 -7.932515 -0.9239813 64
-12.21478 -6.531092 -0.9657783 36
-13.09657 -5.512819 -1.070394 14
-12.92789 -4.10684 -1.104824 8
-15.13838 -10.09312 -0.7387007 29
-15.27849 -8.265732 -0.8082225 20
-15.15668 -6.463662 -0.8614498 42
-11.6503 -3.76634 -0.7101105 17
-15.89831 -10.51627 -0.332032 24
-19.30757 -10.35488 -0.5077361 14
nan nan nan 0
-11.63537 -3.72575 -0.4209995 17
-6.977307 -2.264531 -1.323272 15
-10.36943 -3.281257 -1.219351 47
-11.46102 -3.639219 0.4813809 12
-15.91439 -10.47509 1.106262 20
-13.62191 -4.243507 1.157256 15
-15.82163 -10.30765 2.313689 255
-13.13186 -4.08854 2.499684 11
-21.58383 -13.9677 6.878116 41
-15.90367 -10.50376 0.1095467 17
-21.30571 -11.35977 0 13
-11.59356 -4.882588 -0.06565899 36
-11.42182 -3.626725 -0.1396781 41
nan nan nan 0
nan nan nan 0
-11.67015 -4.941117 0.2161013 16
-11.43386 -3.654604 0.1461764 45
nan nan nan 0
-15.41615 -10.34051 -4.838801 58
-7.463248 -4.920107 -1.236493 17
-10.10084 -6.535864 -1.135628 16
-12.07874 -7.876692 -0.9223811 52
-12.24631 -6.49309 -0.9664758 37
-13.12033 -5.468988 -1.070771 13
-12.9469 -4.063178 -1.105231 9
-15.18186 -10.04573 -0.7391073 28
nan nan nan 0
nan nan nan 0
-11.70617 -3.739301 -0.7127244 10
-17.84863 -11.71778 -0.371998 15
-19.39214 -10.31325 -0.5090127 14
-11.648 -4.881628 -0.3670544 38
-11.62448 -3.677587 -0.4201358 14
-6.989855 -2.241661 -1.324164 14
-10.38556 -3.246521 -1.219911 37
-11.46889 -3.597696 0.4811802 13
-17.62213 -11.51188 1.222436 35
-13.61758 -4.190077 1.155635 15
-15.83251 -10.23619 2.310033 234
-13.11314 -4.032569 2.493408 11
nan nan nan 0
-17.57914 -11.52311 0.1208355 21
-21.29219 -11.25728 0 13
-11.61976 -4.845937 -0.06571135 36
-11.42486 -3.583844 -0.1395612 41
-17.3569 -11.39029 0.6113647 31
-21.16921 -11.23 0.5554343 11
-11.65505 -4.886823 0.2155027 27
-11.43224 -3.610159 0.1459932 46
nan nan nan 0
-15.42799 -10.27054 -4.831218 37
-7.48452 -4.896739 -1.237181 20
-10.12359 -6.500566 -1.135628 15
-12.07266 -7.812781 -0.9198207 66
-12.32188 -6.478162 -0.9706613 32
-13.14395 -5.425057 -1.071147 13
-12.96576 -4.019433 -1.105638 9
-15.22518 -9.998164 -0.7395138 33
-14.61273 -7.774066 -0.7700239 83
-11.64045 -4.868831 -0.6591713 39
-11.70011 -3.692415 -0.7115627 11
-17.66327 -11.50799 -0.3672859 20
-19.37938 -10.21984 -0.5077361 15
-11.62342 -4.823704 -0.365743 40
-11.63724 -3.636987 -0.4201358 14
-6.997637 -2.217248 -1.324164 13
-10.39683 -3.210249 -1.219911 32
-11.46706 -3.553211 0.4805782 13
-17.63708 -11.434 1.220693 51
-13.61305 -4.136729 1.154014 15
-17.32981 -11.11924 2.523305 44
-13.08947 -3.975351 2.486235 12
-21.56679 -13.74398 6.841881 23
-17.5564 -11.42076 0.1204035 30
-21.26936 -11.15038 0 17
-11.60426 -4.791993 -0.06552809 44
-11.42298 -3.53951 -0.1393858 43
-17.40074 -11.33236 0.6115122 44
-21.20385 -11.15371 0.5553182 17
-11.62587 -4.826946 0.2146476 43
-11.43046 -3.565771 0.1458099 46
nan nan nan 0
-15.40725 -10.17927 -4.813526 24
-7.501567 -4.870584 -1.237181 18
-10.14622 -6.465188 -1.135628 16
-12.06208 -7.746313 -0.9169403 73
-12.3223 -6.42358 -0.9689173 19
-13.16281 -5.379143 -1.071147 13
-12.98448 -3.975607 -1.106045 9
-15.26835 -9.950414 -0.7399203 27
-14.74137 -7.776623 -0.7753811 63
-11.61124 -4.809069 -0.6565546 37
-11.67957 -3.641167 -0.7095296 17
-17.73691 -11.46798 -0.367984 22
-19.40608 -10.1475 -0.507504 15
-11.62632 -4.777405 -0.3653059 38
-11.57824 -3.574266 -0.4175445 3
-7.01003 -2.194275 -1.325056 14
-10.40797 -3.173938 -1.219911 12
-11.46506 -3.508783 0.4799762 12
-17.84057 -11.47773 1.23202 42
-13.60831 -4.083464 1.152392 11
-17.41037 -11.08534 2.529398 14
-13.075 -3.92117 2.480856 11
-22.81865 -14.43035 7.223639 9
-17.65915 -11.4001 0.1208355 11
-21.3747 -11.11067 0 17
-11.61166 -4.747674 -0.06547573 45
-11.42092 -3.495232 -0.1392104 44
-17.45698 -11.28241 0.612102 25
-21.15402 -11.03339 0.5529971 15
-11.60103 -4.769233 0.2138779 41
-11.4285 -3.521439 0.1456266 47
nan nan nan 0
-15.41842 -10.10951 -4.805944 41
-7.522684 -4.847053 -1.237869 18
-10.17293 -6.432395 -1.136099 16
-12.08484 -7.701478 -0.9166202 61
-12.30477 -6.359911 -0.9657783 12
-13.18613 -5.335033 -1.071524 13
-13.00305 -3.931699 -1.106452 9
-15.31558 -9.905199 -0.7405302 24
-14.90119 -7.794584 -0.7823687 56
-11.61872 -4.76472 -0.6560312 31
-11.66835 -3.593041 -0.7080774 4
-17.89463 -11.48162 -0.3704273 16
-19.40589 -10.06129 -0.5065755 17
-11.62441 -4.729261 -0.364723 40
-11.64323 -3.549835 -0.4194448 4
-7.017647 -2.169792 -1.325056 14
-10.41899 -3.137588 -1.219911 12
-11.46288 -3.464411 0.4793743 29
-18.02355 -11.50675 1.241895 36
-13.60815 -4.031695 1.151176 15
-17.37765 -10.97942 2.519039 29
-13.06502 -3.868533 2.476372 11
-23.04476 -14.46103 7.279285 23
-17.78303 -11.39235 0.1214114 18
-21.4489 -11.05432 0 11
-11.59571 -4.693985 -0.06529247 45
-11.41869 -3.451012 -0.139035 45
-17.75283 -11.38606 0.621097 41
-21.29452 -11.0123 0.5556664 14
-11.57593 -4.711752 0.2131083 44
-11.42159 -3.475711 0.1453823 45
nan nan nan 0
nan nan nan 0
-7.539557 -4.820765 -1.237869 17
-10.19954 -6.399492 -1.13657 16
-12.12851 -7.669921 -0.9179004 67
-12.30471 -6.305544 -0.9640344 13
-13.20467 -5.288972 -1.071524 13
-13.02147 -3.88771 -1.106859 9
-15.35847 -9.85708 -0.7409368 26
-14.99924 -7.779322 -0.7860953 65
-11.6399 -4.726013 -0.6562929 26
-11.6856 -3.553739 -0.7083679 4
-17.94725 -11.42715 -0.3706891 17
-19.37865 -9.961489 -0.5049508 18
-11.86802 -4.780118 -0.371863 28
-11.56462 -3.481841 -0.4161625 10
-7.029885 -2.146716 -1.325949 13
-10.43464 -3.102613 -1.22047 13
-11.46054 -3.420098 0.4787723 16
-18.14793 -11.49721 1.247703 18
-13.603 -3.978582 1.149555 15
nan nan nan 0
-13.05483 -3.816013 2.47189 11
-23.1197 -14.39582 7.28705 17
-17.90284 -11.3812 0.1219586 17
-21.39832 -10.93387 0 18
-11.58418 -4.642324 -0.06513539 45
-11.41629 -3.406849 -0.1388596 46
-17.77139 -11.3106 0.6203598 41
-21.54633 -11.04739 0.561237 15
-11.56912 -4.661976 0.2126807 43
-11.41928 -3.431511 0.145199 45
nan nan nan 0
nan nan nan 0
-7.556339 -4.794417 -1.237869 22
-10.22604 -6.366483 -1.137042 15
-12.15098 -7.624883 -0.9175804 53
-12.33554 -6.267075 -0.964732 12
-13.22305 -5.242847 -1.071524 12
-13.03974 -3.84364 -1.107267 8
-15.40542 -9.811462 -0.7415466 29
-15.15511 -7.79317 -0.7928499 58
-11.61463 -4.668599 -0.6539378 11
nan nan nan 0
-17.95322 -11.34306 -0.369991 15
-19.56918 -9.973238 -0.5090127 20
-11.87535 -4.734961 -0.3715716 12
-11.46174 -3.40733 -0.4120164 4
-7.037335 -2.122164 -1.325949 13
-10.44541 -3.066171 -1.22047 15
-11.45803 -3.375843 0.4781703 7
-17.66402 -11.10424 1.211689 15
-13.60244 -3.926933 1.148339 15
-18.01845 -11.20925 2.600692 55
-13.04444 -3.763612 2.467407 11
-23.25197 -14.36582 7.312932 13
-18.99103 -11.98049 0.1291004 13
-21.45865 -10.87041 0 13
-11.57243 -4.590802 -0.06497831 45
-11.41372 -3.362746 -0.1386842 46
-17.86147 -11.28053 0.6221293 38
-24.334 -12.36989 0.6328423 9
-11.56211 -4.612306 0.2122531 44
-11.41681 -3.38737 0.1450158 45
nan nan nan 0
nan nan nan 0
-7.577219 -4.770653 -1.238557 20
-10.25244 -6.333366 -1.137513 16
-12.17753 -7.582423 -0.9175804 57
-12.38852 -6.239686 -0.9671735 12
-13.25984 -5.203941 -1.07303 11
-13.06265 -3.80088 -1.108081 9
-15.44802 -9.762968 -0.7419531 31
-15.21337 -7.756105 -0.7944803 53
-11.58446 -4.609574 -0.6513209 12
-11.43252 -3.389895 -0.6915227 2
-18.16634 -11.38924 -0.3735687 10
-19.70648 -9.956722 -0.511682 16
-11.65005 -4.598103 -0.3639944 3
-11.48795 -3.371515 -0.4125346 5
-7.049417 -2.098987 -1.326841 14
-10.46082 -3.031071 -1.221029 44
-11.45055 -3.330255 0.4773676 16
-21.00133 -13.10134 1.437937 7
-13.59689 -3.873973 1.146717 15
-18.43326 -11.37837 2.654924 36
-13.03384 -3.71133 2.462924 11
-21.48224 -13.16855 6.740942 21
-19.23613 -12.04152 0.1304827 16
-21.78689 -10.94131 0 16
-11.56045 -4.539417 -0.06482124 45
-11.41579 -3.320096 -0.1385673 46
-18.13361 -11.36415 0.6302395 16
-24.27436 -12.23313 0.630173 11
-11.55488 -4.56274 0.2118255 98
-11.40937 -3.341884 0.1447715 45
nan nan nan 0
nan nan nan 0
-7.593825 -4.744174 -1.238557 21
-10.27872 -6.300143 -1.137985 16
-12.17846 -7.524123 -0.91566 56
-12.46377 -6.223148 -0.9713588 15
-13.27792 -5.157624 -1.07303 11
-13.08063 -3.756633 -1.108488 8
-15.4947 -9.716951 -0.7425629 27
-15.22252 -7.693938 -0.7935486 59
-11.54473 -4.547158 -0.6481808 47
-11.37241 -3.328966 -0.6871662 39
-18.07441 -11.24386 -0.3708636 16
-19.81262 -9.923697 -0.5135388 12
-11.62878 -4.542865 -0.3628287 4
-11.49484 -3.330006 -0.4123619 8
-7.056701 -2.074367 -1.326841 13
-10.47612 -2.995902 -1.221588 46
-11.4477 -3.286136 0.4767657 14
-17.83872 -11.0411 1.21837 9
-13.59594 -3.822447 1.145501 13
-18.54903 -11.36063 2.665892 29
-13.02304 -3.659168 2.458441 11
-22.30786 -13.56798 6.985526 43
nan nan nan 0
-21.80257 -10.85405 0 16
-11.55293 -4.489983 -0.06469033 46
-11.41289 -3.276096 -0.1383919 46
-18.09679 -11.25325 0.6275852 20
-24.58968 -12.28462 0.6372523 13
-11.54746 -4.513283 0.2113979 44
-11.40655 -3.297878 0.1445882 45
nan nan nan 0
-0.3065093 -0.1866697 -0.08340581 5
-7.610339 -4.717638 -1.238557 18
-10.3049 -6.266814 -1.138456 16
-12.22591 -7.494613 -0.9172603 58
-12.54353 -6.208374 -0.975893 16
nan nan nan 0
-13.09846 -3.712307 -1.108895 9
-15.54125 -9.670727 -0.7431727 29
-15.25822 -7.645232 -0.7940145 64
-11.53727 -4.497767 -0.6468724 44
-11.41754 -3.298933 -0.6891993 37
-18.18161 -11.22273 -0.3722598 26
-19.88744 -9.874488 -0.5145833 9
-11.63991 -4.500444 -0.362683 4
-12.02535 -3.437983 -0.4310192 11
-7.063899 -2.049722 -1.326841 14
-10.49129 -2.960662 -1.222147 45
-11.48314 -3.252953 0.477769 6
-18.97013 -11.65038 1.293011 25
-13.58999 -3.769644 1.14388 16
-18.80483 -11.42731 2.696968 16
-13.01677 -3.608438 2.454854 11
-21.84239 -13.18051 6.825058 35
-17.86849 -11.01203 0.1206627 42
-22.19453 -10.95271 0 10
-11.54053 -4.438863 -0.06453326 45
-11.41463 -3.233516 -0.1382749 46
-17.99988 -11.106 0.6228665 25
nan nan nan 0
-11.53983 -4.463932 0.2109703 43
-11.40357 -3.253933 0.1444049 44
nan nan nan 0
-0.2907614 -0.1753243 -0.07835092 6
-7.630977 -4.693642 -1.239245 20
-10.33098 -6.233378 -1.138927 16
-12.252 -7.451891 -0.9172603 56
-12.63229 -6.197513 -0.9811248 17
-12.6938 -4.82911 -1.022938 6
-13.11614 -3.667902 -1.109302 8
-15.58766 -9.624298 -0.7437826 27
-15.28033 -7.589701 -0.7937815 59
-11.54824 -4.45567 -0.6466107 32
-11.42898 -3.259058 -0.6891993 37
-18.24198 -11.17226 -0.3726961 15
-19.96214 -9.824878 -0.5156278 10
-11.61353 -4.443717 -0.3613716 11
-12.25372 -3.456948 -0.4387931 20
-7.07101 -2.025052 -1.326841 14
-10.50156 -2.924022 -1.222147 44
-11.50886 -3.216878 0.478371 12
-19.09165 -11.63346 1.298529 39
-13.57903 -3.715617 1.141853 15
nan nan nan 0
-13.00556 -3.556502 2.450372 10
nan nan nan 0
-17.90682 -10.94959 0.1206627 43
nan nan nan 0
-11.53259 -4.389662 -0.06440236 44
-11.41141 -3.189621 -0.1380995 48
-18.05132 -11.05093 0.623309 40
-23.95244 -11.75796 0.6185676 15
-11.53199 -4.41469 0.2105428 44
-11.40042 -3.210048 0.1442217 47
nan nan nan 0
-0.3078051 -0.1845253 -0.08340581 8
-7.647314 -4.666975 -1.239245 18
-10.35694 -6.199837 -1.139399 16
-12.26939 -7.40392 -0.9166202 61
-12.72112 -6.186108 -0.9863564 17
-12.71058 -4.784771 -1.022938 5
-13.13366 -3.62342 -1.109709 9
-15.62968 -9.57505 -0.7441891 29
-15.34258 -7.55397 -0.7956449 64
-11.56372 -4.415332 -0.6466107 5
-11.4451 -3.220493 -0.6894897 12
-18.16981 -11.04099 -0.3704273 18
-20.01878 -9.766097 -0.5162081 7
-11.5869 -4.387229 -0.3600602 7
-11.55316 -3.216141 -0.4132257 5
-7.082771 -2.001692 -1.327733 13
-10.5165 -2.888661 -1.222706 42
-11.52965 -3.179336 0.4787723 34
-19.19194 -11.60292 1.302595 36
-13.55823 -3.659118 1.139016 13
-17.66201 -10.56431 2.522086 6
-12.99889 -3.505966 2.446785 10
nan nan nan 0
-18.09025 -10.97523 0.1216418 25
-22.92279 -11.11384 0 17
-11.52444 -4.340571 -0.06427146 42
-11.41283 -3.147115 -0.1379826 46
-18.02999 -10.95151 0.6212445 39
-24.24054 -11.79459 0.6249506 15
-11.52396 -4.365557 0.2101152 44
-11.3971 -3.166225 0.1440384 48
nan nan nan 0
-0.2960955 -0.1758301 -0.07961464 7
-7.663558 -4.640254 -1.239245 18
-10.3828 -6.16619 -1.13987 16
-12.3294 -7.381564 -0.9191806 67
-12.81003 -6.174158 -0.9915882 16
-12.70384 -4.731676 -1.021055 5
-13.15104 -3.578859 -1.110116 8
-15.67581 -9.528222 -0.744799 29
-15.37783 -7.504751 -0.7961107 71
-11.61176 -4.38729 -0.6484424 5
-11.57652 -3.21385 -0.6967505 8
-18.25105 -11.00332 -0.3712999 21
-20.07075 -9.704865 -0.5166723 7
-11.55534 -4.32923 -0.358603 26
-11.9113 -3.270913 -0.4256639 10
-7.089715 -1.976956 -1.327733 13
-10.52652 -2.851934 -1.222706 40
-11.52622 -3.135144 0.4781703 24
-18.43625 -11.05809 1.248575 68
-13.54684 -3.60537 1.136989 14
-17.6433 -10.46966 2.514164 28
-12.99679 -3.456784 2.444096 11
nan nan nan 0
-18.20983 -10.96103 0.122189 27
-23.51575 -11.30016 0 12
-11.52078 -4.293336 -0.06416674 42
-11.4141 -3.104637 -0.1378656 47
-18.06811 -10.88851 0.6212445 35
-24.169 -11.65561 0.6220493 17
-11.5204 -4.318288 0.2097731 44
-11.40326 -3.125103 0.1439774 46
nan nan nan 0
-0.3008336 -0.177321 -0.08087836 8
-7.683953 -4.616027 -1.239933 17
-10.40855 -6.132439 -1.140342 16
-12.37654 -7.351229 -0.9207808 64
-12.89451 -6.159511 -0.9964712 17
-12.71092 -4.683856 -1.020302 6
-13.16827 -3.534221 -1.110523 9
-15.7218 -9.481188 -0.7454087 28
-15.47137 -7.483656 -0.7996045 55
-11.62701 -4.34673 -0.6484424 6
-11.52989 -3.157625 -0.6932653 4
-18.32366 -10.96008 -0.371998 19
-20.11352 -9.639066 -0.5169044 7
-11.53758 -4.276713 -0.357583 38
-12.03841 -3.260617 -0.42981 10
-7.101317 -1.953497 -1.328625 13
-10.54121 -2.816452 -1.223265 37
-11.52744 -3.092306 0.477769 17
-19.43545 -11.56569 1.313632 38
nan nan nan 0
-17.68829 -10.41304 2.515383 38
-12.98974 -3.406413 2.440509 10
-19.55623 -11.43088 6.058954 18
-18.23082 -10.88714 0.1220738 29
-22.97725 -10.94279 0 17
-11.51224 -4.24445 -0.06403584 39
-11.41521 -3.06219 -0.1377487 48
-18.44054 -11.02551 0.6327463 26
-23.53307 -11.24778 0.6046411 18
-11.51197 -4.26936 0.2093455 44
-11.40928 -3.083977 0.1439163 46
nan nan nan 0
-0.2849111 -0.1662254 -0.07582346 9
-7.700019 -4.589177 -1.239933 17
-10.43419 -6.098581 -1.140813 16
-12.43221 -7.325727 -0.9230212 58
-12.98355 -6.146483 -1.001703 16
-12.82557 -4.675303 -1.028211 8
-13.18534 -3.489506 -1.11093 8
-15.76338 -9.431384 -0.7458153 32
-15.56045 -7.459841 -0.8028653 63
-11.72172 -4.335553 -0.652891 49
-11.71434 -3.164141 -0.7037209 14
-18.3747 -10.90371 -0.3722598 23
-20.13801 -9.564508 -0.5166723 7
-11.51959 -4.224373 -0.356563 45
-11.45101 -3.058935 -0.4083886 27
-7.108093 -1.928697 -1.328625 13
-10.55097 -2.779639 -1.223265 32
-11.52367 -3.048223 0.477167 18
-18.26803 -10.78441 1.23202 35
-12.33642 -3.191709 1.033221 16
-17.7331 -10.35624 2.516602 18
-12.98726 -3.357362 2.437819 11
-19.47904 -11.29468 6.022719 36
-18.18699 -10.77499 0.1215266 38
nan nan nan 0
-11.5035 -4.195677 -0.06390494 37
-11.41615 -3.019772 -0.1376318 48
-18.69381 -11.08862 0.6401193 13
-23.59929 -11.17841 0.6053375 25
-11.50803 -4.222264 0.2090034 44
-11.41031 -3.041562 0.1437941 48
nan nan nan 0
-0.3103514 -0.1802097 -0.08340581 9
-7.715991 -4.562271 -1.239933 17
-10.45972 -6.064621 -1.141284 16
-12.47063 -7.289844 -0.9239813 60
-13.06814 -6.130791 -1.006586 15
-12.91216 -4.655863 -1.03386 8
-13.20709 -3.445972 -1.111744 9
-15.80909 -9.383956 -0.7464251 29
-15.61797 -7.420487 -0.8044958 95
-11.75555 -4.301471 -0.6539378 30
-11.65296 -3.103991 -0.6993645 97
-18.42558 -10.84712 -0.3725216 23
-20.2165 -9.515447 -0.5178328 9
-11.51077 -4.175618 -0.3558345 46
-11.44229 -3.013863 -0.4076976 48
-7.119535 -1.905142 -1.329518 14
-10.56542 -2.744039 -1.223824 25
-11.52941 -3.006721 0.4769663 18
-18.18067 -10.64739 1.223597 36
-12.33782 -3.146168 1.032411 20
nan nan nan 0
-12.9846 -3.308369 2.43513 11
-19.56858 -11.25553 6.038248 34
-18.25466 -10.72919 0.1217282 28
-23.75055 -11.10838 0 17
-11.49926 -4.148711 -0.06380022 37
-11.41211 -2.976125 -0.1374564 43
-18.44385 -10.8534 0.6302395 16
-23.73771 -11.1427 0.6078907 16
-11.4992 -4.173543 0.2085759 43
-11.41602 -3.000445 0.143733 196
nan nan nan 0
-0.3109786 -0.1791253 -0.08340581 10
-7.73614 -4.537817 -1.240621 18
-10.48514 -6.030557 -1.141756 16
-12.56505 -7.286344 -0.9291021 60
-13.16183 -6.118789 -1.012166 13
-13.02226 -4.644245 -1.041393 8
-13.22869 -3.402329 -1.112559 9
-15.85036 -9.333788 -0.7468317 31
-15.62571 -7.357412 -0.8035641 79
-11.59207 -4.195858 -0.6439939 93
-11.61544 -3.050637 -0.6964601 6
-18.5885 -10.85588 -0.3750522 15
-20.28583 -9.461726 -0.5187613 8
-11.50646 -4.128664 -0.3552516 46
-11.46725 -2.977664 -0.4082158 48
-7.126143 -1.880279 -1.329518 13
-10.57975 -2.708372 -1.224383 18
-11.53016 -2.963974 0.476565 18
-18.58022 -10.79459 1.247994 8
-12.3584 -3.105507 1.033221 15
-19.52154 -11.21926 2.759731 32
-12.98176 -3.259437 2.43244 11
-19.53225 -11.14405 6.014955 23
-18.48202 -10.77626 0.1229953 41
-23.68484 -10.97704 0 17
-11.48542 -4.098468 -0.06364314 38
-11.41759 -2.935029 -0.1373979 45
-18.5852 -10.84945 0.6337785 14
-23.83085 -11.08508 0.6092833 12
-11.49487 -4.126625 0.2082338 44
-11.42158 -2.959326 0.1436719 99
nan nan nan 0
-0.2949581 -0.1681681 -0.07835092 9
-7.751933 -4.510786 -1.240621 17
-10.51045 -5.996389 -1.142227 15
-12.53419 -7.210074 -0.9249415 54
-13.25558 -6.106206 -1.017747 13
-13.43808 -4.739667 -1.073407 12
-13.25015 -3.358576 -1.113373 8
-15.89578 -9.285968 -0.7474415 34
-15.78707 -7.366195 -0.8105516 80
-11.49852 -4.116674 -0.6379753 112
-11.62602 -3.010074 -0.6964601 5
-18.58303 -10.76585 -0.3741795 17
-20.34596 -9.403441 -0.5194575 9
-11.50196 -4.08179 -0.3546687 45
-11.46305 -2.933908 -0.4076976 49
-7.137424 -1.856627 -1.33041 12
-10.59396 -2.672638 -1.224942 17
-11.53559 -2.922484 0.4763644 20
-18.73454 -10.79699 1.255835 46
-12.41271 -3.073108 1.036869 7
-19.55196 -11.14613 2.758512 35
-12.97873 -3.210565 2.42975 11
-19.49959 -11.03535 5.992955 21
-18.42432 -10.65658 0.1223617 37
-23.8775 -10.96525 0 22
-11.48551 -4.053361 -0.0635646 41
-11.39383 -2.886577 -0.1369886 45
-19.12458 -11.07517 0.6508837 10
-23.6288 -10.89091 0.6031324 12
-11.49036 -4.079786 0.2078917 45
-11.427 -2.918204 0.1436108 47
nan nan nan 0
nan nan nan 0
-7.767632 -4.483698 -1.240621 17
-10.53565 -5.962118 -1.142699 16
-12.57228 -7.173701 -0.9259017 65
-13.35395 -6.095116 -1.023676 13
-13.45925 -4.694372 -1.073784 12
-13.2763 -3.315921 -1.114594 9
-15.94106 -9.237942 -0.7480513 25
-15.72202 -7.269111 -0.8058932 90
-11.49399 -4.069849 -0.6369286 134
-11.53487 -2.943599 -0.690361 41
-19.43092 -11.16694 -0.3904976 18
-20.40593 -9.344855 -0.5201539 9
-11.49728 -4.034999 -0.3540859 47
-11.48291 -2.896316 -0.4080431 41
-7.143861 -1.831702 -1.33041 13
-10.61287 -2.638035 -1.226061 16
nan nan nan 0
-18.90643 -10.80836 1.264839 44
nan nan nan 0
-18.49364 -10.4571 2.603739 35
-12.97552 -3.161754 2.42706 12
-19.52535 -10.96012 5.989072 24
-18.83432 -10.80629 0.1248383 31
-23.92929 -10.88805 0 21
-11.49959 -4.013245 -0.0635646 17
-11.40384 -2.846788 -0.1369886 45
-18.29218 -10.50773 0.6212445 5
-23.83036 -10.88313 0.6073104 18
-11.48095 -4.031374 0.2074642 44
-11.42742 -2.875863 0.1434887 49
nan nan nan 0
-0.300303 -0.1685433 -0.07961464 9
-7.787531 -4.459021 -1.241309 17
-10.56073 -5.927743 -1.14317 15
-12.57554 -7.117476 -0.9243014 60
-13.44331 -6.079301 -1.028908 12
-13.47555 -4.647362 -1.073784 10
-13.29747 -3.271935 -1.115408 8
-15.99054 -9.192207 -0.7488645 28
-15.57476 -7.135119 -0.7970424 104
-11.48456 -4.021454 -0.6356202 174
-11.52087 -2.897241 -0.6889088 43
-19.79113 -11.28233 -0.396955 22
-20.46573 -9.285961 -0.5208502 9
-11.49712 -3.989927 -0.3536487 47
-11.5075 -2.859824 -0.4085613 38
-7.154983 -1.807956 -1.331302 13
-10.62684 -2.602152 -1.226619 15
nan nan nan 0
-18.77907 -10.64869 1.253802 38
-11.61969 -2.791213 0.9687715 4
nan nan nan 0
-12.97691 -3.11415 2.425267 12
-19.62256 -10.9248 6.00719 22
-18.83282 -10.71821 0.1245792 35
-24.21328 -10.91544 0 24
-11.51825 -3.97471 -0.06359078 3
-11.43313 -2.81173 -0.1372225 43
-19.323 -11.0107 0.6550126 24
-23.95929 -10.8411 0.6096315 16
-11.47606 -3.984717 0.2071221 44
-11.46651 -2.843162 0.1438552 44
nan nan nan 0
-0.3218224 -0.1796138 -0.08593326 9
-7.803049 -4.43181 -1.241309 17
-10.58136 -5.890844 -1.14317 15
-12.61335 -7.080867 -0.9252616 60
-13.54183 -6.067016 -1.034837 9
-13.50585 -4.605121 -1.074914 9
-13.29912 -3.223155 -1.114594 8
-16.03988 -9.146237 -0.7496776 23
-15.55864 -7.062126 -0.7949462 107
-11.48437 -3.976443 -0.6348351 199
-11.52607 -2.85581 -0.6886184 7
-20.00008 -11.30919 -0.4003582 29
-20.52538 -9.226766 -0.5215465 10
-11.49207 -3.943285 -0.3530659 47
-11.53683 -2.824382 -0.4092523 29
-7.16125 -1.782969 -1.331302 12
-10.64552 -2.567366 -1.227738 15
-11.53156 -2.793308 0.4749598 8
-18.85093 -10.60266 1.256126 35
-11.68756 -2.764373 0.9736356 39
-19.43345 -10.81044 2.725608 25
-12.97813 -3.066575 2.423474 12
-19.71553 -10.8866 6.024013 21
-18.91801 -10.67946 0.1248959 20
-24.22841 -10.82065 0 17
-11.51313 -3.928025 -0.06348606 4
-11.48661 -2.782377 -0.1377487 37
-19.35261 -10.93826 0.6547177 25
-24.05171 -10.78194 0.6110241 26
-11.47098 -3.938143 0.20678 46
-11.45208 -2.797199 0.1435498 42
nan nan nan 0
-0.3014724 -0.1664427 -0.07961464 9
-7.822784 -4.406979 -1.241997 17
-10.60621 -5.856279 -1.143641 15
-12.65543 -7.046512 -0.9265417 67
-13.60851 -6.039948 -1.038325 6
-13.51239 -4.554764 -1.07416 10
-13.30544 -3.175558 -1.114187 9
-16.08475 -9.097574 -0.7502874 30
nan nan nan 0
-11.47928 -3.929864 -0.6337884 231
-11.54082 -2.81674 -0.6889088 31
-19.94788 -11.18793 -0.3985257 27
-20.58486 -9.167267 -0.5222428 10
-11.49157 -3.898332 -0.3526287 45
-11.57091 -2.789939 -0.4101161 16
-7.172209 -1.75913 -1.332195 13
-10.65925 -2.531336 -1.228297 15
-11.58985 -2.764608 0.4769663 40
-18.88782 -10.5368 1.256126 39
-13.50292 -3.143112 1.124424 16
-19.47976 -10.74734 2.726826 9
-12.97917 -3.01903 2.421681 13
-22.00669 -12.05237 6.712472 10
nan nan nan 0
nan nan nan 0
-11.48886 -3.875034 -0.06327663 3
-11.54489 -2.753842 -0.1383334 29
-19.55631 -10.96355 0.6603211 11
-24.13489 -10.71821 0.6121847 23
-11.46572 -3.891653 0.2064379 44
-11.49094 -2.764209 0.1439163 37
nan nan nan 0
-0.3272719 -0.1797574 -0.08719698 9
-7.83812 -4.379646 -1.241997 17
-10.62659 -5.819221 -1.143641 15
-12.70615 -7.016776 -0.928462 64
-13.65691 -6.004457 -1.040418 5
-13.52821 -4.507569 -1.07416 10
nan nan nan 0
-16.12948 -9.04871 -0.7508972 31
-16.00903 -7.132244 -0.8154428 76
-11.47401 -3.88337 -0.6327417 245
-11.56514 -2.779932 -0.6897802 31
-20.01302 -11.13282 -0.3990493 25
-20.64417 -9.107464 -0.5229391 8
-11.48615 -3.851842 -0.3520459 46
nan nan nan 0
-7.183089 -1.735235 -1.333087 13
-10.67286 -2.495242 -1.228856 15
nan nan nan 0
-19.01619 -10.52157 1.262225 38
-13.52353 -3.098181 1.125234 31
-22.55993 -12.34515 3.15276 21
-12.98483 -2.97261 2.420784 12
-21.66246 -11.76564 6.594709 14
-20.81022 -11.55742 0.1368758 7
-24.28504 -10.64322 0 9
-11.46912 -3.823842 -0.06309336 4
-11.71994 -2.752315 -0.1403213 18
nan nan nan 0
-24.22706 -10.65806 0.6135773 32
-11.46028 -3.845248 0.2060959 43
-11.61242 -2.750535 0.1453212 27
nan nan nan 0
-0.3110504 -0.169094 -0.08214208 9
-7.85769 -4.354662 -1.242685 18
-10.65121 -5.784469 -1.144113 15
-12.75682 -6.986771 -0.9303823 64
-13.70065 -5.96671 -1.042162 5
-13.53913 -4.458761 -1.073784 11
-12.45327 -2.880808 -1.040912 5
-16.1697 -8.997212 -0.7513037 28
-16.04296 -7.080354 -0.8159087 89
-11.46856 -3.836961 -0.631695 255
-11.62335 -2.751019 -0.6926845 16
-20.02113 -11.04598 -0.3984384 32
-20.70332 -9.047359 -0.5236355 9
-11.48529 -3.807009 -0.3516087 45
-12.05241 -2.816929 -0.4265276 26
-7.189103 -1.710151 -1.333087 12
-10.68635 -2.459083 -1.229415 15
-12.52407 -2.894753 0.5146902 7
-19.04405 -10.45032 1.261644 58
-13.51481 -3.04658 1.123613 21
-22.55927 -12.24264 3.146666 33
-12.99033 -2.926187 2.419888 13
-22.08604 -11.89615 6.711178 30
-20.86795 -11.49436 0.136991 10
-25.45029 -11.04825 0 14
-11.45865 -3.775963 -0.06296246 9
-11.83665 -2.736112 -0.1416076 18
-20.02182 -11.04166 0.6734449 12
nan nan nan 0
-11.45939 -3.800502 0.2058393 44
-11.79239 -2.749645 0.1474592 18
nan nan nan 0
-0.3116388 -0.1680072 -0.08214208 9
-7.877181 -4.329595 -1.243373 18
-10.67134 -5.747254 -1.144113 15
-12.73729 -6.918367 -0.9271818 68
-13.73971 -5.926753 -1.043557 5
-13.54987 -4.409931 -1.073407 10
-12.43895 -2.8318 -1.038877 6
-16.20975 -8.945545 -0.7517103 29
-16.00809 -6.998294 -0.8128807 72
-11.46292 -3.790636 -0.6306483 255
-11.83222 -2.75678 -0.7045923 12
-19.90608 -10.892 -0.3953842 39
-20.75771 -8.984964 -0.5242158 9
-11.48426 -3.762229 -0.3511716 45
-12.13523 -2.791613 -0.429119 41
-7.199819 -1.686164 -1.333979 13
-10.69971 -2.422861 -1.229974 14
-12.75334 -2.900788 0.5237198 15
nan nan nan 0
-13.51076 -2.996156 1.122397 21
-22.58439 -12.15441 3.144229 27
-12.99566 -2.879762 2.418991 13
-22.1104 -11.80988 6.706001 31
-21.02641 -11.48619 0.1377686 12
-25.53004 -10.97712 0 21
-11.41471 -3.717371 -0.06264831 44
-11.95827 -2.720234 -0.1429523 17
-20.72227 -11.334 0.6957113 14
-25.46196 -10.98991 0.642939 15
-11.45359 -3.754252 0.2054972 45
-11.90426 -2.731904 0.148742 18
nan nan nan 0
-0.3079951 -0.1645678 -0.08087836 9
-7.892247 -4.302072 -1.243373 18
-10.69573 -5.712317 -1.144584 15
-12.72184 -6.852552 -0.9243014 70
-13.7328 -5.866995 -1.041464 8
-13.56993 -4.364132 -1.073784 11
-12.45848 -2.790537 -1.039691 6
-16.24964 -8.893709 -0.7521169 31
-16.04617 -6.948329 -0.8135795 66
-11.45709 -3.744398 -0.6296015 255
-11.94395 -2.738845 -0.7106913 11
-19.97913 -10.84153 -0.3960823 28
-20.80732 -8.920334 -0.52468 9
-11.48306 -3.717503 -0.3507344 45
-12.14002 -2.748135 -0.4289462 43
-7.210456 -1.662123 -1.334872 12
-10.71296 -2.386575 -1.230533 15
nan nan nan 0
-21.26426 -11.47693 1.403666 15
nan nan nan 0
-23.02943 -12.29056 3.200289 19
-13.00083 -2.833336 2.418094 13
-20.16285 -10.67881 6.102953 16
-21.19385 -11.48183 0.1386037 13
-25.6372 -10.91733 0 14
-11.43713 -3.680566 -0.06270067 39
-12.07992 -2.703541 -0.144297 15
-20.83638 -11.30212 0.698218 16
-25.4634 -10.88524 0.6420106 21
-11.45235 -3.70963 0.2052407 45
-12.0259 -2.715614 0.1501469 18
nan nan nan 0
-0.3085677 -0.1634917 -0.08087836 10
-7.911571 -4.276855 -1.244061 18
-10.7156 -5.674947 -1.144584 14
-12.77648 -6.824571 -0.9265417 72
-13.72104 -5.805415 -1.039023 13
-13.58983 -4.318247 -1.07416 11
-12.47302 -2.748102 -1.040098 9
-16.30693 -8.85124 -0.7533364 29
nan nan nan 0
-11.46059 -3.701315 -0.6290781 255
-12.05083 -2.719066 -0.7165 9
-20.32937 -10.94 -0.4022779 24
-20.88434 -8.867187 -0.5258405 9
-11.48168 -3.672831 -0.3502973 44
-12.1593 -2.70791 -0.4292917 36
-7.216214 -1.636944 -1.334872 11
-10.72608 -2.350227 -1.231092 15
-12.24628 -2.695911 0.5020487 7
-21.15458 -11.32251 1.393791 15
-11.73802 -2.517958 0.9732303 4
-23.02395 -12.18455 3.193586 17
-13.01064 -2.787937 2.418094 14
-20.06746 -10.53872 6.062836 9
-21.07085 -11.32018 0.1375382 6
-11.60554 -4.893216 0 32
-11.44038 -3.637592 -0.06264831 40
-12.19671 -2.684958 -0.1455833 14
-20.97692 -11.2838 0.7016096 17
-25.56568 -10.82358 0.6436353 16
-11.44619 -3.663538 0.2048986 45
-12.13781 -2.696344 0.1514297 16
nan nan nan 0
-0.304892 -0.1600927 -0.07961464 10
-7.926452 -4.249212 -1.244061 18
-10.73535 -5.637507 -1.144584 14
-12.82668 -6.793954 -0.928462 68
-13.75962 -5.765196 -1.040418 14
-13.60958 -4.272275 -1.074537 11
-12.50689 -2.709811 -1.042133 9
-16.37731 -8.815586 -0.7551659 31
-11.72728 -4.980655 -0.5923083 34
-11.45917 -3.656736 -0.6282932 198
-12.16259 -2.699654 -0.7225991 9
-20.34539 -10.8572 -0.4018416 28
nan nan nan 0
-11.48014 -3.628214 -0.3498602 45
-12.23214 -2.679322 -0.4315375 14
-7.226686 -1.612813 -1.335764 11
-10.73907 -2.313815 -1.231651 17
-11.81124 -2.557149 0.4837887 30
-21.3086 -11.30947 1.401343 11
-11.69797 -2.46671 0.9691769 7
nan nan nan 0
-13.01548 -2.741493 2.417198 14
-20.18122 -10.50878 6.08613 17
-21.08818 -11.23481 0.1373942 8
-11.63639 -4.858456 0 34
-11.44824 -3.596138 -0.06262213 38
-12.3233 -2.667704 -0.1469865 17
-21.11318 -11.26228 0.7048537 15
-11.65416 -4.884909 0.292456 27
-11.4446 -3.61904 0.2046421 45
-12.27415 -2.681651 0.1530179 16
nan nan nan 0
-0.3054489 -0.1590274 -0.07961464 9
-7.945607 -4.223845 -1.24475 18
-10.75496 -5.6 -1.144584 14
-12.82823 -6.73753 -0.9268618 70
-13.79809 -5.724779 -1.041813 13
-13.62917 -4.22622 -1.074914 12
-12.64301 -2.693077 -1.052717 6
-16.44324 -8.777197 -0.7567922 22
-11.76301 -4.947437 -0.5932399 21
-11.48615 -3.621216 -0.6290781 44
-12.53773 -2.73687 -0.7443817 10
-20.62174 -10.91244 -0.4065538 26
-11.67526 -4.860347 -0.2926881 40
-11.47842 -3.583652 -0.349423 47
-12.47103 -2.685958 -0.4396569 4
-7.237078 -1.588629 -1.336656 11
-10.75194 -2.277342 -1.23221 17
-11.66859 -2.483731 0.4775683 9
-21.12712 -11.11874 1.386821 27
-11.72115 -2.428888 0.9703928 18
-22.97199 -11.95248 3.174696 18
-13.02497 -2.696044 2.417198 13
-20.09764 -10.3762 6.049895 28
-21.3306 -11.26861 0.1387189 17
-11.62556 -4.806343 0 43
-11.45117 -3.553192 -0.06256977 38
-12.43524 -2.646483 -0.1482143 18
-21.0331 -11.12539 0.7008723 18
-11.62036 -4.823112 0.2911794 44
-11.43808 -3.573109 0.2043 44
-12.42521 -2.669182 0.1547894 14
nan nan nan 0
-0.3060022 -0.1579602 -0.07961464 9
-7.960303 -4.196084 -1.24475 19
-10.77886 -5.564709 -1.145056 13
-12.88264 -6.708854 -0.9291021 76
-13.83183 -5.682267 -1.042859 14
-13.6486 -4.180079 -1.07529 11
-12.77428 -2.674405 -1.062894 7
-16.51792 -8.743131 -0.7588249 13
-11.73411 -4.887136 -0.5909107 38
nan nan nan 0
-12.56185 -2.696225 -0.745253 27
-20.64643 -10.83341 -0.406292 23
-11.66443 -4.808129 -0.2919918 40
-11.47653 -3.539147 -0.3489859 47
-12.69057 -2.686828 -0.4470853 3
-7.247389 -1.564392 -1.337548 11
-10.76469 -2.240807 -1.232769 16
-11.74077 -2.456255 0.4801769 4
-21.17465 -11.04954 1.387402 24
-11.74421 -2.390934 0.9716089 4
-23.0268 -11.87905 3.176524 16
-13.02948 -2.649584 2.416301 14
-20.78283 -10.63843 6.245303 25
-21.27238 -11.14302 0.1380853 18
-11.61913 -4.756258 0 43
-11.44916 -3.508805 -0.06249123 40
-12.56186 -2.627577 -0.1496176 11
-21.09394 -11.06351 0.7016096 24
-11.5909 -4.763513 0.2900189 42
-11.43615 -3.528741 0.2040435 44
-12.57632 -2.655691 0.1565609 32
nan nan nan 0
-0.3065517 -0.1568911 -0.07961464 9
-7.979289 -4.170568 -1.245438 18
-10.79822 -5.52705 -1.145056 13
-12.89268 -6.656972 -0.928142 74
-13.8793 -5.645229 -1.044952 13
-13.66311 -4.13241 -1.07529 11
nan nan nan 0
-16.55276 -8.687743 -0.7590282 17
nan nan nan 0
nan nan nan 0
-12.58584 -2.655445 -0.7461243 8
-20.65308 -10.74512 -0.4056812 23
-11.65338 -4.756047 -0.2912955 34
-11.47447 -3.494699 -0.3485487 46
-12.84665 -2.67299 -0.4522679 4
-7.252805 -1.539084 -1.337548 12
-10.78219 -2.205204 -1.233888 18
-11.71501 -2.408231 0.4787723 15
nan nan nan 0
-13.08182 -2.61507 1.081862 3
nan nan nan 0
-13.0483 -2.606009 2.418094 14
-20.79831 -10.55488 6.238833 35
-21.391 -11.11019 0.1386037 34
-11.6125 -4.706277 0 39
-11.44698 -3.464476 -0.06241269 42
-12.71789 -2.613846 -0.1513716 10
-21.14129 -10.99443 0.7019045 26
-11.57041 -4.707946 0.2890904 43
-11.43405 -3.48443 0.2037869 44
-12.7226 -2.640163 0.1582713 16
nan nan nan 0
-0.3070975 -0.1558201 -0.07961464 10
-7.993798 -4.14269 -1.245438 21
-10.81745 -5.489324 -1.145056 14
-12.99578 -6.652884 -0.9339029 66
-13.88967 -5.59302 -1.044254 12
-13.68223 -4.086118 -1.075667 10
-13.43747 -2.71518 -1.116629 8
-16.59628 -8.636832 -0.759638 18
-11.75869 -4.801321 -0.5904449 49
-11.43744 -3.474624 -0.6243679 4
-12.76611 -2.646894 -0.7562894 11
-20.47278 -10.56061 -0.4014053 20
-11.6282 -4.69848 -0.290251 20
-11.47224 -3.450308 -0.3481116 47
-13.39937 -2.738998 -0.4714435 9
-7.26295 -1.514759 -1.338441 12
-10.79469 -2.168529 -1.234447 16
-11.75273 -2.373244 0.4799762 3
-22.24156 -11.40973 1.452169 13
-13.20824 -2.592376 1.091591 42
-23.19326 -11.76066 3.188102 23
-13.06214 -2.56139 2.418991 17
nan nan nan 0
-21.34076 -10.98966 0.1380277 31
-11.60565 -4.656401 0 29
-11.44463 -3.420204 -0.06233415 40
-12.87887 -2.600044 -0.1531841 10
-21.25949 -10.96181 0.7045588 17
-11.55432 -4.65445 0.2882781 44
-11.43178 -3.440177 0.2035304 46
-12.86891 -2.623647 0.1599816 13
nan nan nan 0
-0.311924 -0.1569937 -0.08087836 9
-8.012614 -4.117027 -1.246126 20
-10.84099 -5.453769 -1.145527 14
-13.08565 -6.641379 -0.9387036 59
-13.90447 -5.542655 -1.043905 12
-13.70119 -4.039743 -1.076043 11
-13.45176 -2.669226 -1.117036 8
-16.63964 -8.585724 -0.7602478 14
-11.76149 -4.754628 -0.5897462 31
-11.43994 -3.431811 -0.6238446 5
-12.78995 -2.605299 -0.7571608 3
-20.72314 -10.5984 -0.4055939 24
-11.61204 -4.644861 -0.2894386 44
-11.46984 -3.405975 -0.3476744 48
-13.43825 -2.698099 -0.47248 11
-7.268194 -1.489397 -1.338441 11
-10.80707 -2.131795 -1.235006 15
-13.05481 -2.588161 0.5329502 34
-22.21452 -11.29807 1.447812 18
-13.35424 -2.572593 1.10294 36
-23.37605 -11.75098 3.207601 25
-13.10482 -2.522273 2.425267 31
-21.37709 -10.66174 6.390242 24
-21.40126 -10.92647 0.1381717 18
-11.59395 -4.604784 0 24
-11.44691 -3.377406 -0.06228179 40
-13.72656 -2.720986 -0.1631819 32
nan nan nan 0
-11.55193 -4.60668 0.2878138 44
-11.42934 -3.395982 0.2032738 44
-13.01527 -2.60614 0.161692 13
nan nan nan 0
-0.31247 -0.1559039 -0.08087836 10
-8.031348 -4.091283 -1.246814 18
-10.85996 -5.415894 -1.145527 14
-13.2068 -6.645035 -0.9457447 49
-13.94229 -5.50141 -1.045301 11
-13.71521 -3.991892 -1.076043 11
-13.4561 -2.621304 -1.116629 9
-16.68285 -8.53442 -0.7608576 19
-11.78265 -4.715401 -0.5899791 5
-11.41354 -3.380519 -0.6217511 33
-16.87157 -3.373686 -0.9988016 4
-20.55939 -10.42421 -0.4016671 23
-11.6003 -4.593253 -0.2887423 43
-11.46727 -3.361701 -0.3472373 45
-13.41817 -2.645386 -0.4714435 8
-7.278172 -1.464985 -1.339333 11
-10.81445 -2.094058 -1.235006 14
-13.21089 -2.571148 0.5389699 30
nan nan nan 0
-13.54924 -2.561058 1.118343 45
-23.46578 -11.69367 3.214304 36
-13.17155 -2.487442 2.436026 35
-21.34059 -10.55065 6.368242 19
-21.49279 -10.87881 0.1385173 18
-11.58669 -4.555135 0 17
-11.44423 -3.333236 -0.06220325 39
-13.73597 -2.673054 -0.1631819 29
-21.98183 -11.14089 0.7259403 10
-11.54934 -4.558984 0.2873496 44
-11.42673 -3.351846 0.2030173 45
-13.17147 -2.589569 0.1635246 12
nan nan nan 0
-0.3130123 -0.1548122 -0.08087836 10
-8.04558 -4.063224 -1.246814 24
-10.88326 -5.380161 -1.145998 13
-13.19866 -6.583293 -0.9435043 52
-13.96141 -5.452709 -1.045301 11
-13.73385 -3.945369 -1.07642 11
-13.47986 -2.577118 -1.117851 8
-16.73036 -8.485176 -0.7616707 16
-11.67367 -4.624556 -0.5836903 31
-11.43486 -3.343458 -0.6222745 46
-16.83916 -3.306132 -0.9961877 34
-20.56439 -10.33666 -0.4010563 26
-11.58834 -4.541785 -0.2880459 43
-11.46453 -3.317487 -0.3468001 47
-13.24579 -2.563476 -0.4650516 3
-7.288069 -1.440521 -1.340225 10
-10.82657 -2.057221 -1.235565 14
-13.37193 -2.554012 0.5451904 36
-23.18574 -11.58924 1.505899 12
-13.6316 -2.527344 1.124424 45
nan nan nan 0
-13.2914 -2.462009 2.456648 36
-21.27755 -10.42719 6.338478 18
-22.03556 -11.05723 0.1417714 16
-11.57922 -4.505592 0 11
-11.44618 -3.290506 -0.06215089 38
-13.73539 -2.623219 -0.163065 26
-22.04737 -11.07756 0.7268251 9
-11.54191 -4.509543 0.2867694 43
-11.42396 -3.30777 0.2027607 44
-13.34244 -2.574774 0.1655404 12
nan nan nan 0
-0.3135508 -0.1537187 -0.08087836 10
-8.064141 -4.037335 -1.247502 20
-10.90198 -5.342138 -1.145998 14
-13.22156 -6.537181 -0.9435043 65
-12.63124 -4.882276 -0.9441538 4
-13.74754 -3.897405 -1.07642 10
-13.49367 -2.530966 -1.118258 10
-16.77773 -8.435707 -0.7624838 18
-11.55491 -4.530882 -0.5769357 52
-11.41288 -3.293836 -0.6204427 44
-16.87511 -3.252047 -0.9976399 13
nan nan nan 0
-11.58548 -4.494072 -0.2875817 40
-11.46162 -3.273333 -0.346363 47
-13.40685 -2.546064 -0.470407 4
-7.293053 -1.415072 -1.340225 10
-10.83857 -2.020325 -1.236124 17
-13.533 -2.535783 0.5514108 45
-23.31549 -11.55258 1.511708 38
-13.59621 -2.471741 1.120775 45
-24.79916 -12.14307 3.38553 16
-13.41124 -2.435769 2.477269 40
-21.45716 -10.42252 6.381183 34
-21.88155 -10.88444 0.1405331 18
-11.56222 -4.452563 0 5
-11.44798 -3.247804 -0.06209853 38
-13.69532 -2.566069 -0.1624803 31
nan nan nan 0
-11.53893 -4.462012 0.2863051 44
-11.42102 -3.263754 0.2025042 46
-13.45451 -2.547678 0.1668231 16
nan nan nan 0
-0.3140855 -0.1526233 -0.08087836 8
-8.082621 -4.011365 -1.24819 19
-10.92056 -5.30405 -1.145998 13
-13.23534 -6.486595 -0.9428642 42
-12.62491 -4.829241 -0.9424099 5
-13.76587 -3.850735 -1.076797 11
-13.50732 -2.484748 -1.118665 9
-16.8339 -8.390471 -0.7637035 16
-11.53806 -4.477866 -0.5753053 52
-11.43391 -3.256712 -0.6209661 44
-16.91579 -3.198678 -0.9993825 30
-21.03044 -10.38776 -0.4087353 28
-11.57777 -4.444643 -0.2870015 39
-11.45855 -3.22924 -0.3459259 49
-13.58761 -2.531212 -0.4764533 6
-7.302781 -1.390522 -1.341118 11
-10.85044 -1.98337 -1.236683 13
-13.61548 -2.502043 0.5544207 46
nan nan nan 0
-13.58022 -2.419905 1.118749 47
-26.76103 -12.98856 3.647549 15
-13.49715 -2.402702 2.491615 33
-21.39334 -10.29935 6.351419 42
-22.17051 -10.93188 0.1421458 20
-11.54032 -4.397927 0 4
-11.44962 -3.205129 -0.06204617 39
-13.66486 -2.511034 -0.1620126 24
-23.87619 -11.78889 0.7844815 9
-11.53109 -4.41277 0.2857248 45
-11.4179 -3.219799 0.2022476 46
-13.65013 -2.53532 0.1691444 37
nan nan nan 0
-0.3146164 -0.1515259 -0.08087836 9
-8.096573 -3.983128 -1.24819 21
-10.939 -5.265898 -1.145998 14
-13.28931 -6.455628 -0.9451045 46
-12.60904 -4.772779 -0.9399684 5
-13.77922 -3.80266 -1.076797 10
-13.52082 -2.438466 -1.119072 9
-16.88548 -8.342729 -0.7647198 13
-11.5443 -4.43398 -0.5748395 49
-11.52693 -3.239735 -0.6254147 8
-16.93176 -3.14052 -0.9996729 20
-21.08453 -10.32309 -0.4090844 28
-11.57452 -4.397099 -0.2865372 37
-11.46012 -3.186546 -0.3456345 50
-13.74384 -2.510649 -0.4816359 31
-7.30759 -1.365022 -1.341118 11
-10.86219 -1.946356 -1.237242 14
-13.60938 -2.45185 0.5538187 46
-22.51602 -10.96111 1.454783 16
-13.57385 -2.369921 1.117533 45
-24.91016 -11.98256 3.389186 11
-13.48607 -2.352201 2.488028 18
-21.47274 -10.24542 6.36436 35
-22.32531 -10.91153 0.1428946 6
-11.52285 -4.345262 0 3
-11.4511 -3.162483 -0.06199382 39
-13.6637 -2.46155 -0.1618957 22
-23.97106 -11.73185 0.7862511 29
-11.52306 -4.363637 0.2851446 45
-11.41462 -3.175905 0.2019911 46
-13.64906 -2.485869 0.1690222 22
nan nan nan 0
-0.3151434 -0.1504268 -0.08087836 9
-8.114878 -3.957015 -1.248878 22
-10.95732 -5.227682 -1.145998 14
-13.32975 -6.417866 -0.9463848 66
-12.63496 -4.732236 -0.940666 6
-13.79722 -3.755847 -1.077173 11
-13.52925 -2.391255 -1.119072 9
-16.9459 -8.299128 -0.7661428 13
-11.52702 -4.381229 -0.573209 42
-11.5526 -3.20348 -0.6261997 15
-16.95244 -3.083181 -1.000254 13
-21.07546 -10.22759 -0.4082118 29
-11.56641 -4.347871 -0.285957 37
-11.46635 -3.145202 -0.3454887 47
-13.96896 -2.50133 -0.4892371 10
-7.317151 -1.340389 -1.34201 11
-10.87381 -1.909285 -1.237801 14
-13.58833 -2.399129 0.5526147 48
-22.65304 -10.93019 1.461172 27
-13.71468 -2.34515 1.128477 4
-22.93616 -10.93411 3.11498 8
-13.47965 -2.302632 2.485338 18
nan nan nan 0
nan nan nan 0
-11.49111 -4.287528 0 3
-11.44759 -3.118551 -0.06191527 39
-13.62297 -2.405167 -0.161311 35
-23.9669 -11.62628 0.7847764 9
-11.51481 -4.314615 0.2845643 44
-11.42082 -3.134718 0.2019055 46
-13.63796 -2.434703 0.1687779 40
nan nan nan 0
-0.3156666 -0.1493258 -0.08087836 9
-8.128641 -3.928664 -1.248878 22
-10.98 -5.191531 -1.14647 14
-13.37008 -6.379899 -0.9476649 56
-12.66544 -4.693304 -0.9417124 9
-13.81507 -3.708955 -1.07755 11
-13.54242 -2.344863 -1.119479 9
-17.00172 -8.253023 -0.7673625 17
-11.52822 -4.335689 -0.5725103 38
-11.55408 -3.160501 -0.6256763 69
-16.98276 -3.027485 -1.001415 14
-21.10203 -10.14962 -0.4080372 30
-11.56277 -4.300498 -0.2854928 39
-11.47726 -3.105158 -0.3454887 46
-14.1991 -2.49133 -0.4970109 8
-7.321784 -1.314839 -1.34201 11
-10.88531 -1.872157 -1.23836 13
-13.61631 -2.35508 0.5534174 16
nan nan nan 0
-13.90957 -2.328453 1.14388 4
-23.037 -10.88367 3.123511 33
-13.61861 -2.277417 2.509546 5
-22.41394 -10.50326 6.621885 18
-23.54117 -11.30318 0.1501804 32
-11.506 -4.247389 0 5
-11.44875 -3.075979 -0.06186291 43
-13.70518 -2.370351 -0.162188 3
nan nan nan 0
-11.50637 -4.265703 0.2839841 44
-11.42687 -3.093527 0.20182 45
-13.6316 -2.384504 0.1685946 16
nan nan nan 0
-0.3161858 -0.148223 -0.08087836 9
-8.14677 -3.902408 -1.249566 20
-10.99805 -5.153172 -1.14647 14
-13.41031 -6.341729 -0.9489452 44
-12.7473 -4.673108 -0.9465953 7
-13.83275 -3.661984 -1.077927 11
-13.55544 -2.298408 -1.119886 9
-17.00792 -8.18279 -0.7663461 36
-11.52457 -4.288451 -0.5715786 44
-11.57951 -3.12405 -0.6264613 8
-17.01289 -2.971616 -1.002577 66
-21.2727 -10.14047 -0.4106551 21
-11.55426 -4.251476 -0.2849125 38
-11.48803 -3.065076 -0.3454887 17
-14.41457 -2.477221 -0.5042666 9
-7.331176 -1.290123 -1.342902 10
-10.89668 -1.834971 -1.238919 13
-13.89046 -2.352481 0.564253 4
-23.49101 -11.13322 1.510255 49
-14.10943 -2.311228 1.159688 11
-23.18271 -10.85371 3.138135 17
-13.82067 -2.26156 2.54541 3
-22.45923 -10.42903 6.624473 31
-23.71591 -11.28542 0.1510443 37
-11.51137 -4.203769 0 6
-11.44975 -3.033437 -0.06181055 45
-13.94014 -2.360811 -0.1648775 3
-24.3723 -11.61354 0.7953935 11
-11.50242 -4.218625 0.2835198 42
-11.43276 -3.052332 0.2017345 45
-13.82711 -2.368917 0.1709158 3
nan nan nan 0
-0.3167013 -0.1471185 -0.08087836 9
-8.160342 -3.873947 -1.249566 20
-11.01598 -5.11475 -1.14647 15
-13.45043 -6.303356 -0.9502254 45
-12.87138 -4.667706 -0.9546173 7
-13.85027 -3.614935 -1.078303 10
-13.56338 -2.251076 -1.119886 9
-17.03638 -8.123371 -0.7663461 33
-11.52072 -4.241292 -0.5706469 46
nan nan nan 0
-17.04776 -2.916412 -1.004029 62
-21.43904 -10.12811 -0.4131857 24
-11.55024 -4.204277 -0.2844483 36
-11.48899 -3.022415 -0.3451973 27
-14.63504 -2.462465 -0.511695 9
-7.340483 -1.265356 -1.343794 10
-10.90792 -1.797729 -1.239478 13
-14.06125 -2.330878 0.5708748 5
-23.5478 -11.05964 1.511417 40
-14.27489 -2.28713 1.172659 4
-23.40951 -10.86048 3.163728 35
-14.10049 -2.256727 2.595619 3
-22.28053 -10.2516 6.561063 34
-23.83203 -11.23884 0.1515339 27
-11.51186 -4.158463 0 7
-11.44092 -2.9884 -0.06170584 44
-14.11601 -2.339871 -0.1668654 8
-24.32232 -11.48569 0.7924443 16
-11.49358 -4.169919 0.2829396 44
-11.43851 -3.011134 0.201649 127
-14.02761 -2.352818 0.1732982 3
nan nan nan 0
-0.3172129 -0.1460121 -0.08087836 10
-8.178296 -3.847549 -1.250254 19
-11.03376 -5.076266 -1.14647 13
-13.49045 -6.26478 -0.9515055 44
-12.9721 -4.653073 -0.9608954 8
-13.86763 -3.567808 -1.07868 10
-13.57607 -2.204514 -1.120293 9
-17.0556 -8.059582 -0.7659395 31
-11.51668 -4.194211 -0.5697153 96
-11.61552 -3.046933 -0.6272464 5
-17.07753 -2.860178 -1.005191 55
-21.55575 -10.09138 -0.4147564 24
-11.54604 -4.157156 -0.2839841 36
-11.4898 -2.979785 -0.3449059 43
-14.84571 -2.444579 -0.5187778 8
-7.344855 -1.239725 -1.343794 10
-10.91904 -1.760431 -1.240037 13
-14.26164 -2.3129 0.5787004 11
-23.58626 -10.97738 1.511417 48
-14.5142 -2.273443 1.191711 4
-23.43376 -10.77248 3.1619 47
-14.28325 -2.234799 2.627896 7
-22.35572 -10.1918 6.572709 37
-23.97076 -11.20217 0.1521674 37
-11.50277 -4.109838 0 8
-11.43675 -2.944708 -0.06162729 44
-14.32644 -2.323321 -0.1692625 7
nan nan nan 0
-11.48925 -4.123018 0.2824754 43
-11.44412 -2.969933 0.2015635 150
-14.21336 -2.332925 0.1754972 8
nan nan nan 0
-0.3177207 -0.1449039 -0.08087836 9
-8.191676 -3.818978 -1.250254 18
-11.05594 -5.039787 -1.146941 14
-13.55756 -6.238525 -0.9547061 30
-13.05407 -4.631118 -0.9657783 10
-13.88484 -3.520604 -1.079057 10
-13.58861 -2.157891 -1.1207 10
-17.10173 -8.008477 -0.7667526 30
-11.51246 -4.147212 -0.5687836 255
-11.61642 -3.00387 -0.6267231 43
-17.09726 -2.802161 -1.005772 58
-21.8221 -10.12343 -0.4192068 22
-11.54635 -4.111795 -0.2836359 41
-11.48076 -2.934711 -0.344323 48
-15.05643 -2.425252 -0.5258607 9
-7.353993 -1.214878 -1.344687 9
-10.93002 -1.723076 -1.240596 13
-14.46701 -2.294331 0.5867268 10
-23.72414 -10.94099 1.517807 37
-14.72404 -2.253601 1.20833 10
-23.48476 -10.69679 3.163728 47
nan nan nan 0
-22.14471 -10.00232 6.50024 22
-23.71484 -10.9818 0.1502956 33
-11.46047 -4.049663 0 10
-11.42758 -2.899852 -0.06152258 45
-14.61595 -2.31783 -0.1725952 7
-23.6856 -10.98326 0.7691458 21
-11.48473 -4.076197 0.2820111 45
-11.44473 -2.927491 0.2013924 48
-14.40901 -2.313344 0.1778184 7
nan nan nan 0
-0.3182245 -0.143794 -0.08087836 10
-8.209452 -3.79244 -1.250942 22
-11.07347 -5.001164 -1.146941 13
-13.55202 -6.178733 -0.9527857 12
-14.09143 -4.943971 -1.041464 9
-13.89704 -3.472116 -1.079057 10
-13.60591 -2.11197 -1.121514 9
-17.15676 -7.961358 -0.7679722 30
-11.50804 -4.100292 -0.567852 255
-11.56393 -2.947281 -0.6233212 23
-17.1168 -2.74404 -1.006353 58
-21.68017 -9.965719 -0.4158036 23
-11.54649 -4.066483 -0.2832877 36
-11.49578 -2.895838 -0.3444687 47
-15.2672 -2.404483 -0.5329436 8
-7.358188 -1.189201 -1.344687 10
-10.94088 -1.685667 -1.241156 12
-14.66749 -2.273592 0.5945525 4
-23.88022 -10.91207 1.525358 32
-14.92405 -2.230852 1.224138 10
-23.47673 -10.59433 3.157634 36
nan nan nan 0
-22.20593 -9.936805 6.508005 26
-23.80301 -10.9219 0.1506124 37
-11.45094 -4.001383 0 32
-11.41337 -2.853884 -0.06139167 45
-14.90064 -2.309582 -0.1758693 8
-23.70109 -10.89008 0.7684085 37
-11.48003 -4.029458 0.2815469 44
-11.44518 -2.885081 0.2012214 46
-14.58 -2.288559 0.1798342 5
nan nan nan 0
-0.3231064 -0.1447321 -0.08214208 10
-8.222639 -3.763761 -1.250942 20
-11.0954 -4.964514 -1.147413 13
-13.55986 -6.125222 -0.9518256 10
-14.17457 -4.917648 -1.046347 11
-13.9236 -3.427158 -1.080186 10
-13.61812 -2.065208 -1.121922 10
-17.17083 -7.895156 -0.7673625 40
-11.50816 -4.055114 -0.5671532 236
-11.59836 -2.912975 -0.6246296 45
-17.1312 -2.685046 -1.006643 60
-21.84221 -9.94803 -0.4182469 31
-11.54173 -4.019574 -0.2828235 35
-11.52037 -2.859303 -0.3449059 47
-15.48295 -2.38303 -0.5401992 9
-7.367155 -1.164273 -1.345579 9
-10.95653 -1.64894 -1.242274 12
-14.88775 -2.254466 0.6031808 5
-23.91817 -10.82865 1.525358 23
-15.15367 -2.21104 1.242378 8
-23.57699 -10.54068 3.166165 17
nan nan nan 0
-22.05947 -9.778943 6.454947 30
nan nan nan 0
-11.47902 -3.966288 0 12
-11.44754 -2.820003 -0.06152258 44
-15.12613 -2.290412 -0.1784419 7
-23.8845 -10.87358 0.7731272 27
-11.47513 -3.982801 0.2810827 44
-11.46003 -2.846317 0.2013069 46
-14.81029 -2.271683 0.1825831 4
nan nan nan 0
-0.3236097 -0.1436034 -0.08214208 9
-8.240236 -3.737084 -1.251631 18
-11.11721 -4.927774 -1.147884 13
-13.60393 -6.088051 -0.9534258 11
-14.20581 -4.872996 -1.047393 9
-13.95486 -3.383231 -1.081693 9
-13.63511 -2.019116 -1.122736 8
-16.96191 -7.727398 -0.7567922 37
-11.50338 -4.008342 -0.5662215 255
-11.60361 -2.871273 -0.6243679 17
-17.15034 -2.62674 -1.007224 51
-21.96337 -9.910812 -0.4199049 27
-11.54152 -3.974377 -0.2824754 37
-11.55456 -2.825003 -0.3456345 47
-15.71355 -2.362324 -0.5479732 8
-7.371174 -1.13855 -1.345579 9
-10.96713 -1.611405 -1.242833 13
-15.09817 -2.232372 0.6114078 7
-23.8784 -10.71035 1.520421 26
-15.38332 -2.189651 1.260619 8
-23.65901 -10.47843 3.172259 17
nan nan nan 0
-22.19518 -9.746566 6.484711 23
-24.19777 -10.89926 0.1526282 30
nan nan nan 0
-11.47189 -2.783561 -0.06160111 42
-15.33188 -2.266778 -0.1807806 5
-23.97697 -10.81481 0.7748967 27
-11.47005 -3.936229 0.2806185 45
-11.50389 -2.814608 0.2019055 44
-15.04559 -2.253965 0.185393 5
nan nan nan 0
-0.3197129 -0.1404537 -0.08087836 9
-8.253231 -3.708297 -1.251631 19
-11.1389 -4.89094 -1.148355 13
-13.63422 -6.044576 -0.954066 10
-12.10192 -4.103876 -0.8907901 3
-13.98113 -3.33797 -1.082823 8
-13.64701 -1.972219 -1.123143 9
